# .PCD v0.7 - Point Cloud Data file format
VERSION 0.7
FIELDS x y z
SIZE 4 4 4
TYPE F F F
COUNT 1 1 1
WIDTH 1390
HEIGHT 1
VIEWPOINT 0 0 0 1 0 0 0
POINTS 1390
DATA ascii
0.1184995 -0.034242239 0.57555228
0.1188539 -0.14992779 0.57799917
0.01170081 -0.015854919 0.61675489
-0.0093951523 -0.2028635 0.63400912
-0.022021649 -0.01560071 0.46785331
0.06191596 -0.19537289 0.60206902
-0.046764139 -0.016923221 0.63679469
-0.038954452 -0.21729261 0.64600247
0.095413007 -0.01193035 0.53962958
0.042383179 -0.0108518 0.53360277
0.03739636 -0.01871267 0.60731149
-0.04283255 -0.01295194 0.61851269
0.059708249 -0.01850614 0.44949999
0.039364278 -0.016059101 0.37597489
-0.0172345 -0.022327211 0.46500161
0.1187417 -0.1743013 0.57748568
-0.079972111 -0.01398224 0.50071079
-0.03239942 -0.01277325 0.5761494
-0.02436447 -0.0153943 0.57995248
0.001527041 -0.01894775 0.52346319
0.06044757 -0.01504308 0.44116229
0.017166911 -0.01481351 0.52291763
0.023943391 -0.14407501 0.61785167
-0.01319194 -0.017719271 0.40916321
-0.061483651 -0.017901421 0.48771441
0.024644019 -0.1055953 0.61473769
0.1166544 -0.20152269 0.57751369
0.03612332 -0.018401589 0.44836631
0.1113425 -0.31966749 0.58416837
0.1195114 -0.032643139 0.57137388
0.075450033 -0.15597869 0.5964762
0.1223049 -0.27296889 0.56823152
0.1161936 -0.090098143 0.57892352
0.1188053 -0.2710675 0.58128202
0.099714682 -0.019663811 0.58384728
0.051339671 -0.01618105 0.48685071
0.044242371 -0.082717963 0.60605139
0.097917967 -0.1114186 0.58473003
0.093684264 -0.32673809 0.46955621
-0.01077071 -0.20756771 0.63152993
-0.026200891 -0.01179481 0.60207081
-0.01790726 -0.019685781 0.61342663
0.077721283 -0.01436266 0.54932249
0.1203356 -0.056789462 0.57070237
-0.006917506 -0.01525792 0.39689451
-0.1002521 -0.01205969 0.4425956
-0.057688359 -0.01513502 0.40939489
0.036354169 -0.028117839 0.61030573
-0.045036141 -0.01936629 0.63730228
0.1137568 -0.2007208 0.57948631
0.1160547 -0.1446351 0.58090901
0.01346198 -0.067910247 0.61917591
0.01266047 -0.01837099 0.61836338
0.1137204 -0.2305131 0.53709179
-0.01387435 -0.1447199 0.6314438
-0.052550022 -0.01685858 0.5324918
0.0042004292 -0.1690235 0.62836683
0.1248533 -0.32292441 0.55492759
-0.084594853 -0.0083858967 0.61608422
0.052791681 -0.0086888969 0.56219667
0.030482201 -0.01251009 0.51271957
-0.0057865679 -0.01266611 0.55820549
-0.082141943 -0.017134311 0.42768061
0.1160166 -0.100781 0.57469672
-0.1196994 -0.01520044 0.45309761
-0.01262075 -0.016471829 0.62441379
0.1139895 -0.1614009 0.58245742
0.082184337 -0.32778391 0.39691219
0.081948832 -0.2263024 0.5945912
0.08742401 -0.322429 0.426581
0.091562033 -0.32645831 0.440698
-0.01429743 -0.1221542 0.63183922
-0.036652151 -0.0262194 0.63930207
0.02722903 -0.01544231 0.42420891
0.043453109 -0.01267809 0.48480409
-0.042268809 -0.003290623 0.62856382
-0.0679636 -0.01352078 0.46295151
-0.1035363 -0.01229563 0.58599758
-0.1387337 -0.01408106 0.46599549
0.115582 -0.1006234 0.56201237
0.044277761 -0.15066101 0.60664469
-0.068819217 -0.00645557 0.5702368
-0.1279829 -0.01488709 0.43639809
0.015734229 -0.0095165968 0.61232769
-0.026514949 -0.0092793703 0.56834602
0.095936239 -0.33189511 0.4795588
-0.05741227 -0.015677631 0.6432811
-0.048866 -0.2006733 0.64914978
-0.03887343 -0.041073982 0.64335263
0.083780833 -0.2256363 0.59289259
-0.056750089 -0.034775529 0.64673293
0.1291416 -0.32353911 0.54280281
-0.095418721 -0.01402241 0.62230569
-0.1144111 -0.009667635 0.55469632
-0.0585742 -0.01394805 0.4615716
0.118538 -0.2445312 0.578058
0.067950442 -0.01298934 0.53100067
-0.028278889 -0.01061904 0.4618763
-0.01724517 -0.01613057 0.45150319
0.01473311 -0.022318181 0.39081851
0.0078836083 -0.1065962 0.62078959
0.020045459 -0.33716711 0.1202536
-0.016094619 -0.0096287429 0.56424922
0.02502894 -0.01046094 0.60859632
0.14092 -0.3191838 0.56443793
0.080023587 -0.32334459 0.4093959
0.1567708 -0.3202298 0.60570443
0.0934017 -0.3229371 0.36079001
0.1334088 -0.3240498 0.57606238
0.1021523 -0.33218101 0.37566721
0.1485527 -0.32861871 0.61933929
0.09422262 -0.01215693 0.5579741
0.0021952391 -0.0086348951 0.59333909
-0.09653312 -0.009985745 0.60902798
0.0078132749 -0.01230666 0.50274289
-0.063013323 -0.01148677 0.50109392
-0.1024213 -0.0063938652 0.59465599
0.017503951 -0.01381654 0.5035342
-0.04789805 -0.01177394 0.55558032
-0.070839703 -0.0073510711 0.58598691
0.1087146 -0.3252252 0.48646009
-0.0128417 -0.1252009 0.6300444
0.1007909 -0.3221575 0.4611682
0.1464036 -0.31860361 0.61313689
0.14411481 -0.3257558 0.64894527
0.099768981 -0.021980699 0.58361661
0.0094457855 -0.01690227 0.40672499
0.048125342 -0.01420879 0.40318781
0.050270021 -0.007291615 0.54241198
0.1050839 -0.32221669 0.47373351
0.1086021 -0.3201966 0.470943
0.02999188 -0.01111588 0.58005309
-0.09915489 -0.0094015002 0.5416829
-0.043237269 -0.0080940425 0.59972757
-0.02346617 -0.01771188 0.46413729
-0.072990917 -0.0093507767 0.55859768
-0.036012322 -0.01267827 0.4694213
0.023387089 -0.008241564 0.52325338
0.01437455 -0.0070415139 0.54904968
0.1086996 -0.019563049 0.5511905
0.025583969 -0.01454249 0.4544636
0.064235002 -0.01185334 0.47911111
-0.001569778 -0.01780078 0.41249931
-0.027676251 -0.01624814 0.41234431
-0.04485384 -0.025683049 0.40740389
0.05978344 -0.0055678189 0.4728525
0.081608728 -0.32306221 0.43642399
0.047100648 -0.2495847 0.61147499
0.050483901 -0.029531119 0.44349489
-0.03975999 -0.01492333 0.45155081
-0.068689287 -0.0062572062 0.54755199
-0.048578259 -0.2049969 0.64923853
0.14112251 -0.3258355 0.59515071
-0.097923703 -0.0078406036 0.55664003
-0.073799282 -0.0122005 0.60625738
-0.039520379 -0.16302679 0.64114219
0.080812313 -0.01906288 0.59262413
-0.01560178 -0.01015675 0.50335997
0.031917099 -0.01398626 0.4580389
0.033677399 -0.01032951 0.44613791
0.046967119 -0.024058791 0.54384732
0.1033839 -0.0093358159 0.55492812
0.112816 -0.01672462 0.56230593
0.097258173 -0.017577531 0.52309889
0.1240611 -0.14574251 0.57465512
0.077512041 -0.01084408 0.57591158
0.054899439 -0.01115301 0.426734
0.039892789 -0.01566356 0.38325661
0.03393111 -0.01276225 0.43433309
0.096099637 -0.1024785 0.50239962
0.078066617 -0.25494099 0.4365547
0.065549143 -0.27589601 0.38304949
0.05166157 -0.31447899 0.36459389
0.052656859 -0.1855271 0.37694761
-0.0092669427 -0.019577211 0.60623533
0.045761589 -0.0096019208 0.56928992
0.042293161 -0.0092191696 0.53182042
0.094169199 -0.0101631 0.55135357
0.01305658 -0.13357159 0.62529111
0.034045581 -0.01186568 0.40242049
0.18078171 -0.30515951 0.48422071
0.0053167338 -0.017620331 0.43556979
0.033499349 -0.0084894896 0.5007571
-0.039670411 -0.0088316798 0.60565293
-0.02614275 -0.192068 0.64876068
0.025256339 -0.005592674 0.44648901
0.1178784 -0.30495989 0.58102369
0.074701399 -0.01530761 0.49268869
-0.062289599 -0.0096540153 0.64239299
0.05359143 -0.20392071 0.39116001
0.066725209 -0.02209213 0.53673822
0.038987279 -0.01476713 0.59571022
-0.1341394 -0.01363309 0.43936169
-0.13363209 -0.01516661 0.54667741
-0.1028643 -0.01223359 0.61156768
-0.065639444 -0.021214619 0.4099853
-0.1595172 -0.31972441 0.50080431
-0.1638795 -0.31646541 0.4889819
-0.1494865 -0.01617582 0.51154631
-0.1167077 -0.18511391 0.59489149
-0.1487463 -0.31267431 0.51680583
-0.1100451 -0.050350871 0.61134881
-0.1129513 -0.1107881 0.59997702
-0.031277541 -0.01364052 0.60570723
-0.101091 -0.027082611 0.630907
-0.1075383 -0.1083189 0.6133557
-0.1013154 -0.082304373 0.62969571
-0.1400419 -0.050641119 0.52863491
-0.1117904 -0.036312759 0.60502321
-0.1060453 -0.038995881 0.61624599
-0.167806 -0.069717228 0.45415479
-0.13796639 -0.01528443 0.52612728
-0.1432557 -0.028565809 0.51669592
-0.1170498 -0.25214481 0.59485441
-0.16370361 -0.18187679 0.4750784
-0.1010411 -0.20097139 0.63623631
-0.1232948 -0.2122044 0.58127552
-0.1027507 -0.2435986 0.63271111
-0.1430824 -0.047928561 0.51857263
-0.1657113 -0.088199928 0.46198171
-0.1436377 -0.066536397 0.5183937
-0.1654613 -0.1276567 0.4662264
-0.110709 -0.04783434 0.60293812
-0.1335537 -0.2720027 0.56927109
-0.096041679 -0.236614 0.64630491
-0.15729991 -0.3193607 0.4955712
-0.097843289 -0.22963209 0.64088309
-0.096574306 -0.02416469 0.64383692
-0.1170602 -0.13339341 0.6047008
-0.1332617 -0.30252671 0.55023158
-0.102948 -0.02786896 0.61296672
-0.1493191 -0.02619216 0.50490749
-0.097862177 -0.1581967 0.63508213
-0.1117173 -0.2917228 0.60687608
-0.094947763 -0.194049 0.64999211
-0.1144142 -0.3149009 0.58962172
-0.1467129 -0.32230699 0.52751583
-0.1201439 -0.2828401 0.59125209
-0.1290594 -0.31474781 0.54215991
-0.1116226 -0.024806369 0.60050148
-0.093327403 -0.2208757 0.6417222
-0.1107806 -0.2122459 0.60632348
-0.095558614 -0.118728 0.64451033
-0.095548362 -0.09195137 0.64466202
-0.095964164 -0.0420244 0.64450818
-0.1637833 -0.1649484 0.47555181
-0.16461439 -0.1002242 0.45077121
-0.098690867 -0.1818756 0.61966568
-0.1066976 -0.041000549 0.61939073
-0.16652749 -0.027763139 0.45152879
-0.1660407 -0.14256801 0.47198561
-0.1665016 -0.1933233 0.4563491
-0.1236793 -0.3199881 0.5889951
-0.1083369 -0.30370161 0.61764657
-0.1197764 -0.32076761 0.64055109
-0.111442 -0.1790061 0.5964781
-0.096246332 -0.14351951 0.63937533
-0.097818047 -0.1227796 0.62730843
-0.1166446 -0.2495051 0.58643842
-0.1447269 -0.30802831 0.51923019
-0.1640006 -0.1243069 0.48177731
-0.1158499 -0.2603907 0.60824603
-0.1329518 -0.03065471 0.54155368
-0.16501489 -0.093916923 0.47253761
-0.1262808 -0.304308 0.58335757
-0.16237409 -0.081074283 0.45730111
-0.1152102 -0.2393219 0.60435683
-0.1494505 -0.01737511 0.50231332
0.078957379 -0.01252098 0.52337247
-0.079791069 -0.1871639 0.64918262
-0.098014951 -0.0093373815 0.60198039
-0.1409639 -0.07816273 0.52426022
-0.1406226 -0.054731559 0.52341402
-0.13220949 -0.01460688 0.52523482
-0.1643465 -0.1091593 0.47253191
-0.1024149 -0.30020031 0.63151312
0.040210601 -0.01387142 0.4247025
-0.1140155 -0.29036659 0.60281432
-0.16773669 -0.3206929 0.4739528
-0.1707491 -0.04351354 0.45708391
-0.15909161 -0.1748485 0.4774251
-0.1646381 -0.1044083 0.463108
-0.1133512 -0.31256461 0.59060431
-0.1382639 -0.043371558 0.52730978
-0.1612941 -0.045641411 0.4585948
-0.1036598 -0.2391974 0.61330712
-0.095547527 -0.0961871 0.64162421
-0.1077854 -0.2103259 0.62212652
-0.1554389 -0.25103441 0.50074708
-0.1394604 -0.28652811 0.53289098
-0.164676 -0.068158157 0.47220469
0.094250739 -0.01475804 0.53499138
-0.101615 -0.1239973 0.63640648
-0.098123968 -0.1894052 0.6417793
-0.092482693 -0.037191901 0.64985222
-0.069523752 -0.023081791 0.64565098
0.03570753 -0.0065581868 0.53531659
-0.1040886 -0.01920338 0.60088092
-0.1106644 -0.01277196 0.6175493
-0.131185 -0.02690291 0.54824078
-0.1658653 -0.065776423 0.45067081
-0.1171395 -0.1142207 0.5945369
-0.1375756 -0.036169261 0.52937841
-0.1230035 -0.26357171 0.57670993
-0.1663074 -0.26918611 0.45129719
-0.096570849 -0.1395399 0.62866038
-0.1042972 -0.30685011 0.6338557
-0.1577089 -0.3108283 0.4822661
-0.098538987 -0.19527461 0.63614368
-0.1618658 -0.298013 0.47613141
-0.041056812 -0.30885091 0.64618468
-0.1345505 -0.01161166 0.49564299
0.06880343 -0.01904908 0.42638901
-0.14555331 -0.016926751 0.5217796
-0.1307658 -0.01638766 0.54460102
-0.097863726 -0.0115407 0.54100698
-0.1205372 -0.0182523 0.56967682
-0.076713197 -0.01385128 0.54636753
-0.0092021823 -0.01763187 0.38975811
-0.1372181 -0.2584323 0.53865021
-0.1379981 -0.2164572 0.54466099
-0.1285412 -0.1087469 0.56246263
-0.1292704 -0.2392932 0.56802279
-0.1319917 -0.077265173 0.5536747
-0.13019989 -0.069030911 0.57007498
-0.12827609 -0.15161 0.56947172
-0.1636941 -0.23298059 0.4753027
-0.1273832 -0.1542374 0.56615049
-0.1639484 -0.1801925 0.46503809
-0.1330965 -0.1702017 0.54209411
-0.1230419 -0.045214351 0.56388348
-0.1451122 -0.1601344 0.51723331
-0.1176429 -0.087465324 0.59387112
-0.14513341 -0.2185483 0.54576802
-0.1290102 -0.030657651 0.5557999
-0.15265261 -0.18368851 0.4965691
-0.1536053 -0.1345602 0.50553077
-0.130851 -0.1437729 0.55648482
-0.1269194 -0.072263658 0.57088047
-0.145815 -0.18423019 0.51957113
-0.1714682 -0.047957961 0.4489229
-0.1289347 -0.17294849 0.55117393
-0.1302982 -0.2732707 0.56258899
0.054163929 -0.01303978 0.46255931
-0.1038554 -0.1253956 0.62289631
-0.095659643 -0.1420984 0.64489818
-0.12602299 -0.1198051 0.55466908
-0.1165016 -0.25376639 0.59736729
-0.1122157 -0.1098609 0.59963143
-0.1633642 -0.25290021 0.45896319
-0.1377884 -0.04909867 0.54588199
-0.13640749 -0.1469029 0.53571558
-0.1421427 -0.19429611 0.53107673
-0.16323049 -0.20567951 0.47847411
-0.16055501 -0.22830591 0.49458641
-0.1403459 -0.2636933 0.51978558
-0.1521247 -0.1556208 0.49597111
-0.1280098 -0.25353619 0.5657813
-0.1330774 -0.15242051 0.55596089
-0.1499472 -0.16755749 0.50748378
-0.1033044 -0.1682134 0.63509363
-0.1237081 -0.1017752 0.58601892
-0.1431725 -0.225394 0.52755177
-0.12924729 -0.091636181 0.55865991
-0.1457618 -0.071511857 0.51380318
-0.055527151 -0.01113413 0.57618052
-0.1339995 -0.30639249 0.58597058
-0.14932039 -0.04695626 0.51889551
-0.111968 -0.12590671 0.60430598
-0.12982 -0.04402006 0.55270612
-0.1102208 -0.2143681 0.60539961
-0.1065267 -0.088856339 0.62468618
-0.13651571 -0.31004089 0.53972048
-0.1209545 -0.031677678 0.5613665
-0.1502371 -0.1432752 0.50928593
-0.1132129 -0.1831246 0.61448348
-0.1417181 -0.3134875 0.52355391
-0.1064166 -0.28853849 0.61056578
-0.1678658 -0.17055599 0.45702529
-0.1621504 -0.24497791 0.45479289
-0.1442299 -0.07749097 0.51520228
-0.1616715 -0.1894156 0.49041119
-0.13109919 -0.1604667 0.54414243
-0.1263786 -0.3159894 0.55548912
-0.1113353 -0.08598946 0.59657371
-0.1065864 -0.051333409 0.63068062
-0.1569977 -0.1904505 0.4919515
-0.1486555 -0.2165757 0.53903371
-0.12653691 -0.069383673 0.55566537
-0.129692 -0.085459933 0.55871642
-0.1350597 -0.118972 0.54057598
-0.1484428 -0.19423831 0.51046842
-0.1363129 -0.2266769 0.55090421
-0.14583901 -0.1243273 0.50871551
-0.12939911 -0.055414319 0.5613758
-0.14865389 -0.25393149 0.52897108
-0.13125341 -0.14175411 0.56761968
-0.1124265 -0.1375367 0.59798563
-0.1170521 -0.2718969 0.59797502
-0.1526773 -0.1019275 0.4945626
-0.1161283 -0.2537275 0.60196501
-0.1021124 -0.027998419 0.6355195
-0.116252 -0.01369193 0.5748719
-0.1281033 -0.01390144 0.55446452
0.02430078 -0.01643485 0.45186001
0.05217493 -0.01677778 0.42180881
-0.1095425 -0.03899711 0.61743408
-0.045383751 -0.01681399 0.4701359
-0.038383719 -0.018619729 0.39653641
-0.03761464 -0.091995656 0.39439729
0.060638681 -0.0058696871 0.5474602
-0.050398409 -0.01332009 0.61150122
-0.02583709 -0.01495233 0.54516327
0.017755751 -0.01803142 0.53218782
-0.064598083 -0.01181284 0.64722657
-0.1077006 -0.0082477331 0.58058852
-0.058994871 -0.01137318 0.48893461
-0.087512881 -0.01716155 0.41784829
-0.02834304 -0.01461 0.48362049
-0.1368338 -0.027737889 0.44097981
-0.07079345 -0.01194504 0.4044098
0.03194439 -0.019109489 0.45787069
0.064529657 -0.01306543 0.4490729
0.038151141 -0.02241382 0.40390599
-0.1039935 -0.01731029 0.46748951
-0.06110758 -0.017039301 0.50060427
-0.055400431 -0.0095484853 0.48868829
0.091068029 -0.01348472 0.5460062
0.051919039 -0.016450111 0.56048369
0.043381091 -0.01468831 0.56306273
0.02444851 -0.01813525 0.54545492
-0.0237878 -0.0093965828 0.57927442
-0.099206783 -0.01177633 0.53714478
-0.083366901 -0.01309258 0.61703849
-0.098897547 -0.01132792 0.56806397
-0.04252702 -0.017588619 0.57322252
-0.094370842 -0.01143378 0.60982049
-0.1336922 -0.02033842 0.4423188
-0.02949369 -0.017597681 0.5589518
-0.094044119 -0.020477179 0.45882329
0.068519287 -0.016227171 0.46319839
0.01192319 -0.01808453 0.45875421
0.0042426591 -0.0170894 0.4182134
-0.001579046 -0.019627931 0.4128699
0.02682632 -0.019394491 0.53491127
0.08568716 -0.0086663663 0.5362047
0.02034503 -0.01500043 0.52136189
0.060206231 -0.01035953 0.5650816
-0.065711923 -0.01274008 0.55781013
-0.1006125 -0.2024426 0.63770127
-0.031739589 -0.021655081 0.60689718
0.0099561214 -0.1238949 0.37135381
-0.1064009 -0.023574229 0.62925673
-0.1261797 -0.016833389 0.43310031
-0.095366418 -0.036707699 0.41126239
-0.093361817 -0.040244941 0.42335859
-0.02578369 -0.0143254 0.46762741
0.062772334 -0.01447791 0.4741514
-0.065386653 -0.016689871 0.44308701
-0.076540887 -0.02260503 0.40882981
-0.093874961 -0.1375972 0.4128994
0.061129611 -0.01175869 0.53143901
-0.096342951 -0.01476297 0.54317278
-0.094386943 -0.01670167 0.54896301
-0.058405221 -0.01453438 0.58857638
-0.032810152 -0.01382345 0.61419749
-0.07250762 -0.01367587 0.50558943
0.03289545 -0.01287407 0.52375072
-0.080594778 -0.041103389 0.4139671
0.03553557 -0.01388437 0.44641551
0.006408989 -0.019928509 0.55739641
-0.043956041 -0.0185236 0.63914478
-0.016909899 -0.01275462 0.46581969
-0.1406883 -0.01485026 0.45724839
0.025927421 -0.043124259 0.3660492
-0.053590119 -0.02156323 0.46523881
0.02449213 -0.018845441 0.36743411
0.046860099 -0.01967847 0.40666541
0.041467071 -0.01960903 0.38409251
-0.1078041 -0.1002932 0.42385721
-0.076984882 -0.023117211 0.41080281
-0.1145247 -0.02372003 0.43066019
-0.065531828 -0.01488425 0.415719
-0.058705389 -0.19573779 0.40170899
-0.01529181 -0.019816911 0.46107209
-0.1147271 -0.01289284 0.55675101
-0.065787852 -0.01764274 0.54750383
-0.1383612 -0.027291359 0.43728611
-0.1302415 -0.01765484 0.4404729
0.0020259621 -0.034325842 0.37624231
-0.058218721 -0.01508832 0.64075768
-0.12986331 -0.071598649 0.43275881
-0.098338433 -0.01090559 0.62385762
-0.01042372 -0.022076869 0.40828219
-0.01658529 -0.01516405 0.49897161
0.004249156 -0.032924589 0.3775357
-0.030914599 -0.073303819 0.39227381
-0.026830791 -0.2177669 0.38645649
-0.079837292 -0.1155387 0.41067091
-0.050317291 -0.018194441 0.54340768
0.0095000267 -0.026372461 0.62533402
-0.038871881 -0.015916141 0.61997432
-0.037463129 -0.021764521 0.57686579
-0.076633103 -0.01832235 0.55206782
-0.13366871 -0.1822242 0.5517953
-0.1320971 -0.18114141 0.5521462
-0.1007833 -0.1162161 0.62307298
0.063931882 -0.018665159 0.45535329
0.03638744 -0.018457411 0.42003611
0.1395589 -0.03949156 0.60334229
-0.1205519 -0.052927911 0.43555379
-0.1151325 -0.072642982 0.42827269
0.0097734928 -0.1303421 0.37050021
-0.045589749 -0.054049641 0.4014557
-0.057764109 -0.070927918 0.40539601
-0.02979135 -0.092081673 0.39129549
-0.063749067 -0.04824305 0.40450129
-0.118377 -0.01239064 0.58170158
-0.08946377 -0.035067499 0.41803169
-0.095534652 -0.0150561 0.55731952
-0.060477879 -0.13858829 0.40189421
-0.04579702 -0.16850451 0.3977178
-0.086107552 -0.2345401 0.41198489
-0.1181119 -0.185352 0.42077351
-0.066145599 -0.1515993 0.4077723
-0.086270601 -0.25941899 0.40946659
-0.087749086 -0.25705659 0.4074811
-0.105665 -0.093461223 0.4196972
-0.09278366 -0.083503872 0.4194881
-0.088339403 -0.078239053 0.42143559
-0.1099734 -0.1104697 0.42578551
-0.04576635 -0.1534649 0.39770979
-0.070279427 -0.1873188 0.40479419
-0.058702741 -0.21552999 0.40231141
-0.1239879 -0.098552078 0.43070281
-0.092069641 -0.1379994 0.4129689
-0.005459249 -0.1666906 0.38223919
0.007822305 -0.045784071 0.3754167
0.032318652 -0.16897731 0.36792499
-0.1540695 -0.1918864 0.43962559
-0.14236601 -0.26572549 0.43203929
0.01819578 -0.089769043 0.36993569
-0.1124288 -0.098027833 0.42343441
-0.1513882 -0.1213734 0.43506131
-0.13304 -0.1843573 0.43253419
-0.09332633 -0.034354929 0.41958791
-0.026787341 -0.044289049 0.38896999
-0.037160281 -0.052580301 0.3940607
-0.081109002 -0.1189434 0.41797671
-0.1116549 -0.026299659 0.43020949
0.033086061 -0.1927333 0.3659727
-0.1272637 -0.2686635 0.42362419
-0.1555865 -0.1530368 0.44488901
-0.077664047 -0.020658109 0.41430411
-0.038614541 -0.017267611 0.3943125
-0.098881692 -0.24270169 0.4154385
-0.01437962 -0.05060086 0.38414589
-0.052379578 -0.066390008 0.3984662
-0.1573576 -0.070872009 0.44048741
-0.080120154 -0.020924389 0.44143811
-0.1576038 -0.1082945 0.44116971
-0.063179702 -0.20077381 0.4024772
-0.066678546 -0.049579442 0.40657961
-0.1553164 -0.1076443 0.43940169
-0.086330563 -0.027677121 0.4144884
0.0291647 -0.097138204 0.36839759
0.022042871 -0.02984518 0.36678651
-0.027917771 -0.01349962 0.58693022
-0.093580127 -0.018240269 0.4498606
-0.072440058 -0.01494011 0.49222639
-0.089709848 -0.03984895 0.4177942
-0.04435974 -0.28057009 0.39079091
-0.1065667 -0.1170055 0.41910791
-0.05419001 -0.023342939 0.40024611
-0.031064929 -0.01303655 0.47875291
0.02580115 -0.020037441 0.36839369
-0.002319783 -0.027306501 0.376674
-0.1150191 -0.1823765 0.42058021
0.01186597 -0.03425936 0.37364379
-0.0818232 -0.066837579 0.41123369
-0.086641729 -0.20841479 0.41436201
-0.083608963 -0.058731019 0.41469151
-0.15238179 -0.23796821 0.43640211
-0.079256862 -0.043435629 0.4176335
-0.01623708 -0.1067248 0.38128239
0.001121938 -0.078979068 0.3858377
-0.046667639 -0.05393064 0.3989113
-0.0097111762 -0.16414361 0.38150111
-0.05296034 -0.048307449 0.39819601
0.0039922888 -0.01124895 0.51673919
-0.0203858 -0.2090573 0.38423809
0.00045225021 -0.036122259 0.3780289
-0.0476087 -0.08640644 0.3912026
-0.1259184 -0.2174812 0.4308745
-0.1375813 -0.1097628 0.43242139
-0.044422839 -0.01291749 0.4092657
-0.01010188 -0.1497809 0.37988299
-0.01515105 -0.29597899 0.3839584
0.016867399 -0.15757491 0.36816561
0.033714559 -0.2600601 0.368586
0.034956459 -0.1936231 0.36685139
-0.1266091 -0.1203234 0.4318395
0.025226239 -0.17894579 0.37133271
-0.02586749 -0.1616873 0.3855277
-0.094423227 -0.27001041 0.41451031
-0.040078942 -0.26172009 0.38909981
0.022843121 -0.051252421 0.35884461
-0.1612155 -0.17443819 0.44290471
0.07086733 -0.0142718 0.46383679
0.02996859 -0.01910311 0.4570305
-0.01833594 -0.01632816 0.40739781
-0.13943531 -0.01273391 0.43507591
-0.0039716959 -0.1248509 0.37441269
-0.009544462 -0.20433401 0.37980661
-0.048863828 -0.2549912 0.39267379
-0.05425835 -0.1622483 0.40340409
-0.08598876 -0.28398079 0.40597841
0.0113208 -0.1610233 0.36822209
-0.056475312 -0.01328304 0.4942036
-0.033238109 -0.28869811 0.38685319
0.01312101 -0.2832835 0.3753154
0.042082459 -0.30742651 0.3740811
0.02983436 -0.243498 0.3650077
0.030945869 -0.31573221 0.36255801
0.0063522458 -0.2488973 0.36930269
-0.05703235 -0.01548707 0.54802418
-0.13876089 -0.026359741 0.44153771
-0.1296307 -0.073120862 0.4392072
-0.1334693 -0.011222 0.4854916
-0.1664588 -0.107579 0.4553487
-0.031414092 -0.089306153 0.38831791
-0.0453231 -0.16856121 0.39475161
-0.115569 -0.2189969 0.42562431
-0.1379731 -0.2641407 0.43578809
-0.1590305 -0.19867501 0.44823489
-0.060597692 -0.1941976 0.4006786
-0.060871009 -0.29378501 0.39801669
-0.065992177 -0.2603853 0.39677131
-0.060737729 -0.26225531 0.39439559
0.091601759 -0.3415423 0.31868941
-0.1401245 -0.1576872 0.43762919
-0.1641524 -0.090958923 0.4519659
-0.1434983 -0.02001169 0.50767869
0.059106681 -0.01082999 0.5306797
-0.065964788 -0.016173059 0.44338709
-0.1138635 -0.24001139 0.42299661
-0.074315853 -0.25800899 0.41951889
0.0040656328 -0.079884231 0.37300369
-0.1402337 -0.04007569 0.4428643
-0.02977255 -0.015816931 0.40623191
0.038872272 -0.28058711 0.36825201
0.001734108 -0.1925424 0.37475589
-0.1383497 -0.0150415 0.46680549
-0.043016851 -0.3235732 0.41047761
0.019732861 -0.01918808 0.5989362
0.0039160852 -0.17550009 0.3745704
-0.03079504 -0.1722178 0.39813301
-0.1002905 -0.017899189 0.62347633
-0.1409142 -0.1164542 0.45050949
-0.097963452 -0.155213 0.41912219
-0.1035982 -0.1946748 0.42529929
-0.1657147 -0.1364062 0.45856649
-0.1254597 -0.1494772 0.42681181
-0.032755081 -0.2139733 0.38483989
-0.1029873 -0.062511504 0.4343062
-0.042461101 -0.01702684 0.59668112
-0.085134543 -0.1867487 0.40590549
0.06241256 -0.29725561 0.328926
-0.1680655 -0.1332027 0.45827061
-0.1374034 -0.081393182 0.4365693
-0.1179051 -0.17802019 0.44749409
-0.1473051 -0.06652844 0.44819069
-0.037929509 -0.017186079 0.6054759
-0.091995448 -0.16871139 0.41338739
-0.1285482 -0.062642433 0.43425459
0.0127987 -0.023302199 0.37338859
-0.065067589 -0.0149852 0.56424248
0.002482116 -0.1942988 0.37674281
-0.039920811 -0.080789909 0.39607441
-0.091871887 -0.1686938 0.4144927
-0.060205881 -0.1379443 0.40170589
-0.1238725 -0.098576248 0.43211541
-0.02580777 -0.24676929 0.3868382
0.045350101 -0.01330258 0.42094621
0.033258859 -0.01291589 0.41196701
0.048806518 -0.01464538 0.56059712
-0.037828151 -0.018599199 0.39686331
0.0109762 -0.098245107 0.37320721
-0.004494756 -0.025406489 0.37855521
-0.01111218 -0.2056026 0.38104579
-0.0066184402 -0.2052191 0.38051459
-0.02916229 -0.2178482 0.38874489
-0.001171678 -0.2445958 0.37833199
-0.04522413 -0.16656481 0.399021
-0.043845121 -0.053472381 0.4043299
-0.044573192 -0.1704547 0.39836729
0.0094020963 -0.055133041 0.37141761
0.0097816586 -0.04747567 0.3768746
-0.03724182 -0.0552704 0.3975634
-0.0034613011 -0.1843196 0.37865159
0.01385814 -0.1265588 0.37476441
-0.01146755 -0.026482699 0.3768312
-0.095081933 -0.2558037 0.41193321
-0.15384769 -0.2412945 0.44051421
-0.16436601 -0.1961484 0.44689339
-0.088571519 -0.082297757 0.4261947
-0.097261727 -0.031365812 0.42031181
-0.15076651 -0.1864939 0.44121769
-0.1406025 -0.26600721 0.4375042
-0.1574246 -0.29400179 0.44911659
-0.1512856 -0.12590849 0.44385579
-0.091759562 -0.2076735 0.40967119
-0.06626159 -0.2937327 0.39926061
-0.1397302 -0.25753579 0.4353756
-0.12999269 -0.1860069 0.43224439
-0.09493506 -0.20127121 0.41207671
-0.14211389 -0.1100973 0.43791661
-0.1681923 -0.3217507 0.4871498
-0.1331213 -0.1859608 0.43594381
-0.1333705 -0.27151611 0.56849933
-0.1336298 -0.075947933 0.55813593
-0.1661125 -0.25594941 0.46775869
-0.13852499 -0.30623639 0.59322929
-0.13110919 -0.2228058 0.4323779
-0.171977 -0.1261186 0.45332
-0.1663872 -0.2487241 0.46308291
-0.171892 -0.14492799 0.46364611
-0.1172187 -0.2183435 0.42565301
-0.1142468 -0.1099543 0.42427889
-0.094074696 -0.17000461 0.41506681
-0.1557429 -0.1854631 0.44147539
-0.12976 -0.30373731 0.61589581
-0.1014476 -0.28898039 0.64602149
-0.079357117 -0.02230994 0.4138194
-0.13330171 -0.1036257 0.42941701
-0.15429281 -0.2245279 0.44143611
-0.15459131 -0.15111721 0.44724479
-0.1096083 -0.098359659 0.4284139
-0.086438537 -0.28491679 0.40902221
-0.085816979 -0.067672648 0.41082111
-0.072062314 -0.1849419 0.40506169
-0.1164148 -0.068903923 0.43124881
-0.1545734 -0.1090446 0.44760779
-0.1565758 -0.30359051 0.4398517
-0.066711567 -0.290822 0.4060601
-0.097583123 -0.072645269 0.41162509
-0.1520346 -0.20971189 0.44266549
-0.13693871 -0.2212363 0.43517521
-0.1712797 -0.093650743 0.4642902
-0.1684026 -0.2035144 0.44497859
-0.1241061 -0.1201301 0.42518991
-0.1690494 -0.078293793 0.45438871
-0.166182 -0.1028151 0.4625791
-0.1486724 -0.20266481 0.44551799
-0.1090076 -0.19143771 0.42131779
-0.08508876 -0.057521451 0.41527519
-0.1628217 -0.26910421 0.43157819
-0.1701975 -0.1373487 0.46689621
-0.1728382 -0.1769183 0.45015359
-0.1045462 -0.067008533 0.62645721
-0.070726477 -0.1228403 0.40928921
-0.13266321 -0.15829191 0.42444319
-0.12606341 -0.061617501 0.44118369
-0.1335738 -0.038701002 0.4574317
-0.13004731 -0.1171582 0.43174511
-0.061683509 -0.04874102 0.41110119
-0.1639751 -0.088851929 0.45049459
-0.16625769 -0.02825301 0.45783189
-0.037881549 -0.0192104 0.39768109
-0.045049548 -0.1725568 0.39961359
-0.039950639 -0.170882 0.40318739
0.0291689 -0.1123452 0.36902171
0.02461255 -0.16768029 0.368285
0.02037764 -0.1163114 0.371952
-0.1476662 -0.1886421 0.44055599
-0.1684327 -0.2294361 0.4800289
0.002774179 -0.13323019 0.37553471
-0.1667041 -0.26477599 0.44942969
-0.1523564 -0.2377056 0.52014458
0.0099359751 -0.04164955 0.37198791
-0.059045669 -0.1400986 0.4047977
-0.04384017 -0.15589701 0.403036
0.020323509 -0.030900391 0.37389281
-0.001931667 -0.1259069 0.37624931
-0.1526477 -0.12566049 0.4448835
-0.1545556 -0.123645 0.44451091
-0.1761449 -0.1247705 0.4520652
-0.1756057 -0.1253009 0.44948131
-0.090614617 -0.01723161 0.42193231
-0.13512909 -0.3112542 0.56340313
-0.122802 -0.01229706 0.56155938
-0.03192085 -0.2161735 0.3897838
-0.01155269 -0.1627648 0.38220829
0.0084830523 -0.097277492 0.3746393
-0.062986366 -0.2920047 0.39952141
0.0080904961 -0.1903808 0.37872571
-0.01616526 -0.29900971 0.3864173
0.02172756 -0.1341421 0.36835271
0.01990414 -0.2033405 0.370812
-0.0058702831 -0.2101665 0.37575009
-0.090812117 -0.2310771 0.41277379
-0.1211882 -0.2153431 0.42524049
-0.01809418 -0.1010056 0.3806175
-0.04863888 -0.2896333 0.39669669
-0.0246768 -0.2489716 0.38987109
-0.059492409 -0.2678009 0.40497789
-0.1538218 -0.2244107 0.4422316
-0.086431623 -0.28389531 0.40976039
-0.1394859 -0.2392851 0.43669659
-0.083890259 -0.32273921 0.29203501
-0.1728887 -0.1495872 0.46648699
-0.1162793 -0.17998131 0.61157638
-0.1736732 -0.2269606 0.483587
-0.1577343 -0.1971059 0.50359339
-0.160741 -0.18056621 0.502231
-0.13141669 -0.078590907 0.55635148
-0.125338 -0.071635053 0.5710535
-0.13597409 -0.1048833 0.56791317
-0.130656 -0.081923783 0.55365002
-0.1508009 -0.1829831 0.52383667
-0.140457 -0.1122079 0.56326711
-0.1209471 -0.071770392 0.56791472
-0.13848791 -0.1471121 0.54252648
-0.1334386 -0.095925719 0.54608738
-0.1750073 -0.24190509 0.4553293
-0.13124719 -0.1010377 0.56995207
-0.1364563 -0.023987589 0.55273801
-0.14819659 -0.14967 0.52887541
-0.1475987 -0.16478691 0.52733427
-0.1565993 -0.16498069 0.51385307
-0.15754309 -0.1668317 0.50992948
-0.1650366 -0.24077649 0.4629305
-0.17208239 -0.241338 0.46431509
-0.1282607 -0.032392189 0.55690032
-0.13377389 -0.043118309 0.55449659
-0.13109989 -0.043471571 0.55793792
-0.16979 -0.1873575 0.49529839
-0.1271818 -0.1124347 0.57467151
-0.1255552 -0.275857 0.58776689
-0.1607293 -0.2562032 0.50798577
-0.1400107 -0.2819781 0.55571991
-0.1634184 -0.30027419 0.50391752
-0.1445082 -0.01572014 0.52354199
-0.1442979 -0.019328579 0.5309568
-0.1248979 -0.078359842 0.56652641
-0.1686545 -0.17417 0.47730231
-0.1624658 -0.2478862 0.50436169
-0.1734402 -0.23226041 0.48042929
-0.16684259 -0.1095002 0.47367391
-0.17193159 -0.106057 0.47762841
-0.1680906 -0.092079639 0.4749684
-0.17213389 -0.043961968 0.46095541
-0.1717544 -0.094149373 0.4787356
-0.1699888 -0.13054021 0.46670899
-0.1665068 -0.08419095 0.46137229
-0.1475247 -0.01537359 0.51875073
-0.11979 -0.18706679 0.59713948
-0.1393684 -0.01542087 0.52674901
-0.1034782 -0.08348763 0.63545108
-0.1028035 -0.16182861 0.63881499
-0.1038064 -0.1984435 0.633645
-0.112342 -0.052803699 0.6126858
-0.1005165 -0.14626899 0.64432508
-0.1315517 -0.15416241 0.56992072
-0.10432 -0.08376129 0.63160789
-0.13414919 -0.16990329 0.5552007
-0.1044553 -0.1243775 0.63238758
-0.1452741 -0.05110475 0.53176951
-0.1229359 -0.2534093 0.59287548
-0.099870801 -0.1892398 0.64261889
-0.1071136 -0.30173889 0.63271821
-0.14704689 -0.28883711 0.53932118
-0.1256929 -0.28334329 0.5911442
-0.1191772 -0.28993201 0.60838699
-0.1374035 -0.26820961 0.56838489
-0.1079739 -0.0406661 0.61848873
-0.1479823 -0.048439462 0.51901722
-0.1077089 -0.24722379 0.63305253
-0.1162604 -0.04862744 0.60663658
-0.13550609 -0.2377215 0.56872499
-0.13460089 -0.01319169 0.54460001
-0.1038942 -0.228857 0.64135402
-0.1149792 -0.038659532 0.60714048
-0.1085187 -0.103389 0.62060457
-0.13082349 -0.0114755 0.55495381
-0.13835371 -0.30238321 0.55245239
-0.1019727 -0.18758769 0.62130982
-0.1113747 -0.01661073 0.61111242
-0.01786175 -0.01175812 0.62140763
-0.1176797 -0.1094433 0.60369849
-0.1422049 -0.31003761 0.54287279
-0.089638643 -0.0077366531 0.57855588
-0.17339911 -0.068028659 0.46151549
-0.1042581 -0.01109594 0.57106292
-0.080192417 -0.01506418 0.64979517
-0.0482798 -0.01348256 0.63017422
0.005937099 -0.02044162 0.46085539
-0.082055867 -0.019425301 0.50096822
-0.1039967 -0.02856903 0.63117802
-0.1090115 -0.02639043 0.61947888
-0.1048848 -0.026993159 0.63385642
-0.106748 -0.2030171 0.63226253
-0.08754503 -0.01369482 0.42766801
-0.13353691 -0.01691122 0.43881699
0.02168837 -0.017235249 0.50082672
-0.1205061 -0.1886023 0.59445101
-0.035674568 -0.01116055 0.6099661
-0.0289273 -0.01164097 0.56824458
-0.1085517 -0.030432731 0.60956311
-0.095195293 -0.063731432 0.64682919
-0.09713909 -0.22425359 0.64348918
-0.064152122 -0.01222003 0.55165941
-0.17181569 -0.1010384 0.46335891
-0.1001804 -0.069295883 0.62177491
-0.050122499 -0.0096520782 0.53409529
-0.1183483 -0.094502807 0.59612769
-0.1016057 -0.1634969 0.63771158
0.039286461 -0.0141905 0.59531492
-0.084497541 -0.0085816383 0.58810371
-0.1080758 -0.040792581 0.62253308
-0.049715821 -0.0045908391 0.5681951
-0.085051507 -0.21931989 0.64995492
-0.1164 -0.2126774 0.60830998
-0.1163917 -0.1376386 0.60118431
-0.1189671 -0.13441031 0.60688448
-0.1231925 -0.2519497 0.60005373
-0.1319166 -0.03005323 0.557302
-0.03514358 -0.01653498 0.63344121
-0.094408177 -0.065012783 0.64771181
-0.1460444 -0.02963832 0.52176821
-0.119947 -0.25918499 0.60918772
-0.1183549 -0.04672879 0.59847689
-0.062212799 -0.0083058178 0.58131069
-0.1471836 -0.068449378 0.51891953
-0.1730468 -0.026571481 0.45952359
-0.1343334 -0.29937699 0.58618832
-0.14728419 -0.03826547 0.51657152
-0.098922007 -0.2405443 0.64604712
-0.1397641 -0.30665141 0.58868217
-0.14718699 -0.30430019 0.58177978
-0.1217521 -0.2357024 0.60813391
-0.1605452 -0.28193021 0.51014608
-0.1674953 -0.044964939 0.48150501
-0.15442351 -0.02567029 0.50960708
-0.165931 -0.0423702 0.46798721
-0.064218611 -0.016877171 0.4803679
-0.140734 -0.215156 0.54769552
-0.1341082 -0.069412559 0.57213873
-0.1407447 -0.1671038 0.54875362
0.02105513 -0.01380014 0.41663471
-0.1096468 -0.01877651 0.52364361
-0.13456111 -0.1398709 0.56097138
-0.13851979 -0.184374 0.55330741
-0.1374274 -0.0096353292 0.50021088
-0.1323525 -0.1023633 0.56987369
-0.1693701 -0.099481612 0.4543986
-0.020907249 -0.01344579 0.50187862
0.028461371 -0.01272899 0.59829479
-0.1157042 -0.0091729164 0.56353748
0.02360585 -0.016785439 0.45068291
-0.0043438668 -0.015816331 0.39217609
-0.16503941 -0.1205826 0.48403671
-0.1365066 -0.15578219 0.55257171
0.034070492 -0.018890141 0.60809797
-0.017920019 -0.01354975 0.44892421
-0.1300626 -0.083985947 0.58332688
-0.152501 -0.25357741 0.53000629
-0.1619391 -0.1003996 0.48186639
-0.1405099 -0.2290054 0.55203158
-0.1007217 -0.0092695951 0.41719139
-0.1614963 -0.28838629 0.49780479
-0.1576903 -0.3096765 0.50116801
-0.1367321 -0.20677949 0.55958432
-0.1723243 -0.26866701 0.4971469
-0.15731619 -0.27265289 0.51796931
-0.1675048 -0.28343901 0.49162799
-0.1349726 -0.20226701 0.5731988
-0.1241518 -0.26964059 0.60303199
-0.1714074 -0.26543111 0.48119971
0.098907441 -0.078714609 0.58288801
-0.139356 -0.1742322 0.4963769
-0.1272735 -0.01641446 0.57722813
-0.1166819 -0.2981742 0.62249362
-0.13411979 -0.1118442 0.56275803
-0.1448973 -0.076174051 0.52820188
-0.1342646 -0.07855165 0.55520523
-0.1539776 -0.23344 0.51740599
-0.14404561 -0.25611961 0.54281449
-0.17070261 -0.2346826 0.47813609
-0.1720496 -0.24476039 0.46971419
-0.1634362 -0.2472368 0.50591707
-0.1300502 -0.039741579 0.56997681
-0.12973849 -0.072892189 0.57128751
-0.1582644 -0.19821499 0.50195992
-0.1426117 -0.22215541 0.54626942
-0.17253239 -0.068646461 0.45762491
-0.1547019 -0.184976 0.5106203
-0.1700056 -0.1804357 0.47741011
-0.1701678 -0.1391415 0.47373271
-0.14304461 -0.14765079 0.54367459
-0.1336132 -0.005853802 0.4883638
-0.14937609 -0.1916739 0.53660351
-0.1513069 -0.1830737 0.52197611
-0.1608483 -0.17880949 0.50623631
-0.18067349 -0.02267516 0.47556451
-0.037777752 -0.0099014938 0.61096328
-0.053517189 -0.01323277 0.63275868
-0.02209514 -0.0099306107 0.59017462
-0.1027269 -0.01052165 0.60583878
-0.038212001 -0.017080929 0.58884329
-0.1512312 -0.1038494 0.54123801
-0.1093919 -0.12843379 0.6363346
-0.1699277 -0.1669568 0.47432479
-0.1592952 -0.2393951 0.51302719
-0.13582461 -0.04263863 0.55599582
-0.14852659 -0.2260242 0.53098333
-0.17018829 -0.2036099 0.48988101
-0.16213989 -0.2338853 0.49387509
-0.145115 -0.092067003 0.52078623
-0.1710504 -0.1956659 0.4605476
-0.1490508 -0.17247351 0.54183882
-0.1626939 -0.1926654 0.4924278
-0.1519471 -0.1434968 0.51141733
-0.1318059 -0.066646487 0.56037772
-0.1307933 -0.087766707 0.56038249
-0.1229056 -0.0090086162 0.59078318
-0.1547168 -0.19469801 0.51475501
-0.136838 -0.23897371 0.54813302
-0.1419173 -0.1185645 0.54409832
-0.17234001 -0.2374635 0.46571651
-0.1282545 -0.1899434 0.58598298
-0.1556838 -0.1028436 0.49528161
-0.138219 -0.2399091 0.55398381
0.1011982 -0.13756929 0.57825512
-0.1716022 -0.18200821 0.4427613
-0.1298095 -0.1532653 0.5838334
-0.1015245 -0.041997429 0.64721209
0.003845423 -0.18138421 0.62717921
-0.1726736 -0.1731886 0.47270879
-0.15481821 -0.1411263 0.49940759
-0.1537904 -0.1564835 0.49742001
0.02966365 -0.01597983 0.38940629
0.056868609 -0.01268631 0.51145059
-0.15402991 -0.17009071 0.50786078
-0.171646 -0.1445463 0.46843019
-0.14243931 -0.030437229 0.53285247
-0.16853429 -0.070623457 0.49278459
-0.040428132 -0.016919609 0.40072021
-0.1481622 -0.19944911 0.54019022
-0.044876192 -0.01402295 0.43532631
-0.040692601 -0.018946949 0.41927409
-0.16156609 -0.01920509 0.44360629
0.04392558 -0.1232602 0.60781288
-0.030818099 -0.0094865486 0.57157028
-0.1013554 -0.23750021 0.64936233
-0.16965879 -0.02122128 0.47698501
-0.1595034 -0.01574265 0.4788028
-0.1616175 -0.047877591 0.46492049
-0.1221746 -0.01154448 0.42106631
-0.1475355 -0.047111019 0.52414322
-0.061703131 -0.01286704 0.55879599
-0.111212 -0.01396821 0.62088269
0.041623011 -0.01279146 0.59479702
0.03366448 -0.01712103 0.60674989
0.033969909 -0.020087419 0.61046362
-0.050332859 -0.01211767 0.6357761
-0.01960711 -0.01155198 0.62243772
0.03068574 -0.01735599 0.39086181
0.076184869 -0.021677161 0.58654171
0.0078452379 -0.01580191 0.62961751
-0.01511426 -0.01480736 0.63880032
-0.017753061 -0.01866914 0.63855082
-0.072961189 -0.01103586 0.41469201
-0.06460309 -0.009215638 0.6497401
-0.02633239 -0.01523051 0.63342452
-0.1054833 -0.0099786371 0.59539622
0.093560807 -0.019299731 0.591308
0.075459078 -0.052639779 0.58162051
-0.03519382 -0.026816741 0.63960779
0.090406857 -0.053862471 0.58871311
0.025540231 -0.02583077 0.61747938
-0.1818855 -0.052270278 0.45281479
0.093106151 -0.07371664 0.58437377
0.085244477 -0.052218489 0.57106191
0.0054506059 -0.035575598 0.61191863
-0.100763 -0.04222795 0.64889657
-0.1011375 -0.23762371 0.64904302
-0.1011177 -0.2185514 0.64911032
-0.1196891 -0.2884391 0.61143512
-0.14477719 -0.29978719 0.58475232
-0.1317666 -0.30015439 0.58363271
-0.1035686 -0.22896899 0.64310813
-0.1522495 -0.30492011 0.52454162
-0.1142709 -0.30228949 0.62170577
-0.1011366 -0.23706479 0.6498248
-0.137713 -0.30379719 0.55321819
-0.1469139 -0.2889922 0.53934783
0.02117634 -0.016567361 0.38266939
-0.1398886 -0.30461469 0.58937448
-0.111231 -0.0108493 0.47622621
0.02695116 -0.01336199 0.40864351
-0.066280827 -0.022979841 0.40943849
-0.096412063 -0.026677519 0.52713048
-0.1301152 -0.020911749 0.53561109
-0.095401853 -0.026587071 0.5561735
-0.09960638 -0.02765098 0.52536619
-0.1376687 -0.01796749 0.5239588
-0.1424748 -0.01411332 0.53053999
-0.097746998 -0.02707669 0.57614452
-0.066882163 -0.029235629 0.56959492
-0.1228085 -0.03111884 0.53530759
-0.14384571 -0.034340888 0.50580221
-0.1094254 -0.025542939 0.5452835
-0.1172777 -0.038174842 0.55464441
-0.1146265 -0.026887691 0.53774083
-0.14439049 -0.026299329 0.51130992
-0.1087389 -0.040101171 0.55376148
-0.043058839 -0.027836381 0.52015352
-0.13950031 -0.092949986 0.51318908
-0.13136239 -0.1191454 0.55808461
-0.1695423 -0.15233231 0.46494761
-0.1075168 -0.1364547 0.58157068
-0.1669026 -0.26673841 0.45254889
-0.1074104 -0.02808371 0.60387468
-0.1299549 -0.25105309 0.51990497
-0.1502351 -0.1588269 0.48801181
-0.1113939 -0.065473288 0.58349311
-0.1462772 -0.2170857 0.48394009
-0.1124114 -0.05325387 0.61456293
-0.1024425 -0.084181383 0.63434511
-0.1124897 -0.070034184 0.56502831
-0.1369568 -0.1644558 0.52865988
-0.15248109 -0.2243681 0.48170269
-0.089989632 -0.02973357 0.63080978
-0.1158031 -0.1089659 0.56000459
0.068641901 -0.02713087 0.53351182
-0.057127621 -0.012908 0.64245099
0.02735093 -0.01441099 0.60448068
-0.036369 -0.029793169 0.58285928
-0.00084814429 -0.030391719 0.60084569
-0.018282769 -0.01211929 0.62203997
-0.022634121 -0.02821454 0.57920742
0.065749884 -0.037827581 0.5394851
0.035866529 -0.02045906 0.6064887
-0.0050196052 -0.02949038 0.57106853
0.045866609 -0.037258711 0.59529752
-0.044194151 -0.0177988 0.64177299
-0.0138962 -0.027697239 0.56968248
-0.062910169 -0.03091505 0.6396482
-0.057496309 -0.024474921 0.63504148
-0.086283058 -0.030610889 0.64078778
-0.084591687 -0.031463802 0.64874208
0.095400542 -0.23388571 0.58673209
-0.034595821 -0.1735255 0.63320029
0.0077031548 -0.1591903 0.613316
0.03132445 -0.1202521 0.60265851
-0.034261052 -0.1175564 0.62851858
0.026009141 -0.2123026 0.60424638
-0.1130448 -0.037308961 0.51059818
-0.1240165 -0.043552581 0.55557638
-0.1051563 -0.038691912 0.60121077
-0.1371989 -0.1268328 0.52093142
-0.027443379 -0.024779171 0.62830579
-0.053103451 -0.03450403 0.64466327
0.081169307 -0.1634852 0.59210992
-0.01254901 -0.029441889 0.54952532
-0.13965701 -0.034661889 0.52360022
-0.1702292 -0.1066517 0.46161851
-0.12716649 -0.0281603 0.4228681
0.053407669 -0.2186061 0.59902382
0.1166828 -0.029785659 0.54616582
-0.13325331 -0.062661201 0.53499907
-0.01007408 -0.019438099 0.62324232
0.1132689 -0.031304691 0.56524259
0.088985622 -0.1291912 0.59073889
0.1186076 -0.04320848 0.56602693
-0.058355931 -0.029004071 0.57519162
-0.058742341 -0.041062891 0.53983557
-0.02065229 -0.04193094 0.56024009
-0.061916228 -0.01461111 0.55128819
-0.111841 -0.23090521 0.61937982
-0.037030611 -0.2930775 0.64423323
0.032040309 -0.29340619 0.61908728
0.0034900331 -0.29639089 0.62580538
0.043080062 -0.1213413 0.60939473
0.043756071 -0.084871411 0.60770738
-0.1012661 -0.2185981 0.64831781
0.001179639 -0.1643822 0.62141281
-0.03859489 -0.29643801 0.64569592
0.05879534 -0.2427357 0.60115361
0.060040072 -0.26667121 0.59804589
0.018932389 -0.1468306 0.62312341
0.06179658 -0.3002201 0.59926093
0.1130001 -0.3047598 0.57446861
0.084724844 -0.29828629 0.59413427
0.112137 -0.28766781 0.57697308
0.08473561 -0.27957451 0.59440368
-0.053688452 -0.2402181 0.64752579
0.067621343 -0.092152357 0.59846771
0.1146899 -0.25244841 0.5733453
-0.041532081 -0.27607381 0.64551091
0.072015628 -0.1210963 0.5952692
0.079640038 -0.2313938 0.59563762
-0.049610838 -0.091892153 0.64568049
0.078711398 -0.2187559 0.59626579
0.05001051 -0.13960651 0.60317528
0.080631196 -0.01747125 0.5869633
0.058747049 -0.30077031 0.59973449
-0.020052459 -0.26284921 0.63634402
0.02102126 -0.1475579 0.61987561
0.064598978 -0.27143341 0.60263038
-0.03811932 -0.2670975 0.64303511
-0.046925399 -0.27466491 0.64403498
0.002050797 -0.2144881 0.62725812
0.0439866 -0.1240592 0.60708958
0.001175301 -0.1658958 0.62514597
0.049414512 -0.12845349 0.60173452
0.071344189 -0.091094643 0.59736168
0.057509091 -0.26450169 0.60299462
0.1186607 -0.29158109 0.57489729
-0.040791959 -0.28706929 0.6461252
-0.1067575 -0.040345579 0.63550901
0.090664722 -0.27666271 0.59158409
0.0496566 -0.1609904 0.59999239
-0.05530664 -0.029771009 0.6440618
0.096970983 -0.1466486 0.58659929
-0.0050619338 -0.1180715 0.62975061
0.03743932 -0.085164987 0.60785198
0.015871231 -0.1152899 0.61139482
0.093469553 -0.1202427 0.58606857
-0.053029291 -0.1630604 0.64584577
-0.058295391 -0.16333 0.64403439
-0.017639739 -0.228512 0.63688737
-0.053850479 -0.23944969 0.64855802
-0.065268897 -0.24723201 0.64936757
-0.01259736 -0.2219923 0.63132191
-0.067587137 -0.1788272 0.64959192
-0.06779246 -0.1707972 0.64997542
-0.040931281 -0.28710341 0.64686471
-0.0078885183 -0.20517009 0.62938023
-0.1297877 -0.30690879 0.59032542
-0.01517919 -0.14430059 0.63366449
-0.017592009 -0.1080036 0.63583052
-0.1417401 -0.30682811 0.59304291
0.1116977 -0.1747357 0.58184677
0.1105397 -0.15121301 0.57853419
0.110379 -0.19903751 0.57861662
0.1132656 -0.03382599 0.57399172
0.076536432 -0.1603651 0.60112143
0.1155293 -0.087223157 0.57180268
0.04294746 -0.08483123 0.60468858
0.03175886 -0.20406079 0.60529882
0.01694471 -0.14732391 0.62623179
0.1093564 -0.1830826 0.57820088
0.1115079 -0.01666248 0.57331902
0.02689812 -0.1054223 0.60581458
0.1064034 -0.1660511 0.58238667
0.072632007 -0.091531247 0.59957403
0.095339581 -0.1169501 0.58537853
0.074185967 -0.1191698 0.60192162
0.048143569 -0.1598836 0.60516429
0.050817799 -0.1391428 0.5986318
0.1071324 -0.1316447 0.57837641
0.052976191 -0.162773 0.59638399
0.114069 -0.2788929 0.57540238
0.1120553 -0.2461729 0.57407892
0.1158731 -0.2194192 0.57220221
0.1100228 -0.3045204 0.57704252
0.1161792 -0.25318271 0.56994778
0.056060791 -0.2459598 0.60339332
0.088394329 -0.29760501 0.5961746
0.057768092 -0.29959801 0.6029309
0.0038402381 -0.29748821 0.62479728
0.05984794 -0.26743099 0.59732699
0.061858431 -0.30232221 0.5968163
0.079043187 -0.2186574 0.60227191
0.1189116 -0.22015689 0.58163291
0.01058035 -0.2599684 0.61689109
0.076201193 -0.30635491 0.60245198
0.07930018 -0.30700701 0.59909022
0.02344349 -0.2493773 0.62068617
0.007178918 -0.29510549 0.62194091
0.1062306 -0.27972049 0.58018941
0.0070916861 -0.30338421 0.6197226
0.10473 -0.22878151 0.58499712
0.010316 -0.2467133 0.62253273
0.0002896637 -0.3084563 0.62493259
0.074886084 -0.2322585 0.59267843
0.01618116 -0.25287569 0.62259609
0.1028184 -0.29043391 0.58302093
0.090707481 -0.055768829 0.58448148
0.096427202 -0.1128398 0.58065122
0.092801228 -0.17904881 0.59326297
0.073536433 -0.2479248 0.60290188
0.045111269 -0.25819901 0.60915452
0.02076859 -0.27865219 0.61985081
0.025628339 -0.28959951 0.61509442
0.01376686 -0.27021751 0.62794769
0.091082796 -0.074281082 0.59388292
0.093430176 -0.120095 0.59269631
0.064515188 -0.2716268 0.60556942
0.091740742 -0.1049399 0.59036893
0.097471938 -0.1545029 0.58677399
-0.0154181 -0.2165812 0.63557541
-0.1028155 -0.1572862 0.64507341
0.1224815 -0.2095373 0.56972748
0.1134411 -0.30804139 0.5746361
0.048924971 -0.1066044 0.59684712
0.070065513 -0.16486301 0.59705162
0.084787861 -0.28048211 0.60012579
0.1157902 -0.2429461 0.57059753
0.1015962 -0.30260181 0.58085102
0.033148929 -0.2954196 0.6183067
-0.1047208 -0.093834817 0.64142042
0.1113885 -0.091049217 0.57731217
0.036164209 -0.2587586 0.61506802
-0.1674334 -0.3082324 0.49338511
0.051106859 -0.1917116 0.60252398
0.096494026 -0.029090989 0.58767378
0.01370682 -0.23182601 0.63113439
0.09879224 -0.28299919 0.58637679
-0.04603982 -0.2839883 0.64648819
0.056241348 -0.244102 0.60450453
0.05672859 -0.26508519 0.60342371
0.065394707 -0.25994489 0.60045648
0.091676399 -0.2206928 0.58730078
0.066207998 -0.29017711 0.6044752
0.01332379 -0.29416239 0.62829667
0.089937612 -0.27594179 0.59556669
0.1191751 -0.27900621 0.57838517
-0.04364549 -0.172268 0.64369547
-0.041345719 -0.2108359 0.64355922
-0.041132409 -0.24747419 0.64405829
0.07464648 -0.1210565 0.59284562
0.1138482 -0.2005128 0.57927573
0.04299739 -0.2563633 0.60831422
-0.043665592 -0.019055991 0.63683528
0.037473559 -0.016536679 0.6094197
-0.036626279 -0.027747691 0.64090878
-0.041223049 -0.2119105 0.64140391
-0.041467961 -0.2068253 0.64252371
0.034325778 -0.01424196 0.60902888
0.078851223 -0.021484019 0.59233242
0.069901437 -0.055269539 0.5914641
0.1158209 -0.1448762 0.5812245
0.1373143 -0.215387 0.57121009
0.1135141 -0.30937549 0.57411373
0.074719459 -0.15744521 0.59611481
0.094663858 -0.12840641 0.58919179
0.01481837 -0.01484072 0.61848909
0.01433372 -0.01787236 0.61990738
-0.0083602071 -0.01868489 0.61785787
-0.025488259 -0.01357052 0.56956202
0.1015702 -0.01993024 0.58474869
-0.01420861 -0.0138692 0.62033677
-0.069240421 -0.01332834 0.64964962
-0.046159148 -0.01100023 0.62448972
-0.022389051 -0.0094502568 0.60624337
-0.1034879 -0.0096593499 0.59580523
-0.059233841 -0.01191455 0.54053932
-0.13736171 -0.0094792536 0.46563289
-0.075085104 -0.0098152459 0.57060808
0.062723823 -0.01316068 0.4789612
0.079004973 -0.01376978 0.55121827
0.070471346 -0.01203635 0.53412843
-0.098585583 -0.0089072594 0.57083559
-0.01293755 -0.01510641 0.4107621
-0.020106429 -0.01500288 0.58334702
-0.04820415 -0.2051273 0.64912409
0.040215101 -0.01413119 0.49404281
0.059294939 -0.0143967 0.53145128
-0.0048124492 -0.01102756 0.39731941
0.1171829 -0.070113257 0.57341909
0.1166357 -0.0297083 0.58032942
0.117212 -0.214587 0.57971859
0.100574 -0.02239546 0.58410621
0.075261891 -0.091614991 0.59366232
0.095561802 -0.1158815 0.58296221
0.0375579 -0.02384126 0.6126433
-0.1176685 -0.0108521 0.56235158
-0.057437569 -0.015739741 0.64511061
-0.1013474 -0.01029742 0.5440532
-0.066245347 -0.01104477 0.56110972
-0.078086607 -0.0095411837 0.49269429
-0.0428279 -0.0092941821 0.60220039
-0.081267677 -0.01289058 0.51486599
-0.09187755 -0.01094544 0.62553573
-0.082206249 -0.01029959 0.50660431
-0.0074426532 -0.01431161 0.55760199
-0.01693118 -0.01116133 0.5646261
