# .PCD v0.7 - Point Cloud Data file format
VERSION 0.7
FIELDS x y z normal_x normal_y normal_z curvature
SIZE 4 4 4 4 4 4 4
TYPE F F F F F F F
COUNT 1 1 1 1 1 1 1
WIDTH 578
HEIGHT 1
VIEWPOINT 0 0 0 1 0 0 0
POINTS 578
DATA ascii
0.027202759 -0.025772568 0.37211081 0.2640163 0.67145568 -0.69241804 0.11608475
0.036871303 -0.021208635 0.37558687 0.35136232 0.73444045 -0.58063906 0.11073473
0.045458775 -0.022036778 0.37897101 0.42251518 0.72954494 -0.53781521 0.11385688
-0.072710931 -0.3151668 0.38939711 -0.28776184 -0.7435745 -0.60356444 0.10913981
-0.05729574 -0.3151668 0.38954949 -0.23552169 -0.91560042 -0.32589173 0.10427038
-0.040078942 -0.3151668 0.38909981 -0.1767365 -0.96682042 -0.18445224 0.074402258
-0.033071816 -0.3151668 0.38579458 -0.13185589 -0.98324698 -0.12585486 0.059118673
-0.025645468 -0.3151668 0.38723522 -0.10169524 -0.99083364 -0.088920273 0.042471755
-0.01427515 -0.3151668 0.38185996 -0.081627771 -0.99471104 -0.062345162 0.043831866
-0.0077477619 -0.3151668 0.38350323 -0.083615288 -0.99553782 -0.043737188 0.043518271
0.001121938 -0.3151668 0.3858377 -0.041092433 -0.99905652 -0.014055205 0.02414519
0.025419995 -0.3151668 0.38603783 7.057512e-06 -1 -9.0956259e-05 3.0633288e-05
0.03863487 -0.3151668 0.38500026 2.1982725e-05 -1 -9.0659509e-05 3.6541336e-05
0.044963785 -0.3151668 0.3851099 2.8638433e-05 -1 -0.00010690717 3.7758906e-05
0.051414758 -0.3151668 0.3851555 3.158678e-05 -1 -0.00010077961 4.341883e-05
0.050145563 -0.22209336 0.38328335 0.30758446 -0.63281912 -0.71058553 0.10640649
-0.032328039 -0.21531318 0.38690448 -0.37842113 -0.016526479 -0.92548603 0.011834431
-0.028013449 -0.21740121 0.38829121 -0.34417948 -0.053727988 -0.93736535 0.018060349
-0.020540984 -0.2090203 0.38390729 -0.32752767 -0.063599795 -0.94269866 0.02637478
-0.011599824 -0.20542003 0.38025853 -0.33151025 -0.080519103 -0.94000942 0.030748986
0.047282998 -0.20765057 0.3841601 0.37289223 -0.54830754 -0.74853879 0.13380952
-0.037461191 -0.16960387 0.38016075 -0.41263562 0.012620169 -0.91080874 0.0058491891
-0.023869794 -0.16709714 0.38507178 -0.39341342 -0.0046027545 -0.91935015 0.010915517
-0.010962803 -0.16346054 0.38095182 -0.36481798 -0.051965166 -0.92962766 0.022469753
-0.018559834 -0.10130712 0.38036519 -0.35487092 0.027472857 -0.9345116 0.025096778
-0.030856038 -0.091285303 0.388008 -0.41127241 0.078651033 -0.90811288 0.018398758
-0.031316303 -0.089378275 0.38862237 -0.41343409 0.081746474 -0.90685707 0.019087542
0.042581961 -0.080379352 0.38153413 0.69067085 0.076841071 -0.71907526 0.070787072
0.047408056 -0.067705676 0.38711786 0.72920638 0.1642838 -0.66428065 0.084697239
-0.01437962 -0.05060086 0.38414589 -0.19531846 0.41834021 -0.88704127 0.076680116
-0.027274296 -0.046774846 0.38787213 -0.26638529 0.50819159 -0.81901175 0.064584687
-0.01406059 -0.040538639 0.38183615 -0.16038653 0.56194907 -0.81147361 0.081731394
-0.010036435 -0.031079642 0.3827768 -0.091999121 0.70140815 -0.70679754 0.093425989
-0.0031914469 -0.028434085 0.38228223 -0.030522445 0.73074377 -0.68196917 0.10187276
0.022756618 -0.021822058 0.3834255 0.18337344 0.81976712 -0.54254591 0.11489043
0.038899668 -0.020729112 0.3836256 0.36196262 0.77906996 -0.51189172 0.10780113
0.043418072 -0.022178078 0.38607889 0.42722145 0.74736524 -0.50884867 0.11333916
-0.057088964 -0.019255023 0.3897939 -0.31270289 0.64967984 -0.69291633 0.083406337
0.029630506 -0.018666405 0.38964117 0.23466249 0.86233026 -0.44868696 0.098703168
0.037086029 -0.019257834 0.38689038 0.34398323 0.80074543 -0.49039 0.10381258
-0.084456027 -0.3151668 0.39833331 -0.33991733 -0.5720998 -0.74643028 0.095641404
-0.07270503 -0.3151668 0.39380229 -0.26973668 -0.75003386 -0.6038968 0.11588284
-0.063364953 -0.3151668 0.39558345 -0.17025733 -0.94662637 -0.27369887 0.10183797
-0.052669957 -0.3151668 0.39833111 -0.19402687 -0.95496219 -0.22450121 0.091634303
-0.046097055 -0.3151668 0.39666319 -0.18884456 -0.95891774 -0.21169452 0.084530063
-0.036635514 -0.3151668 0.39578956 -0.16189192 -0.97529757 -0.1502853 0.070633426
-0.02979135 -0.3151668 0.39129549 -0.11315726 -0.98901129 -0.095142566 0.051377557
-0.013571855 -0.3151668 0.39614207 -0.083598182 -0.99478471 -0.058436163 0.036975849
-0.0066937408 -0.3151668 0.39561096 -0.073902823 -0.99618822 -0.046340507 0.037157889
0.01473311 -0.3151668 0.39081851 -2.9146312e-07 -1 -9.1434769e-05 3.0286361e-05
0.02832702 -0.3151668 0.39584371 6.1311089e-06 -1 -4.7474314e-05 2.4681049e-05
0.03068574 -0.3151668 0.39086181 6.6752536e-06 -1 -4.9720082e-05 2.9089209e-05
0.048414707 -0.3151668 0.39585528 2.9272109e-05 -1 -7.8798475e-05 3.4643566e-05
0.052500598 -0.3151668 0.3932541 3.8575628e-05 -1 -9.4652991e-05 3.5121906e-05
-0.063419506 -0.26102671 0.39583182 -0.36526608 -0.086118579 -0.92691112 0.033823237
-0.048844371 -0.25500458 0.39274314 -0.33756629 -0.078528129 -0.93802047 0.029661005
0.051589258 -0.20227617 0.39202064 0.64789116 -0.28092468 -0.70803845 0.14254591
-0.08491531 -0.17051007 0.3968755 -0.37045571 0.026587909 -0.92846954 0.0043708575
-0.044085782 -0.17114381 0.39822015 -0.40649539 0.008657801 -0.91361177 0.0049168924
-0.044314723 -0.16746855 0.39839277 -0.19789329 -0.027628507 -0.97983408 0.030422032
-0.036606628 -0.16644916 0.39252239 -0.39964473 0.0056519881 -0.91665274 0.0055136182
-0.038210414 -0.091545053 0.39083973 -0.41018179 0.071162865 -0.90922314 0.013773042
-0.043901712 -0.083822474 0.39361072 -0.40424064 0.10769326 -0.90829057 0.017918384
0.050127547 -0.081859194 0.39865631 0.7931366 0.045590367 -0.60733509 0.032068424
-0.084009379 -0.07746736 0.399786 -0.42689547 0.11866588 -0.89648128 0.021091918
-0.03124935 -0.073216729 0.39149445 -0.35555226 0.16654834 -0.91969794 0.03820445
0.047207579 -0.07922864 0.39043224 0.7432847 0.055716056 -0.66665113 0.062848598
-0.046194028 -0.053305056 0.39980629 -0.38197345 0.54509503 -0.74630278 0.090375125
-0.037984394 -0.053412091 0.39468777 -0.35443395 0.52921224 -0.77091563 0.077283725
0.051474262 -0.036737237 0.39725217 0.67173922 0.52379751 -0.52383453 0.11610977
-0.072073787 -0.020279387 0.39438117 -0.31165057 0.58871406 -0.7458483 0.07417997
-0.0057844329 -0.021326479 0.39257899 -0.038188316 0.88028187 -0.47291178 0.088108048
0.014341824 -0.020328676 0.39017358 0.12508738 0.88078254 -0.45670047 0.10190888
0.047626879 -0.024872178 0.39426994 0.48849252 0.72567111 -0.48453742 0.11160742
-0.054580636 -0.018768841 0.39988065 -0.23622201 0.80323189 -0.54682511 0.088115573
-0.03812113 -0.019153902 0.39644626 -0.20809422 0.8555367 -0.47408193 0.067372076
-0.013577862 -0.018089337 0.39641225 -0.087158039 0.92498666 -0.36986911 0.062755853
-0.0077050757 -0.019418165 0.3973403 -0.061810423 0.91649073 -0.39525202 0.072780564
0.028235607 -0.017958522 0.39573446 0.21573654 0.88770968 -0.40673018 0.095739931
0.030637069 -0.018534152 0.39097995 0.23894832 0.86073321 -0.4494909 0.099997662
-0.1105632 -0.3151668 0.40973309 -0.33693314 -0.53733724 -0.7731396 0.083991081
-0.091759562 -0.3151668 0.40967119 -0.29192477 -0.64095551 -0.70989865 0.097152822
-0.086335517 -0.3151668 0.40793571 -0.21538362 -0.82272017 -0.52606219 0.10410319
-0.073188253 -0.3151668 0.40555087 -0.17464638 -0.90864015 -0.37930444 0.10860509
-0.063966624 -0.3151668 0.40510932 -0.13882175 -0.95332247 -0.26815087 0.096415967
-0.057480879 -0.3151668 0.40402964 -0.15974863 -0.95934719 -0.23266582 0.09245006
-0.044431072 -0.3151668 0.40496111 -0.16666356 -0.97148865 -0.16862148 0.078567222
-0.039950639 -0.3151668 0.40318739 -0.13710825 -0.98149335 -0.13368702 0.068799242
-0.024955705 -0.3151668 0.40666306 -0.10119116 -0.99185956 -0.077298649 0.044963118
-0.014344723 -0.3151668 0.40863848 -0.083257519 -0.99476182 -0.059306059 0.033542264
0.0080057681 -0.3151668 0.40595657 -2.4459921e-06 -1 -6.0565377e-05 1.7618147e-05
0.02695116 -0.3151668 0.40864351 1.097073e-05 -1 -7.9317586e-05 2.4915378e-05
0.036458284 -0.3151668 0.40367699 2.0251946e-05 -1 -7.2714989e-05 2.3594061e-05
0.046667773 -0.3151668 0.40502429 2.8386914e-05 -1 -8.288605e-05 2.7745236e-05
0.055476606 -0.3151668 0.40514025 4.4480839e-05 -1 -8.7989727e-05 3.3501812e-05
0.063508928 -0.3151668 0.40408319 5.0166374e-05 -1 -0.00010043589 3.4254172e-05
-0.086291276 -0.28426674 0.40825275 -0.35054412 -0.21539928 -0.91143948 0.085015096
-0.059492409 -0.2678009 0.40497789 -0.31048384 -0.20058239 -0.9291752 0.10210747
-0.058702741 -0.21552999 0.40231141 -0.38119119 0.016178219 -0.92435467 0.0045891255
-0.091759562 -0.2076735 0.40967119 -0.38806513 0.012594521 -0.92154592 0.0043449863
-0.063078254 -0.20075625 0.40274993 -0.37960312 0.011755834 -0.92507476 0.0046440004
-0.10997999 -0.19253148 0.40956324 -0.4164184 0.012561869 -0.90908635 0.0081186183
-0.060361497 -0.1941838 0.40138826 -0.38478133 0.015884163 -0.92287111 0.0048162402
-0.058949985 -0.19578101 0.40104324 -0.38557112 0.0089362394 -0.92263484 0.0049106744
-0.085123301 -0.18693563 0.40551764 -0.38121453 0.016889995 -0.92433232 0.0053750123
-0.07131885 -0.18605864 0.40393567 -0.37581736 0.01818482 -0.92651528 0.0048762863
-0.054712269 -0.16214485 0.40159467 -0.39802516 0.0069522425 -0.91734821 0.0042646811
-0.060786087 -0.15124987 0.4032115 -0.39075434 0.018958088 -0.92029977 0.0055981358
-0.04480277 -0.15468588 0.40040988 -0.41136548 0.005981897 -0.91145086 0.0046213823
-0.059252683 -0.14000565 0.40287855 -0.39327589 0.022225177 -0.9191519 0.0045825862
-0.060064718 -0.13865133 0.40313846 -0.39296845 0.021406543 -0.91930276 0.0046765604
-0.059482895 -0.13792163 0.40298063 -0.39296845 0.021406543 -0.91930276 0.0046765604
-0.072553322 -0.12397996 0.4082078 -0.38791946 0.039937425 -0.92082763 0.0042557837
0.063508928 -0.1238756 0.40408319 0.8272956 0.047489945 -0.55975592 0.029551635
0.053258311 -0.080190867 0.40689656 0.82633173 0.063489065 -0.55959368 0.048717998
-0.051728643 -0.066486306 0.40095294 -0.38981077 0.27533594 -0.87877047 0.063513868
-0.064513028 -0.047172341 0.40592813 -0.35297844 0.49590456 -0.79340082 0.094808973
-0.05156713 -0.049297683 0.40234181 -0.36291727 0.61185676 -0.70279622 0.10554473
-0.076725364 -0.022370895 0.40556657 -0.27088407 0.67417258 -0.68710488 0.084995963
-0.067054331 -0.019576581 0.40797296 -0.20792475 0.81989127 -0.53342813 0.084895641
-0.057918649 -0.018847795 0.40945038 -0.17807509 0.86987716 -0.46000329 0.087392546
-0.044446036 -0.018394716 0.40650666 -0.19801185 0.87436599 -0.44302994 0.078482941
-0.02982768 -0.018564759 0.40618402 -0.141574 0.91786093 -0.37079403 0.057245526
-0.015517342 -0.018605703 0.40839392 -0.09970621 0.93476325 -0.3409932 0.055240333
0.0080212811 -0.017938148 0.40603343 0.059925351 0.94567156 -0.31955329 0.073482901
0.026925595 -0.016165307 0.40881294 0.18820022 0.93990165 -0.28489575 0.078930818
0.036595296 -0.016972385 0.40357825 0.27482355 0.89555538 -0.34993213 0.089533061
0.045479231 -0.018445719 0.40589088 0.38528806 0.84842861 -0.36293516 0.096938714
-0.10431781 -0.3151668 0.4186655 -0.28158534 -0.71370035 -0.64135921 0.089046821
-0.094336241 -0.3151668 0.41444221 -0.29577211 -0.63541234 -0.71328115 0.10246895
-0.085317336 -0.3151668 0.41487291 -0.18187608 -0.87487656 -0.44890109 0.10545766
-0.077196755 -0.3151668 0.41449165 -0.14656869 -0.93321317 -0.32807133 0.10388107
-0.064717434 -0.3151668 0.41271618 -0.13093622 -0.96317273 -0.23484908 0.09738978
-0.05656904 -0.3151668 0.41039869 -0.13161151 -0.9735263 -0.18688239 0.088265635
-0.045268714 -0.3151668 0.41498685 -0.14048174 -0.97850412 -0.15097903 0.072623417
-0.024781331 -0.3151668 0.41377822 -0.096773714 -0.99219465 -0.078642495 0.045223679
-0.01339018 -0.3151668 0.41274539 -0.082673594 -0.99466807 -0.061648913 0.034723386
-0.001574412 -0.3151668 0.41268462 -0.030193076 -0.99939829 -0.017073218 0.01669539
0.0042426591 -0.3151668 0.4182134 -1.9262054e-06 -1 -7.4671763e-05 1.7730623e-05
0.02105513 -0.3151668 0.41663471 6.5069762e-06 -1 -5.8332498e-05 1.363987e-05
0.033258859 -0.3151668 0.41196701 1.3556014e-05 -1 -6.0267532e-05 2.3636825e-05
0.056796402 -0.3151668 0.41478223 4.9583999e-05 -1 -8.1088037e-05 2.5020787e-05
0.063069671 -0.3151668 0.41733989 3.9230545e-05 -1 -6.647082e-05 2.4462843e-05
-0.095018581 -0.26999226 0.41349828 -0.35705388 -0.1519503 -0.92164189 0.060331319
-0.094192982 -0.25572768 0.41379088 -0.37919116 -0.097431853 -0.92017454 0.031424154
-0.088629737 -0.25820798 0.414574 -0.37370852 -0.12347606 -0.91929084 0.04192932
-0.074315853 -0.25800899 0.41951889 -0.37053651 -0.1458317 -0.91729814 0.059213657
-0.098964609 -0.24270704 0.41506723 -0.41542396 -0.045505814 -0.90848899 0.015749384
-0.090812117 -0.2310771 0.41277379 -0.38864928 0.019739995 -0.92117429 0.0055148513
-0.086107552 -0.2345401 0.41198489 -0.38208482 0.01569437 -0.923994 0.0060265958
-0.093979083 -0.20064402 0.41360897 -0.39516148 0.011290523 -0.91854233 0.0044270772
-0.086641729 -0.20841479 0.41436201 -0.38599601 0.011801508 -0.92242497 0.0046177013
-0.11776428 -0.18828437 0.41987255 -0.48705441 0.0072289491 -0.87334174 0.020839429
-0.09399417 -0.17000917 0.41516683 -0.39070258 0.021827493 -0.92025816 0.0050575272
-0.09284766 -0.16889408 0.41353014 -0.38627136 0.022594467 -0.92210841 0.0045625335
-0.098192193 -0.15522419 0.4188906 -0.40423077 0.035900328 -0.91395217 0.0073590144
-0.092972301 -0.13779831 0.41293415 -0.39228299 0.038260374 -0.91904855 0.0065937899
-0.10635136 -0.11717553 0.41969699 -0.46401647 0.05893591 -0.88386381 0.013620033
-0.081109002 -0.1189434 0.41797671 -0.38906711 0.048594702 -0.91992682 0.0040253755
-0.079837292 -0.1155387 0.41067091 -0.39397392 0.047016341 -0.91791832 0.0039862627
0.059358776 -0.10086941 0.4166013 0.8534469 -0.043907799 -0.51932704 0.023043051
0.06114326 -0.10684676 0.41906181 0.85503602 -0.040220235 -0.51700652 0.021563623
0.058142319 -0.09716437 0.41269997 0.84554714 -0.044376988 -0.53205329 0.021309413
-0.087112099 -0.075492606 0.41310108 -0.4089075 0.14993617 -0.90017432 0.027356923
-0.084570892 -0.066809103 0.41069371 -0.4006792 0.19713159 -0.89475989 0.045446869
-0.084291637 -0.058064152 0.41452706 -0.38832209 0.24954554 -0.88709247 0.055489689
-0.08036229 -0.04244411 0.4146924 -0.32747775 0.45118007 -0.83017761 0.093892485
-0.061729044 -0.048885182 0.41107598 -0.34161741 0.57046074 -0.74690843 0.10432433
0.06308727 -0.042504471 0.41394079 0.80875796 0.39874506 -0.43233442 0.083069414
-0.088851005 -0.037516367 0.41898209 -0.32231271 0.47713 -0.81759495 0.08914604
0.061037 -0.03826749 0.41636398 0.74448705 0.51564592 -0.42408547 0.089599051
-0.08402475 -0.028360134 0.41662747 -0.26042333 0.70629764 -0.65827304 0.09996891
-0.077463545 -0.022560393 0.41354036 -0.2228436 0.80667764 -0.54736829 0.091938771
-0.020095078 -0.021274321 0.41793394 -0.12218355 0.93148786 -0.34263906 0.051268563
-0.072605029 -0.019478973 0.4157868 -0.19464822 0.85981441 -0.47205007 0.087173849
-0.065928511 -0.019317953 0.41337985 -0.18143557 0.88300401 -0.43287995 0.081784502
-0.056602649 -0.01855664 0.41045365 -0.1761256 0.88082772 -0.43945682 0.084320322
-0.045241661 -0.018068183 0.41508165 -0.1831826 0.90099072 -0.39326811 0.076159865
-0.02644291 -0.01881415 0.41276684 -0.13093348 0.92698312 -0.35150927 0.054591406
-0.013392446 -0.018722337 0.4128713 -0.081552565 0.94298118 -0.32270059 0.052313127
-0.0016114516 -0.018247444 0.41273701 0.012768933 0.96449566 -0.26378989 0.051087048
0.0043164142 -0.017609091 0.41821313 0.025143936 0.97065645 -0.23915242 0.047258619
0.021290718 -0.016013561 0.41635925 0.13628782 0.95689094 -0.25648659 0.069649763
0.034948777 -0.015565993 0.41597173 0.23341684 0.93500757 -0.26697835 0.074387863
-0.10103311 -0.009907851 0.41710401 -0.33249125 0.57896978 -0.74447531 0.074459434
-0.14655001 -0.31143111 0.42614332 -0.59175676 -0.46458617 -0.65877438 0.096556559
-0.13469943 -0.31511655 0.42606968 -0.48174137 -0.57253599 -0.66342133 0.083370082
-0.1245598 -0.3151668 0.42413345 -0.43423527 -0.56572765 -0.70099354 0.081861123
-0.11446853 -0.3151668 0.42480579 -0.3140873 -0.7032001 -0.63785481 0.0878985
-0.10799833 -0.3151668 0.42493472 -0.26155657 -0.78270555 -0.56476563 0.092996866
-0.093990937 -0.3151668 0.42258835 -0.1808335 -0.90785807 -0.37827638 0.097067371
-0.085515715 -0.3151668 0.42460108 -0.13534872 -0.94572008 -0.29545611 0.092337348
-0.060896099 -0.3151668 0.42661649 -0.099091709 -0.98091233 -0.16730781 0.082495198
-0.055916399 -0.3151668 0.42343929 -0.11396229 -0.97880667 -0.17014715 0.084566779
-0.0031890271 -0.3151668 0.42882389 -0.012397535 -0.99991369 -0.0043542585 0.0053545292
0.02722903 -0.3151668 0.42420891 2.0557949e-05 -1 -0.00010554362 1.7862652e-05
0.03638744 -0.3151668 0.42003611 1.7681661e-05 -1 -6.3514555e-05 1.6848557e-05
0.04502001 -0.3151668 0.42220414 4.3678727e-05 -1 -0.0001128701 2.6095393e-05
0.055139251 -0.3151668 0.42413169 4.035352e-05 -1 -9.0332382e-05 2.0615222e-05
0.063572302 -0.3151668 0.42490783 6.4607586e-05 -1 -0.00011689084 3.0001913e-05
0.074205697 -0.3151668 0.42210081 3.6163263e-05 -1 -8.9082874e-05 3.662227e-05
-0.1463847 -0.27884871 0.42178884 -0.58149678 -0.14298634 -0.80088484 0.061351258
-0.12729903 -0.26838905 0.42350337 -0.52853066 -0.090648778 -0.84406054 0.049940113
-0.1393777 -0.21093644 0.42266804 -0.62969714 0.01335026 -0.77672601 0.042356912
-0.12387358 -0.21803318 0.42654189 -0.56905073 0.0015036641 -0.82230103 0.035620034
-0.1164469 -0.21872114 0.42550302 -0.52990854 -0.017679252 -0.84787047 0.024973057
-0.10596319 -0.19268584 0.4232083 -0.43361533 0.021521455 -0.90084106 0.010026998
-0.11918976 -0.18817621 0.42042711 -0.50348741 0.013152182 -0.86390245 0.028773978
-0.13266321 -0.15829191 0.42444319 -0.59228265 0.013507405 -0.80561709 0.04161809
0.065542057 -0.15874949 0.4231976 0.87856835 0.051353417 -0.47484785 0.015184291
-0.1254597 -0.1494772 0.42681181 -0.56818098 0.024865571 -0.82252789 0.03687511
-0.1275377 -0.12052245 0.42989749 -0.57097161 0.029071705 -0.82045496 0.03893923
-0.12311042 -0.1199725 0.4278411 -0.54965085 0.048406068 -0.83399099 0.029937584
-0.11403484 -0.11001542 0.4246752 -0.51230294 0.054395676 -0.85708046 0.02089279
0.064128265 -0.11738928 0.42854729 0.88770223 -0.0084653785 -0.46034023 0.01549564
-0.11119318 -0.10999412 0.42332846 -0.49635834 0.064505488 -0.86571795 0.018595697
-0.10815337 -0.10024157 0.42330262 -0.4880203 0.045080833 -0.87166733 0.018226029
0.061784539 -0.10519177 0.42682335 0.88581121 -0.010638498 -0.46392384 0.015802877
-0.1114841 -0.098123603 0.42498136 -0.48477262 0.032826949 -0.87402397 0.016709886
-0.10410838 -0.093883961 0.42278638 -0.45394614 0.064451307 -0.88869512 0.013654718
-0.11146859 -0.086539499 0.42702171 -0.47106311 0.086860925 -0.8778125 0.022605224
-0.093669258 -0.082172155 0.42101318 -0.40695661 0.12734766 -0.90452695 0.021254461
-0.087924495 -0.082296483 0.42560986 -0.40584606 0.16050184 -0.89973783 0.029846389
0.061130866 -0.083055742 0.42724526 0.90180391 0.13034143 -0.41202039 0.036978886
-0.11164612 -0.078235134 0.42927802 -0.47479084 0.11065044 -0.87311518 0.028378652
-0.088034816 -0.078796394 0.42089075 -0.39752913 0.16223133 -0.90313429 0.032746766
0.060831551 -0.065428913 0.42477491 0.86592263 0.26436022 -0.42460766 0.066501431
-0.082124114 -0.057969011 0.42029026 -0.35851938 0.31006962 -0.88052303 0.074506126
0.061300647 -0.051648658 0.42317134 0.84121108 0.35264447 -0.40988514 0.072445586
0.060902514 -0.042623736 0.42090306 0.79979557 0.43952376 -0.40883479 0.082721777
-0.093936399 -0.036665983 0.4230949 -0.34612992 0.52359045 -0.77849025 0.092923671
-0.089703389 -0.033501733 0.42006364 -0.30948296 0.60192877 -0.73613995 0.096112661
-0.11180411 -0.025871294 0.42979419 -0.39598686 0.60174268 -0.69361389 0.087270074
-0.10642602 -0.026482964 0.42937177 -0.36889979 0.66277391 -0.65164691 0.092482671
-0.087488733 -0.020093992 0.42874587 -0.17697558 0.90471745 -0.38751265 0.084545031
0.058864187 -0.021860231 0.42355275 0.57396895 0.73408973 -0.36286625 0.084213845
0.066918731 -0.022019548 0.42673147 0.73467118 0.59568828 -0.32467499 0.084517561
0.074101403 -0.020085627 0.42394489 0.70957148 0.64575982 -0.28196219 0.078758597
-0.085814744 -0.018349005 0.42384005 -0.18555382 0.88748515 -0.42182934 0.088439621
-0.060699657 -0.017875874 0.42664632 -0.15252188 0.92899799 -0.33719411 0.079014301
-0.0560885 -0.017839445 0.42337468 -0.14950684 0.93043578 -0.33456993 0.075899392
-0.0034996571 -0.018235266 0.42880237 0.013989217 0.98244262 -0.1860401 0.033520561
0.027223179 -0.015233458 0.42425197 0.20169811 0.95448786 -0.21970627 0.065166757
0.045032706 -0.015745195 0.42231324 0.29675931 0.91971326 -0.25702429 0.075116806
0.051626503 -0.017170951 0.42419598 0.35684127 0.89359802 -0.27229923 0.07351435
-0.16198236 -0.31012154 0.43766373 -0.74942547 -0.45352191 -0.48236856 0.11424299
-0.15473987 -0.3120138 0.43909088 -0.7006917 -0.47916943 -0.5286094 0.10954882
-0.14174956 -0.31375358 0.43638346 -0.56533587 -0.60032785 -0.56568706 0.10619929
-0.13583803 -0.31487083 0.43536708 -0.50989604 -0.65648949 -0.55590254 0.10114171
-0.12664223 -0.31508404 0.434039 -0.44058597 -0.70102876 -0.56075186 0.097828418
-0.11378457 -0.3151668 0.43106717 -0.2408523 -0.86711335 -0.43600997 0.086966559
-0.1051628 -0.3151668 0.43238723 -0.16035463 -0.91708958 -0.36501107 0.088760436
-0.093779393 -0.3151668 0.4332689 -0.12530507 -0.95032072 -0.28493708 0.085137926
-0.073370866 -0.3151668 0.435417 -0.094059773 -0.97297549 -0.21088274 0.088316247
-0.059095949 -0.3151668 0.43240181 -0.086362004 -0.98527193 -0.14758374 0.077756688
-0.044876192 -0.3151668 0.43532631 -0.10086016 -0.98787296 -0.11804353 0.064673327
-0.008938849 -0.3151668 0.43296859 -0.011598903 -0.99991733 -0.0055542695 0.005318718
0.0053167338 -0.3151668 0.43556979 1.1631113e-06 -1 -5.8607078e-05 1.364013e-05
0.03393111 -0.3151668 0.43433309 1.8759749e-05 -1 -9.8335891e-05 1.540405e-05
0.058366295 -0.3151668 0.43751851 2.1240152e-05 -1 -8.058401e-05 2.4336017e-05
0.064134277 -0.3151668 0.43436572 2.3526422e-05 -1 -7.0320639e-05 2.9713872e-05
0.071991742 -0.3151668 0.43739337 3.7696322e-05 -1 -8.8849585e-05 3.4955116e-05
-0.15704751 -0.30466279 0.43420824 -0.69244283 -0.42473796 -0.58319861 0.1042437
-0.15045179 -0.29166847 0.43047643 -0.6859802 -0.25907028 -0.67993659 0.085723057
-0.1626634 -0.26916093 0.43161267 -0.80860096 -0.083305568 -0.58243006 0.066857509
-0.1423506 -0.26522651 0.43347853 -0.68858033 -0.092384309 -0.71925116 0.075070262
-0.13955395 -0.26359197 0.4337588 -0.65985584 -0.082918905 -0.74680299 0.065371551
-0.1402168 -0.25752705 0.43562949 -0.69199091 -0.070456617 -0.71845984 0.067829549
-0.13993962 -0.23931591 0.43512645 -0.73063004 -0.013660799 -0.68263698 0.059967551
-0.13463894 -0.22317556 0.43127841 -0.6756497 -0.0087478748 -0.73717088 0.06200847
0.071929619 -0.21734565 0.43656847 0.91785759 0.050317246 -0.39370772 0.0011703501
-0.13217936 -0.18638484 0.43314156 -0.69635367 -0.023728592 -0.71730644 0.059800044
-0.16246212 -0.16555865 0.43805665 -0.85566157 -0.031183504 -0.51659548 0.067912221
-0.16388571 -0.15995039 0.43856591 -0.85315818 -0.056058917 -0.51863146 0.070845947
-0.14235483 -0.15567881 0.43462417 -0.75851184 -0.031106962 -0.65091646 0.069366835
0.068102717 -0.15804394 0.43867156 0.93334842 0.025694877 -0.35805106 0.0021129251
-0.16325374 -0.13610448 0.43531758 -0.79581106 -0.002968868 -0.60553777 0.066867746
0.066623345 -0.12859355 0.43656492 0.92909378 0.036543053 -0.36803451 0.0026827718
-0.14229581 -0.11051007 0.43746746 -0.64423001 -0.0061510182 -0.76480716 0.063278213
-0.13027091 -0.11708518 0.43120852 -0.57167941 0.019340843 -0.82024914 0.039993398
-0.13423239 -0.10691193 0.43384972 -0.58300167 0.011159958 -0.81239426 0.046147443
0.062665373 -0.10586525 0.43575013 0.91509199 0.0039262925 -0.40322611 0.0056565218
-0.16246393 -0.092555732 0.43290621 -0.60291302 0.02561163 -0.79739571 0.033570793
-0.12422068 -0.098487958 0.43026227 -0.53628963 0.02726596 -0.84359354 0.024802066
-0.13778025 -0.081019506 0.43586493 -0.57873392 0.11436465 -0.80745763 0.047287885
-0.1310726 -0.072050199 0.43633965 -0.54374784 0.13444708 -0.82840949 0.041132361
-0.12874822 -0.072325423 0.43552443 -0.54442418 0.13340786 -0.82813323 0.040429354
-0.11454023 -0.073559292 0.43144393 -0.48524132 0.13287939 -0.86422449 0.034242354
-0.12745088 -0.062054634 0.43735301 -0.57417756 0.23310511 -0.78484529 0.057949509
-0.11604187 -0.069346689 0.43285644 -0.48660702 0.14558053 -0.86140585 0.038203586
-0.1029989 -0.062503412 0.43429404 -0.43792337 0.21953046 -0.87179673 0.04993742
-0.1599177 -0.052291237 0.43730199 -0.63554645 0.25326225 -0.72934151 0.071191221
-0.12014545 -0.053222775 0.4372617 -0.54560351 0.29417878 -0.78471375 0.062656224
0.062620357 -0.054087929 0.43867666 0.87847459 0.35048869 -0.32471529 0.072635457
0.063415296 -0.046791241 0.43447617 0.85598922 0.40236887 -0.32462558 0.077120699
0.060944788 -0.030075954 0.43031254 0.7488355 0.55172521 -0.36721215 0.084918268
-0.13284551 -0.020731516 0.43945873 -0.51335001 0.61087513 -0.60274649 0.091488115
-0.12636974 -0.023165967 0.43639836 -0.47763813 0.59298182 -0.64825499 0.091633283
-0.11526271 -0.024901161 0.43106744 -0.41445863 0.60830659 -0.67689526 0.088796996
0.048660297 -0.025716498 0.43929964 0.40443739 0.88470906 -0.23177648 0.090027601
0.067536786 -0.021511132 0.43040523 0.70553941 0.64808011 -0.28671655 0.079159215
-0.092907779 -0.019052895 0.43354887 -0.18090951 0.8960827 -0.40534872 0.084907681
-0.073114455 -0.017841071 0.4355258 -0.17307928 0.93076837 -0.32204631 0.078167237
-0.059242908 -0.017766692 0.43237007 -0.13548711 0.94556957 -0.29587406 0.072934695
-0.044583146 -0.017063737 0.4354538 -0.12245733 0.96183693 -0.24469151 0.054039612
-0.0089094611 -0.017553097 0.43303648 -0.018754311 0.9843052 -0.17547534 0.027073562
0.0053470125 -0.017992262 0.43556881 0.03515232 0.98698401 -0.15692964 0.033735748
0.033651095 -0.014611616 0.43431497 0.20484108 0.96084911 -0.18657225 0.064380489
0.057689797 -0.018358059 0.43178236 0.42922956 0.87203908 -0.23518042 0.07550174
-0.1729354 -0.31442371 0.44709614 -0.81501418 -0.46779528 -0.34193489 0.11974563
-0.16313571 -0.31272376 0.44506401 -0.78414106 -0.47551298 -0.39876091 0.11430912
-0.1550982 -0.31325778 0.44463208 -0.73158085 -0.54102266 -0.41483015 0.1157807
-0.14582178 -0.31375355 0.44435686 -0.64834672 -0.59579152 -0.4740032 0.10903525
-0.13566121 -0.31481218 0.44216216 -0.49729082 -0.70907718 -0.49991134 0.10657581
-0.12644152 -0.31511852 0.44179735 -0.35990989 -0.83878195 -0.40854594 0.097559303
-0.11868765 -0.3151668 0.445299 -0.2211574 -0.92706537 -0.30271965 0.084847607
-0.10094955 -0.3151668 0.44510299 -0.09842363 -0.9675011 -0.23292576 0.067859784
-0.093078643 -0.3151668 0.44634935 -0.10004661 -0.96985489 -0.22219847 0.069759481
-0.080120154 -0.3151668 0.44143811 -0.10915083 -0.97246408 -0.20591217 0.078606844
-0.064737506 -0.3151668 0.44504771 -0.058909245 -0.99024504 -0.12627158 0.068879902
-0.02020127 -0.3151668 0.4478161 -0.0087330276 -0.99993533 -0.0072879237 0.0054124016
-0.017920019 -0.3151668 0.44892421 -0.0091794124 -0.99993098 -0.0073386282 0.0053588874
0.027417529 -0.3151668 0.44533095 6.5157383e-06 -1 -9.8336575e-05 1.5686286e-05
0.034010123 -0.3151668 0.44583634 2.0305879e-06 -1 -9.1276379e-05 1.6540022e-05
0.057035409 -0.3151668 0.44457853 1.0651777e-05 -1 -6.3422915e-05 2.3438855e-05
0.065671287 -0.3151668 0.44564202 2.1470554e-05 -1 -6.1951047e-05 2.3491037e-05
0.072222501 -0.3151668 0.44453192 5.3404907e-05 -1 -8.8200992e-05 2.7347376e-05
0.082933784 -0.3151668 0.44466749 5.3755626e-05 -1 -8.4440995e-05 2.3490378e-05
-0.1574246 -0.29400179 0.44911659 -0.88209075 -0.30274805 -0.36091495 0.1133614
-0.16548687 -0.26566812 0.44901517 -0.93823773 -0.070203677 -0.33879405 0.071343057
-0.16205955 -0.25959766 0.4412843 -0.86535192 -0.060804117 -0.49746242 0.062847637
-0.15549606 -0.24377534 0.44443023 -0.85672998 -0.0045785257 -0.51574492 0.063617036
-0.15038492 -0.2380217 0.44065419 -0.82303011 0.022494208 -0.56755215 0.068774961
-0.16297342 -0.22037655 0.44210467 -0.90424836 -0.007126356 -0.42694744 0.077316925
-0.15368816 -0.22441033 0.44227535 -0.85187018 -0.032337323 -0.52275378 0.085326105
0.072800107 -0.22653246 0.44420934 0.92131954 0.04247326 -0.38647944 0.0011008051
-0.16386974 -0.20760718 0.44721442 -0.94983172 -0.024913371 -0.31176761 0.070906006
-0.1521768 -0.20963909 0.4422099 -0.84417766 -0.0063696164 -0.5360257 0.084733002
-0.14981663 -0.20281979 0.44119999 -0.84450781 -0.0040568821 -0.53552794 0.081101872
-0.16175181 -0.19646297 0.44939566 -0.96842355 -0.029054839 -0.24761209 0.066004045
-0.15650424 -0.19523756 0.44506088 -0.89880759 -0.011854231 -0.43818298 0.076391697
-0.16175665 -0.18063127 0.44889772 -0.91774702 -0.016259829 -0.39683247 0.072338648
-0.15266868 -0.18588774 0.44232899 -0.86218178 -0.020331347 -0.50619096 0.077223152
-0.14767878 -0.18864666 0.4405174 -0.8038764 -0.0046596206 -0.59477812 0.069747716
-0.16194603 -0.17585936 0.44695097 -0.9172135 -0.029904684 -0.39727208 0.069892541
-0.15508635 -0.15334827 0.44687107 -0.87457591 -0.060473748 -0.48110288 0.0741276
0.068741515 -0.1545722 0.44083092 0.93399924 0.028625226 -0.35612658 0.0020447902
0.070912793 -0.15557955 0.44848526 0.93790919 0.028066391 -0.34574354 0.0017993666
-0.16061772 -0.14941691 0.44622433 -0.8688032 -0.045726042 -0.49304172 0.077056579
0.070768058 -0.14042348 0.44747052 0.93294454 0.037410252 -0.35807124 0.0019909756
-0.1742876 -0.12371313 0.44965172 -0.92857164 -0.02048818 -0.37058741 0.0672113
-0.15355946 -0.12301256 0.44109559 -0.73335212 0.0023672788 -0.67984486 0.071137294
-0.15123998 -0.11167845 0.44294059 -0.6998409 -0.0040470017 -0.71428728 0.071102895
0.069175646 -0.11665645 0.44208756 0.93111646 0.027077274 -0.36371559 0.002917547
-0.15538689 -0.10762721 0.44506866 -0.76436484 0.013815263 -0.64463598 0.082476713
-0.16021276 -0.097266033 0.44829783 -0.8588652 0.032316703 -0.51118112 0.097328208
-0.1541485 -0.075207286 0.44460526 -0.73369014 0.16496117 -0.65915602 0.07481204
0.066360027 -0.076704703 0.4409211 0.91526854 0.22550815 -0.33381069 0.046017542
-0.15741053 -0.06478411 0.44271737 -0.74602163 0.24153042 -0.62057614 0.084916957
-0.16096514 -0.047675967 0.441953 -0.76632929 0.32748976 -0.55271143 0.090457484
-0.15651511 -0.034695961 0.44561735 -0.77934211 0.42295298 -0.46231663 0.093549788
-0.14276236 -0.035300642 0.44813043 -0.70834279 0.4409838 -0.55116588 0.10187379
0.069732562 -0.032173038 0.44861892 0.81040204 0.50764823 -0.29247531 0.078974336
0.071073785 -0.036154233 0.44818094 0.83426577 0.45562965 -0.31048718 0.077258877
-0.15585642 -0.022764852 0.44941702 -0.72690648 0.5662325 -0.38857156 0.095262349
-0.14138865 -0.021435564 0.44449306 -0.5788188 0.65646154 -0.48376343 0.096794263
-0.13708559 -0.022912843 0.44190174 -0.54995948 0.60132462 -0.57961476 0.09255106
0.062671468 -0.020121619 0.44361827 0.61593527 0.75580305 -0.22222845 0.083678864
-0.13006392 -0.019977454 0.44103721 -0.48928815 0.66665512 -0.56228822 0.093299262
-0.12461486 -0.018697474 0.44255686 -0.40335491 0.77806544 -0.48157972 0.092691384
-0.11950268 -0.019244745 0.4434734 -0.33955806 0.83814126 -0.42687193 0.090113148
-0.10179871 -0.018681826 0.44770315 -0.2405552 0.90668088 -0.34650096 0.082376145
-0.093742512 -0.018424707 0.44528469 -0.18321948 0.92220455 -0.34054253 0.072834164
-0.080077372 -0.017750125 0.44168589 -0.14489873 0.93009394 -0.33753473 0.07682956
-0.064528368 -0.017379085 0.44508624 -0.12825678 0.95594412 -0.26404732 0.066986822
-0.019410074 -0.01700129 0.44832098 -0.054763727 0.99006194 -0.12953129 0.018822957
0.02677899 -0.014523066 0.44404644 0.14439936 0.98262006 -0.1166474 0.041513197
0.03374999 -0.015972335 0.44543347 0.18533552 0.97607243 -0.11372484 0.049262635
0.061655521 -0.016144207 0.44490653 0.49702007 0.84840846 -0.1821375 0.07658162
-0.18187951 -0.31536832 0.45282122 -0.88803315 -0.3839336 -0.25296667 0.10845951
-0.17319261 -0.31506121 0.45501575 -0.82756519 -0.4909659 -0.27219176 0.11530486
-0.16575408 -0.31424302 0.45482704 -0.80684716 -0.5075739 -0.30226892 0.12045522
-0.15710291 -0.31241307 0.45611686 -0.77084231 -0.53839529 -0.34048888 0.12017021
-0.14078097 -0.31471521 0.45387971 -0.56395274 -0.72674727 -0.39216805 0.11841247
-0.13293515 -0.31499794 0.45709732 -0.35639068 -0.89408177 -0.27129978 0.10522372
-0.12522085 -0.31510991 0.45327839 -0.29777628 -0.90442121 -0.30553496 0.10393907
-0.1196994 -0.3151668 0.45309761 -0.22091165 -0.94263345 -0.25028029 0.079855949
-0.095275789 -0.3151668 0.45939547 -0.071901053 -0.98536396 -0.15455793 0.044586439
-0.047497869 -0.3151668 0.45303571 -0.055765111 -0.99716038 -0.05061182 0.036325417
-0.03975999 -0.3151668 0.45155081 -0.033851508 -0.99900025 -0.02919904 0.020748092
-0.023561565 -0.3151668 0.45496637 -0.0076091704 -0.9999395 -0.0079488512 0.0054019578
-0.01724517 -0.3151668 0.45150319 -0.0094524566 -0.99992675 -0.0075654299 0.0052807662
0.01560789 -0.3151668 0.45584744 -1.3117198e-08 -1 -8.6976332e-05 1.5346199e-05
0.025864799 -0.3151668 0.45350924 -6.0897255e-06 -1 -8.7263623e-05 1.6307567e-05
0.033587236 -0.3151668 0.45569181 -4.7249961e-07 -1 -6.8048314e-05 1.6355249e-05
0.064085357 -0.3151668 0.45605388 1.6406446e-05 -1 -6.1993858e-05 2.1616133e-05
0.07305032 -0.3151668 0.45393911 3.4760295e-05 -1 -8.1696642e-05 2.7673708e-05
-0.16646391 -0.26797807 0.45197624 -0.96157473 -0.082649902 -0.26180735 0.068171769
-0.16569477 -0.25384247 0.45661238 -0.97652107 -0.035352036 -0.21250176 0.04819987
-0.1623826 -0.24496701 0.45463493 -0.97849995 0.0054043797 -0.20617625 0.04625643
-0.16137759 -0.23551914 0.45852381 -0.97832042 0.024979532 -0.20558512 0.058603164
-0.15752891 -0.22596996 0.45860973 -0.9830516 0.012745836 -0.18288556 0.066530339
-0.16655569 -0.19329594 0.45648584 -0.98664755 -0.023022369 -0.16123472 0.061778177
-0.16367516 -0.18277039 0.45560727 -0.97442055 -0.027620416 -0.22302854 0.063051574
-0.16461357 -0.17023413 0.45720801 -0.97106326 -0.030511061 -0.23686552 0.058757681
-0.16105527 -0.1514636 0.45997778 -0.97572535 -0.048709717 -0.2135123 0.070501044
-0.15918446 -0.15082172 0.45647821 -0.93925345 -0.050065722 -0.33955336 0.07997229
-0.15868169 -0.14333981 0.45539349 -0.93672228 -0.037372004 -0.34807295 0.079184249
-0.16530313 -0.13619304 0.45876545 -0.97437859 0.0027250086 -0.22489768 0.070117086
-0.1731634 -0.12461157 0.45278788 -0.9341411 -0.016194176 -0.35653627 0.068281308
-0.16040626 -0.11201914 0.45482451 -0.93104208 0.039203167 -0.36280003 0.086996466
0.074580163 -0.1121781 0.451933 0.92926884 0.033675026 -0.36786619 0.0025035467
-0.16203828 -0.10731304 0.45734039 -0.9302851 0.063581511 -0.36128524 0.088673934
-0.15943374 -0.10266813 0.45011908 -0.87831855 0.046945088 -0.47576547 0.072913639
-0.16174242 -0.096982792 0.45394877 -0.89555782 0.048229598 -0.44232345 0.091536447
-0.16200751 -0.085148588 0.45429397 -0.89335436 0.12177774 -0.4325369 0.081816241
-0.16265915 -0.076732554 0.45523795 -0.92321908 0.18679473 -0.33581871 0.080959834
0.071562849 -0.074709214 0.45164877 0.90550417 0.26536515 -0.3311246 0.050328359
-0.16562009 -0.06670288 0.45520487 -0.92861587 0.2314018 -0.29004452 0.081228763
0.071081936 -0.069486357 0.4594512 0.88721949 0.29108271 -0.3579281 0.054842636
-0.16716614 -0.051988371 0.45261642 -0.91170192 0.29599014 -0.28493768 0.085627377
0.064556353 -0.059880715 0.45648178 0.88197625 0.34486499 -0.32122603 0.065357462
-0.16761029 -0.044721127 0.45801809 -0.92340112 0.33582902 -0.18587431 0.088797361
-0.16524126 -0.028300717 0.45527282 -0.84533972 0.47656751 -0.2414213 0.094828576
-0.15509766 -0.023816809 0.45013878 -0.72831899 0.56504577 -0.38765296 0.0953857
-0.14064242 -0.01698783 0.45764494 -0.50800794 0.82826757 -0.23643339 0.10041087
-0.13471174 -0.01675068 0.45524532 -0.45102134 0.83931863 -0.3035194 0.095208876
-0.12549226 -0.016663885 0.45300439 -0.34896779 0.89208668 -0.28705913 0.084009111
-0.11939514 -0.016411329 0.45282733 -0.30730847 0.90512037 -0.29380029 0.082067072
-0.094891801 -0.018387215 0.45951116 -0.17018872 0.95550674 -0.24092059 0.060927071
-0.047590114 -0.016864147 0.45333302 -0.083686441 0.98307866 -0.16295093 0.03556348
-0.03990512 -0.016855903 0.45166665 -0.085808903 0.98237258 -0.16607521 0.033908363
-0.022876427 -0.01692605 0.45476365 -0.051154472 0.99173778 -0.11764067 0.017743798
-0.017820338 -0.017470032 0.45149693 -0.044927336 0.9923408 -0.11507086 0.01660125
0.015683034 -0.017850488 0.45600212 0.10379161 0.99218047 -0.06932015 0.025025871
0.0258146 -0.016070623 0.45362338 0.13888961 0.98761636 -0.072963506 0.03411179
0.033538248 -0.015833855 0.45581427 0.16338329 0.98342496 -0.078620926 0.038263675
0.063455462 -0.01728726 0.45590159 0.51385701 0.84421951 -0.15246135 0.069063097
-0.17185093 -0.31474507 0.46441838 -0.88943589 -0.41902712 -0.18253781 0.11944328
-0.16630842 -0.31317949 0.46427578 -0.88112044 -0.42983317 -0.19715549 0.12179873
-0.15813303 -0.31227857 0.46628916 -0.87671 -0.45717609 -0.14956477 0.12368925
-0.14532241 -0.3143352 0.46808204 -0.6509515 -0.74565661 -0.142332 0.13990551
-0.13854814 -0.31475183 0.4664335 -0.48734277 -0.85600466 -0.17249084 0.12624216
-0.1039935 -0.3151668 0.46748951 -0.082607016 -0.99013025 -0.11321769 0.046445612
-0.094763368 -0.3151668 0.46398091 -0.06243705 -0.98770809 -0.14329831 0.042542513
-0.065007836 -0.3151668 0.46180958 -0.032721087 -0.99668229 -0.074523203 0.043158926
-0.056082159 -0.3151668 0.46340519 -0.028744586 -0.99854052 -0.045723058 0.027396753
-0.036012322 -0.3151668 0.4694213 1.82981e-05 -1 -6.9068563e-05 1.2695613e-05
-0.025670856 -0.3151668 0.46583849 1.3408608e-05 -1 -5.5445209e-05 1.4394747e-05
-0.016478738 -0.3151668 0.46396446 9.0737567e-06 -1 -4.1382358e-05 1.0529966e-05
0.046442691 -0.3151668 0.46733221 -1.973955e-06 -1 -5.5639361e-05 1.6840982e-05
0.054163929 -0.3151668 0.46255931 5.0694175e-06 -1 -7.0337039e-05 1.4952502e-05
0.068519287 -0.3151668 0.46319839 4.3163833e-05 -1 -4.6291712e-05 2.0230695e-05
0.074199319 -0.3151668 0.46407107 0.0002208604 -1 3.2655229e-05 2.4940906e-05
0.08851701 -0.3151668 0.4625521 0.00074184389 -0.99999976 0.00017352967 1.9596413e-05
-0.15900244 -0.29809058 0.46365264 -0.93586886 -0.31249484 -0.16277745 0.11282612
-0.16821495 -0.25614122 0.46694639 -0.99588078 -0.039114892 -0.081801444 0.047023948
-0.16540723 -0.24290819 0.46314007 -0.9912647 0.0203104 -0.13031404 0.039394423
-0.16618444 -0.23857875 0.46776077 -0.99748939 0.043549478 -0.055841986 0.038687441
-0.17039253 -0.19591735 0.46092716 -0.98988336 -0.026526278 -0.1393818 0.062026046
-0.16734654 -0.19553469 0.46098554 -0.98986113 -0.02628555 -0.13958497 0.061239451
-0.16541174 -0.17798258 0.46358773 -0.98863614 -0.03183762 -0.1469181 0.059229065
-0.16593459 -0.15139411 0.46865827 -0.99898273 -0.018744171 -0.04101513 0.055757962
-0.17035653 -0.14421046 0.46988103 -0.99991781 -0.0040221703 -0.012174912 0.052407488
-0.16822112 -0.14300615 0.46755308 -0.99906111 -0.0069947788 -0.04275436 0.053564966
-0.16759613 -0.13409506 0.4633874 -0.98849064 0.0056124097 -0.15117754 0.065249555
-0.16688617 -0.12794867 0.4649691 -0.98334342 0.018993253 -0.18076225 0.071709529
-0.15321797 -0.12788875 0.46503511 -0.97394443 0.035329927 -0.22401814 0.08435981
-0.16349195 -0.10302883 0.4640252 -0.94640905 0.052813664 -0.31862301 0.09197402
0.07834316 -0.10244977 0.46194032 0.92901963 0.029869333 -0.36882305 0.0022877678
-0.16479695 -0.093828097 0.46531889 -0.960751 0.071069047 -0.26815432 0.09548711
0.07500723 -0.093387172 0.4611702 0.92740589 0.064106263 -0.36852241 0.0049559702
-0.16498698 -0.085465588 0.46326777 -0.96745968 0.13396917 -0.21464857 0.078041948
-0.16642675 -0.066352397 0.4639743 -0.95200795 0.23159494 -0.20011163 0.074549884
-0.16448407 -0.045257077 0.46646035 -0.92682719 0.34006196 -0.15921414 0.085145071
0.074122749 -0.038969461 0.46843767 0.78761756 0.57033348 -0.23319148 0.080075637
-0.1679529 -0.026640316 0.46158993 -0.87230635 0.46197602 -0.1601871 0.091499858
0.005937099 -0.02044162 0.46085539 0.071436316 0.99494249 -0.070613749 0.015797533
0.068404913 -0.022484945 0.46500659 0.52671331 0.83464062 -0.1610845 0.067517295
-0.14588103 -0.014839042 0.46811134 -0.58152264 0.79673976 -0.16442983 0.10270211
-0.13901289 -0.015694162 0.46634623 -0.48816371 0.85383868 -0.18070868 0.099663235
-0.10418254 -0.01678363 0.46710059 -0.22889286 0.9566201 -0.18023899 0.061195284
-0.096564956 -0.018350033 0.4632946 -0.18752423 0.96000332 -0.20791435 0.06033919
-0.065216407 -0.015407328 0.46185526 -0.06818822 0.98128897 -0.18006171 0.04579784
-0.056007348 -0.016113961 0.46325868 -0.067399561 0.98863566 -0.13437605 0.031420387
-0.036041737 -0.015935455 0.46964118 -0.058420531 0.99505413 -0.080339454 0.012168659
-0.025737852 -0.016324509 0.46592289 -0.034653205 0.99656904 -0.075162128 0.0097822575
-0.016371639 -0.01767908 0.46393475 -0.023272667 0.99755287 -0.065929055 0.0071307276
0.046456408 -0.014961517 0.46734297 0.20051977 0.97625625 -0.081948459 0.043450713
0.054037031 -0.014332194 0.46274707 0.25419509 0.96169913 -0.10256542 0.051405549
0.067763031 -0.018433083 0.46408993 0.52829462 0.83527696 -0.15237232 0.066522896
-0.18050659 -0.31489888 0.47563607 -0.963624 -0.26628795 0.022793671 0.089114703
-0.17110033 -0.31447196 0.47644192 -0.91238528 -0.40711817 -0.042520627 0.1128591
-0.16792487 -0.31422207 0.47618958 -0.90896434 -0.41391861 -0.049550273 0.11543388
-0.15760788 -0.31345946 0.47409499 -0.86502916 -0.49388424 -0.088334426 0.12450919
-0.1458343 -0.31433675 0.47708577 -0.65376997 -0.75142163 -0.089165255 0.13397516
-0.045383751 -0.3151668 0.4701359 -0.012858248 -0.99981892 -0.014028588 0.0053392439
-0.031064929 -0.3151668 0.47875291 1.316238e-05 -1 -5.80987e-05 1.7234315e-05
-0.01795429 -0.3151668 0.4780038 9.0070498e-06 -1 -7.2913055e-05 1.7461678e-05
0.05978344 -0.3151668 0.4728525 0.00014923047 -1 2.0412119e-05 1.2654541e-05
0.063071705 -0.3151668 0.4769882 0.00050821895 -0.99999988 0.0001077859 1.8901279e-05
0.075928785 -0.3151668 0.47547618 0.018452195 -0.9998197 0.0044793277 0.0015656267
0.084829509 -0.3151668 0.47151271 0.020878648 -0.99977255 0.0043532555 0.0018531261
-0.16857906 -0.24533634 0.47081831 -0.99828106 0.0074118869 -0.05813897 0.03850536
-0.16667259 -0.23356466 0.47655046 -0.99989998 0.012547481 0.006523449 0.048296738
-0.16323049 -0.20567951 0.47847411 -0.99980897 -0.016385108 0.010658639 0.050262291
-0.16469836 -0.18184328 0.47478771 -0.99941665 -0.034082193 0.0021883855 0.052201174
-0.16571014 -0.17527854 0.47638148 -0.99854189 -0.018171052 0.050832037 0.041430391
-0.1653907 -0.16571882 0.47508153 -0.99926108 -0.0023035593 0.038366877 0.045363829
-0.16931929 -0.14828737 0.47045079 -0.99991542 -0.0030764402 0.012639079 0.048610754
-0.16958252 -0.13945481 0.47368389 -0.99960405 0.0049133231 0.027705083 0.050525285
-0.16765639 -0.12386923 0.47986782 -0.99660742 0.038576171 0.072701357 0.04686074
-0.16521499 -0.1112053 0.47145671 -0.98896098 0.042355828 -0.14199367 0.08713223
-0.16445276 -0.10810103 0.47407201 -0.99470085 0.071278103 -0.074092843 0.08159893
-0.16539398 -0.093342215 0.47436473 -0.9936372 0.090561219 -0.066961028 0.083509117
0.082831137 -0.089812659 0.47311211 0.92297381 0.08842732 -0.37456641 0.0054419143
-0.18067349 -0.02267516 0.47556451 -0.91771221 0.39724284 0.0015821459 0.062906943
0.074312016 -0.02616886 0.47221673 0.59394389 0.78517288 -0.17531186 0.074140266
-0.17001222 -0.019916201 0.4765372 -0.86486804 0.49888664 -0.055816647 0.079040468
-0.15917882 -0.016830267 0.47908685 -0.80823451 0.58856601 -0.0186307 0.089571089
-0.14376557 -0.014582949 0.47393394 -0.54806679 0.82776809 -0.12009478 0.096450701
-0.04548623 -0.016008383 0.47010031 -0.069758788 0.99208969 -0.10436377 0.020541565
-0.031039577 -0.015050034 0.47874141 -0.011173424 0.99933362 -0.034749761 0.00042355881
-0.018608069 -0.016563402 0.47798234 -0.0072522215 0.99944532 -0.032503877 0.00062428968
0.05938356 -0.01534874 0.47317484 0.32679108 0.93885058 -0.10847708 0.057054382
0.062551953 -0.015732897 0.477074 0.36691183 0.92284328 -0.11720087 0.062008038
-0.17218344 -0.31458157 0.48375493 -0.95032018 -0.30454645 0.064366795 0.09499412
-0.1658795 -0.31452689 0.4867917 -0.93213844 -0.35678196 0.061842736 0.10604525
-0.15557498 -0.31424814 0.48301673 -0.8637411 -0.50313896 0.02832903 0.13061094
-0.14343053 -0.31488621 0.48609912 -0.72084701 -0.6928308 0.01910542 0.13354249
-0.1340581 -0.31503528 0.48600793 -0.46505463 -0.88501287 -0.021826521 0.12412667
-0.062851131 -0.3151668 0.48404115 -0.00057616382 -0.99999982 0.00024672842 2.6676073e-05
-0.056136463 -0.3151668 0.48893824 -0.00018209647 -1 5.093003e-05 1.8159239e-05
-0.02834304 -0.3151668 0.48362049 9.1773982e-06 -1 -6.3629137e-05 1.7311642e-05
0.03470308 -0.3151668 0.48909381 1.8686274e-05 -1 -5.8044268e-05 1.1625315e-05
0.043779727 -0.3151668 0.48588094 0.00011422162 -1 -1.2083936e-05 1.1904876e-05
0.051339671 -0.3151668 0.48685071 0.0003392529 -0.99999994 9.2687951e-05 1.2391725e-05
0.077993423 -0.3151668 0.4837701 0.017438781 -0.99983841 0.004378872 0.0016723174
0.083695248 -0.3151668 0.48437214 0.031510621 -0.99946302 0.0089934357 0.003789216
-0.1714074 -0.26543111 0.48119971 -0.99696738 -0.062568858 0.046273295 0.04525036
-0.17060113 -0.23426536 0.48068056 -0.99983299 0.0089597739 0.015928816 0.050405879
-0.16713648 -0.23304842 0.48117301 -0.9995721 -0.0027379401 0.029123604 0.050020196
-0.17433579 -0.22849613 0.48408431 -0.99584287 -0.0020737299 0.091064408 0.037542153
-0.15296879 -0.22381912 0.48164567 -0.9998185 -0.0019512881 0.018950783 0.049894128
-0.16243719 -0.20215946 0.4866986 -0.99236178 -0.014142333 0.12254822 0.042114649
-0.15027627 -0.15858172 0.48793048 -0.98990393 0.02333281 0.1398067 0.041331887
-0.16668673 -0.12056551 0.48400232 -0.9938339 0.035978541 0.10487987 0.044927057
0.080903322 -0.1200402 0.4839617 0.92268193 0.03246557 -0.38419273 0.0016284848
-0.14686784 -0.10454192 0.4801642 -0.99533236 0.095903285 0.010773983 0.081198633
0.083680548 -0.10480019 0.48907164 0.91886109 0.040057562 -0.39254269 0.0013041907
-0.16038382 -0.099804528 0.48110941 -0.99771035 0.067629583 -0.0005491575 0.077622056
0.084594794 -0.07249108 0.48176765 0.91485232 0.23893681 -0.32550639 0.042528041
0.082621075 -0.053634718 0.4816162 0.8432098 0.44178849 -0.30630082 0.074049786
-0.1674953 -0.044964939 0.48150501 -0.94591409 0.3244147 -0.0013008537 0.063893244
0.084465347 -0.033578902 0.48834011 0.70500839 0.66208577 -0.2541765 0.081795715
-0.14206603 -0.029005723 0.48739272 -0.74334615 0.66890007 0.0030364958 0.093284391
0.080323711 -0.027419204 0.48242721 0.67510015 0.69988006 -0.23325473 0.086896971
-0.14058821 -0.018866956 0.48492834 -0.59596455 0.80252558 -0.027909158 0.087585926
-0.13662525 -0.010787569 0.48600757 -0.43872312 0.89840329 -0.019839596 0.069112666
-0.062921673 -0.014697615 0.4835901 -0.034102626 0.99658346 -0.07522209 0.0090717906
-0.055985734 -0.013440675 0.48929521 -0.022755232 0.99885863 -0.041996062 0.0029312123
-0.028271228 -0.014275436 0.48360813 -0.0085857185 0.99954838 -0.028800497 0.00059005449
0.034613863 -0.015288677 0.48896825 0.13865016 0.98665804 -0.085335091 0.032934789
0.043694776 -0.014386345 0.48627195 0.18968968 0.9769491 -0.097920015 0.041283697
0.05136184 -0.013856053 0.48729196 0.22050108 0.9693194 -0.10862442 0.048829094
0.076727957 -0.01773566 0.48352653 0.47782087 0.85614181 -0.19674449 0.069387488
-0.13520455 -0.005657576 0.48871389 -0.35756153 0.93381882 0.011495739 0.053873021
-0.16629727 -0.31239676 0.49369368 -0.94059151 -0.2941817 0.16954263 0.090497792
-0.15730323 -0.31410217 0.4969033 -0.85064924 -0.49529046 0.17630447 0.11166133
-0.13695428 -0.31528649 0.4960086 -0.46485972 -0.8819676 0.077708684 0.12012914
-0.086362511 -0.3151668 0.498117 -0.031914338 -0.99929726 0.019658873 0.0091881333
-0.071260661 -0.3151668 0.49484128 -0.0034757357 -0.99999255 0.0016865273 3.1891897e-05
-0.058129057 -0.3151668 0.4929767 -0.00052450551 -0.99999988 0.00025598728 1.4730511e-05
-0.01658529 -0.3151668 0.49897161 -1.4457418e-06 -1 -9.5136158e-05 2.1925418e-05
0.042638317 -0.3151668 0.49343351 0.00011010731 -1 9.9019271e-06 1.192463e-05
0.052912209 -0.3151668 0.49033019 0.00065046293 -0.99999976 0.00027512209 2.3465938e-05
0.074701399 -0.3151668 0.49268869 0.025306487 -0.99964076 0.0088311601 0.0031347885
0.087251693 -0.3151668 0.49323785 0.031292412 -0.99948263 0.0074352087 0.0037998441
