# .PCD v0.7 - Point Cloud Data file format
VERSION 0.7
FIELDS x y z
SIZE 4 4 4
TYPE F F F
COUNT 1 1 1
WIDTH 1407
HEIGHT 1
VIEWPOINT 0 0 0 1 0 0 0
POINTS 1407
DATA ascii
-0.1034499 -0.29723141 0.50839847
-0.1005784 -0.2965773 0.50173712
-0.098593503 -0.24134821 0.50634491
-0.1016171 -0.19285581 0.49614409
-0.1048805 -0.2078578 0.50145549
-0.06817475 -0.004276678 0.48412949
-0.027597191 -0.01517597 0.4791292
0.1084127 -0.0077091311 0.52016091
0.064397871 0.00143747 0.5632593
0.0167934 -0.01135924 0.4505899
0.0066928859 -0.0091768354 0.50866538
-0.034983721 -0.01310232 0.40803069
0.15557259 -0.01842713 0.4571493
-0.1239411 -0.29679731 0.35256511
-0.1002946 -0.027122829 0.4812862
-0.1013894 -0.049729958 0.4907994
-0.07501334 -0.0093334466 0.48541531
0.01424807 -0.0087821335 0.4983843
0.012355 -0.0074177091 0.50412869
-0.051438931 -0.0043588132 0.50569969
0.01161611 -0.02119856 0.34679341
-0.1022048 -0.1422721 0.49593991
-0.1056683 -0.26482639 0.50703353
0.138798 -0.0127039 0.51099062
0.12610421 -0.016171839 0.4567827
-0.1019076 -0.076270618 0.48913279
-0.099118382 -0.1669116 0.48590791
0.01385671 -0.01087594 0.4618046
-0.1235828 -0.2938104 0.35634649
-0.09732756 -0.027198579 0.48036331
0.01123729 -0.01405939 0.4200615
-0.01277393 -0.004675969 0.52246672
-0.1011 -0.1407526 0.49228191
-0.1535859 -0.29701859 0.41186589
-0.103074 -0.29694891 0.3335776
-0.033519391 -0.01327129 0.40767899
0.0036817789 -0.1077286 0.55800158
-0.1051886 -0.29155421 0.3466554
-0.1039844 -0.2956036 0.33934
-0.1220098 -0.29445481 0.36549729
-0.079126753 -0.29636461 0.45717981
-0.1024236 -0.2803708 0.49629039
-0.094735026 -0.28680369 0.33547941
-0.0540387 -0.29586759 0.40563151
-0.1391073 -0.2945177 0.38960361
-0.095469393 -0.29693899 0.472123
-0.064375013 -0.259599 0.4312267
-0.0503636 -0.2693662 0.4061327
-0.1108417 -0.29332939 0.3568916
-0.07990554 -0.1551909 0.4572655
-0.088247843 -0.29470161 0.31988871
-0.079204619 -0.2374184 0.44720739
-0.1037 -0.29346699 0.36930659
0.0077282488 -0.26197201 0.3160429
-0.02162585 -0.25884789 0.35767049
0.16765741 -0.02144945 0.45984739
-0.092740543 -0.293282 0.4792546
-0.078996837 -0.29484701 0.29059371
-0.087106347 -0.2967113 0.46789631
-0.053076979 -0.02031989 0.407184
0.081458747 -0.01153825 0.487196
0.086167753 -0.01160119 0.426373
-0.097665459 -0.235083 0.49938601
-0.065729856 -0.0046185548 0.4920693
-0.063170701 -0.2592254 0.42769539
-0.04763341 -0.25537869 0.39203781
-0.073751301 -0.1511112 0.43001401
-0.052370701 -0.01644735 0.40484369
0.1401923 -0.020027241 0.3770211
0.095555194 -0.019895 0.39091799
0.068395726 -0.004106387 0.57815671
0.079023242 -0.01008648 0.53415507
-0.01500064 -0.2839894 0.35053861
-0.03337035 -0.0081937313 0.45793879
-0.079789609 -0.1305441 0.4447079
-0.04133755 -0.02007613 0.3850826
-0.03735888 -0.2165716 0.37977481
-0.022464329 -0.2185439 0.35447699
-0.04385978 -0.1767164 0.38678899
-0.1018268 -0.1734532 0.49023679
-0.04439649 -0.16809 0.3882772
-0.07657811 -0.006870463 0.4936527
-0.017459391 -0.1765856 0.3505179
0.096644342 -0.01494499 0.43177059
-0.053254042 -0.2579436 0.40167421
-0.097284287 -0.2955789 0.32949439
-0.089605033 -0.2204821 0.47015601
-0.067102581 -0.01101878 0.43193191
-0.041356981 -0.02298009 0.38487831
-0.03529552 -0.1496508 0.37231871
-0.084277064 -0.15642899 0.4587833
-0.05913106 -0.20360731 0.41903529
-0.065633297 -0.0099360636 0.47610161
0.034277558 -0.018077981 0.38034141
0.01374793 -0.02001537 0.36187649
0.067503452 -0.0053719878 0.54377818
0.1034532 -0.0099305212 0.52800852
0.1028306 -0.0085832775 0.53874302
0.18897229 -0.024008449 0.4075242
0.060056329 -0.020538909 0.37891191
0.02325568 -0.01443663 0.44981989
0.075381041 -0.020964131 0.35403639
-0.025734309 -0.01744725 0.37277251
-0.0150165 -0.017431989 0.39669049
0.0047215819 -0.003592551 0.52689409
0.04871938 -0.006632566 0.52621973
0.038481589 -0.0085708648 0.52887452
0.0089635253 -0.0083045214 0.47770101
-0.087771147 -0.25182679 0.46530429
-0.07152316 -0.25042531 0.43810469
0.080138028 -0.0095725209 0.521963
-0.08945477 -0.2236644 0.46762469
0.02956867 -0.026160199 0.31917021
-0.01321369 -0.25326571 0.33360589
-0.042218771 -0.0024921449 0.50618488
-0.088133961 -0.1263964 0.47027099
-0.009033978 -0.028706269 0.3352077
-0.01775289 -0.18545841 0.34748909
-0.097926408 -0.1652552 0.47391769
0.00081151718 -0.02589808 0.31071121
-0.08747834 -0.16341241 0.4694742
-0.05746391 -0.20142519 0.41539159
-0.096784383 -0.1621823 0.4772729
-0.083848149 -0.17028821 0.45901939
0.080968857 -0.020094421 0.36443031
0.127342 -0.0167426 0.4735584
0.030252749 -0.01593085 0.42274261
-0.078135341 -0.26060471 0.45147711
-0.090139627 -0.29148349 0.3271015
-0.09800154 -0.15498669 0.50535423
-0.087557733 -0.13766789 0.50423777
-0.1057898 -0.2640318 0.5047127
-0.066292353 -0.1031016 0.42904609
-0.088645071 -0.04693513 0.46262929
0.05985111 -0.02334683 0.32481709
-0.0059256549 -0.0151473 0.4001883
-0.028212611 -0.017842339 0.3867673
-0.071941912 -0.25376469 0.4444257
-0.052301291 -0.25963801 0.40508941
-0.052456859 -0.28996679 0.4129895
-0.062746383 -0.26613131 0.42051461
-0.02911496 -0.022380009 0.36592019
0.043036882 -0.022547681 0.31644431
0.04273307 -0.004266426 0.56379932
0.080108114 -0.02098459 0.34050021
0.1760357 -0.019734651 0.4514271
-0.1014379 -0.25320271 0.51543558
-0.05616143 -0.28088641 0.4176724
-0.054502841 -0.23378751 0.40984899
0.0046932101 -0.01320438 0.41249451
0.1048056 -0.0250406 0.44786751
-0.01453865 -0.0073878909 0.48267099
0.092077367 -0.020529291 0.35690051
0.1236157 -0.02577059 0.35628259
0.003483474 -0.01333149 0.41157359
0.031622831 -0.01858197 0.3607358
-0.0066540842 -0.017412471 0.37403959
0.1169686 -0.020537291 0.37413451
-0.096581191 -0.22232731 0.51358891
0.002029717 -0.01265365 0.50917482
-0.058504969 -0.02487262 0.40661329
-0.046949599 -0.17789391 0.38766801
0.090976663 -0.075467631 0.59932172
-0.1084382 -0.29550281 0.35017809
-0.095234007 -0.29052669 0.48315391
0.079734497 -0.0131287 0.34035251
-0.074753113 -0.2943891 0.283283
-0.04014039 -0.01435824 0.39183411
0.0047797561 -0.022951201 0.3548848
-0.087458909 -0.2137008 0.46597561
-0.03202492 -0.1174479 0.36289069
-0.02729499 -0.1247507 0.36575219
-0.079875052 -0.28750399 0.46311051
-0.1047232 -0.1978579 0.50648707
-0.096262217 -0.14907929 0.4879466
0.01313365 -0.02264443 0.3464579
-0.003647506 -0.016661899 0.40009129
0.1998547 -0.02394587 0.40341389
0.0080248713 -0.194148 0.30771679
0.0089892754 -0.2296136 0.3121036
-0.02136278 -0.2572872 0.35506469
-0.092642426 -0.28879181 0.32515901
0.0083140125 -0.2608223 0.3135055
0.01511058 -0.01038587 0.47984871
0.1356975 -0.0109386 0.50767082
-0.0087651014 -0.01052464 0.47164819
0.01139796 -0.0084358901 0.50140637
0.01844177 -0.01062024 0.46349341
-0.01410839 -0.0071106032 0.4972541
-0.095101893 -0.1455514 0.49627191
-0.1044007 -0.16586269 0.49616721
-0.1035213 -0.26824379 0.50773787
-0.1049866 -0.20867141 0.50314093
-0.1029646 -0.1822789 0.50846589
-0.1040556 -0.25503099 0.51812589
-0.1032367 -0.14409301 0.4972201
-0.1066671 -0.1984762 0.50817668
-0.1050607 -0.19870619 0.50629568
-0.093055129 -0.2943677 0.478587
-0.1045109 -0.111032 0.48992819
-0.065920979 -0.29686469 0.43038699
-0.100367 -0.2792961 0.4947308
-0.078059733 -0.2626698 0.4525241
-0.066477418 -0.25735459 0.4282493
-0.098728687 -0.1681426 0.48617241
-0.090523332 -0.2212979 0.46865079
-0.076139838 -0.2415144 0.44899961
-0.101924 -0.28361699 0.49630219
-0.048124161 -0.26204869 0.40304121
-0.082031429 -0.155046 0.4572863
-0.060203191 -0.26233709 0.40234941
-0.020595221 -0.27868959 0.35061079
0.055992991 -0.0032932011 0.57017922
-0.043196771 -0.1822648 0.38863659
-0.089523733 -0.1070905 0.4719986
-0.060467541 -0.1078808 0.43321511
-0.083264261 -0.08980839 0.44947681
-0.05994517 -0.2053699 0.42001319
0.001594961 -0.2592319 0.3168512
-0.08935225 -0.22639731 0.46678621
-0.1000235 -0.1753855 0.49160579
-0.06502834 -0.1609266 0.43479839
-0.04194665 -0.1697467 0.3886866
-0.063723207 -0.1219711 0.42271721
-0.082296729 -0.21837831 0.46815461
-0.047684401 -0.110895 0.4048357
-0.039561778 -0.1296311 0.38657051
-0.095194519 -0.1671356 0.4758043
-0.094781697 -0.1491134 0.47763509
-0.085748523 -0.1707073 0.45688891
-0.052779671 -0.1493493 0.401216
-0.070936322 -0.1911539 0.43603781
-0.04141942 -0.132963 0.38688251
-0.06142712 -0.086661458 0.42367709
-0.073818088 -0.295596 0.30111909
-0.050378021 -0.1099227 0.40790191
-0.031896979 -0.1527877 0.37177151
-0.083888888 -0.1135395 0.4461453
-0.024259269 -0.21801279 0.3529053
-0.05131856 -0.29369089 0.41275409
-0.096044332 -0.2933265 0.36676261
-0.048384991 -0.25170609 0.40583429
-0.082141757 -0.114485 0.44987151
-0.1006101 -0.29575759 0.36910999
-0.098796867 -0.22339649 0.49672621
0.0032276809 -0.1710657 0.31929359
-0.099143952 -0.20682199 0.4888345
-0.05271247 -0.25139549 0.4107109
-0.080075353 -0.25656641 0.45642939
-0.072038382 -0.29484749 0.26428911
-0.081142344 -0.28779879 0.46220019
-0.097842313 -0.1930007 0.48528391
-0.007281363 -0.2453222 0.31870589
-0.04008716 -0.1810126 0.3757225
-0.01185754 -0.27338859 0.33646119
-0.085431397 -0.26546681 0.456337
-0.087199688 -0.22565161 0.4611139
-0.092411399 -0.2137827 0.47923541
0.0028938949 -0.0306143 0.30912769
-0.01325628 -0.02756542 0.3334907
0.004466265 -0.0280695 0.31069759
-0.096476138 -0.027822729 0.48242831
0.0056863129 -0.01542612 0.41108191
-0.05539909 -0.01912149 0.40445289
-0.029578891 -0.01255423 0.4788667
-0.04215309 -0.02225437 0.38414711
-0.1008387 -0.077761069 0.48957041
-0.035195049 -0.1191459 0.36257049
-0.022352161 -0.03693299 0.33635131
-0.090470023 -0.066716492 0.46390399
-0.01435432 -0.1069202 0.3393127
-0.001391947 -0.15932269 0.30873549
0.1029653 -0.018039409 0.4324578
0.009666115 -0.036830261 0.2942462
-0.043477152 -0.26050329 0.39328799
0.08425197 -0.01148596 0.49027729
-0.079329342 -0.0098237023 0.49034181
-0.047460049 -0.01483449 0.42212471
0.04097769 -0.0099612772 0.5010463
-0.03821468 -0.0033801941 0.4811542
-0.1068078 -0.1884504 0.49873689
-0.105236 -0.18872631 0.49569729
-0.1062945 -0.1602957 0.49668831
-0.1094914 -0.22710291 0.50305408
-0.106863 -0.21721131 0.51093978
-0.076658189 -0.26280001 0.4504565
-0.064821839 -0.25815779 0.425854
0.015752049 -0.024711151 0.33462319
-0.032041252 -0.26353499 0.37507251
-0.0924519 -0.08834973 0.48778531
-0.1041805 -0.190753 0.4915567
-0.066602767 -0.2569038 0.43962479
-0.084738337 -0.1591361 0.4602336
-0.060549021 -0.086024821 0.42065379
-0.037733998 -0.02248502 0.38576609
-0.068342 -0.16067789 0.4363735
0.023728371 -0.0057160999 0.54796761
-0.076079607 -0.053367902 0.44251201
-0.078406073 -0.087854221 0.45108601
-0.031802092 -0.1176088 0.36266989
-0.039128989 -0.29217431 0.3898899
-0.018641651 -0.1862182 0.34646991
-0.059068952 -0.2008702 0.41464499
-0.09461835 -0.2071891 0.48416609
-0.087259322 -0.1322547 0.46694621
-0.071760863 -0.061774671 0.44249129
-0.052607331 -0.1507645 0.40597841
-0.085591108 -0.09385246 0.46655059
-0.08358717 -0.078598887 0.45233479
-0.1330566 -0.29526761 0.40709549
-0.077014707 -0.090472788 0.44542471
-0.083069652 -0.046448309 0.45712799
-0.084556878 -0.25697601 0.4685609
-0.069285691 -0.1238129 0.43372589
-0.061713699 -0.2678847 0.42115799
-0.083482437 -0.20074239 0.46388981
-0.02943176 -0.0057278569 0.4864848
0.067593008 -0.02019191 0.37757459
0.0095960796 -0.023331109 0.33209351
0.093825549 -0.02550262 0.33973339
0.02382097 -0.024403101 0.3919234
0.026529159 -0.02087608 0.39147201
0.056081802 -0.01563355 0.3545346
-0.0001041591 -0.015867081 0.3719351
0.036276668 -0.01423791 0.40627009
0.00098034739 -0.02923939 0.28314579
0.0056204498 -0.03061703 0.3083168
0.028978109 -0.073869564 0.3002167
0.03257918 -0.1210065 0.3127251
0.024742041 -0.03024533 0.29938799
-0.01791447 -0.25982741 0.35556999
-0.022889821 -0.017081499 0.42780411
-0.059316128 -0.0076341331 0.48978049
-0.03042781 -0.018506469 0.44818079
-0.01166302 -0.021849319 0.38061041
-0.03191283 -0.01244389 0.4355647
-0.046031151 -0.01085165 0.48559329
-0.034405109 -0.0112876 0.44875109
-0.006047308 -0.0098468363 0.47101671
-0.067748807 -0.0040853922 0.48708379
-0.05720463 -0.2685926 0.4340212
-0.082308561 -0.23251539 0.48020411
-0.051382121 -0.2609137 0.40187669
-0.04734683 -0.26378921 0.40174541
-0.070621312 -0.24804629 0.4529447
-0.03044227 -0.1239992 0.36526161
-0.054309249 -0.20713811 0.419157
-0.071151048 -0.1669026 0.4683868
-0.077748209 -0.1667541 0.4668653
-0.03312853 -0.01356119 0.47349051
-0.044453468 -0.1455691 0.38542461
-0.058276799 -0.26862991 0.43811569
-0.05230844 -0.02142692 0.40756729
-0.075465292 -0.2417818 0.48375899
-0.052356299 -0.0052266871 0.46583661
-0.085053273 -0.2376761 0.45729309
0.008453697 -0.1566578 0.30090711
-0.051033471 -0.01700142 0.40425801
0.0093873739 -0.2291104 0.31277019
-0.01492116 -0.17631111 0.35128751
0.1560066 -0.017430371 0.45726901
0.097644687 -0.020829311 0.3737047
0.15618999 -0.02184662 0.39614701
0.20333409 -0.02518216 0.40373591
0.053287771 -0.02550937 0.31502011
-0.0048535471 -0.02997731 0.33233339
0.002627671 -0.028900949 0.31900269
0.1510116 -0.02436596 0.37829939
-0.1005708 -0.20884261 0.50049841
0.02577409 -0.01145566 0.44384041
-0.096073031 -0.19493429 0.49566051
-0.09546414 -0.27200729 0.50829422
-0.094513513 -0.2442556 0.50642091
-0.094736919 -0.28382441 0.49530059
-0.083927557 -0.2259094 0.46649081
0.0169321 -0.01043686 0.4775565
-0.082545131 -0.16666991 0.47146061
-0.079275191 -0.17130449 0.45830539
-0.049376979 -0.018338529 0.4046903
-0.050648689 -0.019896669 0.40367839
0.038070738 -0.01093483 0.4696604
-0.035270181 -0.01162055 0.44660991
0.046020061 -0.024135649 0.3590627
0.062968053 -0.01420708 0.45094389
0.00068262219 -0.01298016 0.47265011
0.047706101 -0.01168492 0.50478399
-0.024315661 -0.0082391649 0.48679841
-0.078371003 -0.15394519 0.45460981
-0.067792714 -0.01366857 0.4280673
-0.016504209 -0.024728 0.34605911
-0.096036047 -0.27595079 0.51374662
-0.104426 -0.20266519 0.50189751
-0.097340137 -0.2383811 0.50874108
-0.093670949 -0.28357339 0.49562421
-0.04975101 -0.028271681 0.4076432
-0.071970701 -0.18756559 0.4569878
-0.019248931 -0.01093161 0.48266429
-0.05224818 -0.15004431 0.40204421
0.049947958 -0.021863701 0.35439569
0.1703815 -0.021359259 0.40639779
0.079271227 -0.02187453 0.35172921
0.1622176 -0.025660049 0.39897591
0.076727003 -0.01409873 0.4646042
0.022785369 -0.01069072 0.46653959
0.135148 -0.02420716 0.37265399
0.0103288 -0.01062727 0.41908509
0.0201526 -0.0234502 0.3649061
0.01417509 -0.02122334 0.34251699
-0.03744654 -0.0159338 0.40358871
0.0047458629 -0.024864409 0.34428191
-0.0003506988 -0.020379219 0.3265928
0.005387601 -0.03024542 0.30827829
-0.0091907643 -0.02754092 0.33325779
-0.023792651 -0.0268279 0.36583179
0.01226681 -0.230574 0.3120192
0.01051593 -0.26267159 0.31443259
-0.016288791 -0.03791872 0.33519241
0.006166955 -0.025670741 0.31434709
0.067108013 -0.001912475 0.57001591
0.094332553 -0.0031628611 0.58939391
-0.0218361 -0.01405731 0.47842169
-0.095693558 -0.1731718 0.49754229
-0.094365843 -0.14649209 0.4944264
-0.096206747 -0.1454896 0.49774101
-0.0057376921 -0.25840029 0.33323371
-0.079982921 -0.28159589 0.46490109
0.072287172 -0.017459029 0.38467169
-0.05783103 -0.085661829 0.41845751
0.15942781 -0.020943429 0.4163518
-0.060327981 -0.1222086 0.42077029
-0.06150572 -0.159685 0.4332087
-0.094489753 -0.1605791 0.4861407
0.007295683 -0.1722175 0.31341401
-0.089920066 -0.1699525 0.47454289
-0.01104523 -0.1073048 0.33705941
-0.064430952 -0.1610793 0.43533161
-0.001223505 -0.16153421 0.31948781
0.0033884351 -0.1704347 0.31746301
-0.090640143 -0.16638391 0.47545499
0.004512548 -0.1623197 0.30670249
0.0047665238 -0.16216139 0.31420019
-0.006099164 -0.2424387 0.33135891
0.01130037 -0.28876859 0.3223964
0.037172291 -0.022047181 0.33234191
0.089244343 -0.017504141 0.36735561
0.1552515 -0.016195981 0.45268691
0.1759062 -0.017451851 0.44107059
0.062832028 -0.01769319 0.3933048
0.055528551 -0.01238593 0.4580915
0.1357338 -0.017378939 0.4713383
0.079932183 -0.01401772 0.3893424
0.1763169 -0.020500761 0.40582031
0.1153486 -0.02318679 0.3633883
0.107799 -0.021726189 0.4131873
0.090052992 -0.017874351 0.4479647
0.1782542 -0.02114463 0.41914439
-0.022248119 -0.016027961 0.42319849
0.036426868 -0.017179441 0.42411339
-0.01359865 -0.01732124 0.3944633
-0.01555818 -0.019468591 0.3761673
0.01503691 -0.018874589 0.4119066
0.067346007 -0.020181481 0.3737295
0.04619199 -0.0220173 0.37954241
0.01779178 -0.01961929 0.3834298
0.025402751 -0.022062451 0.35489219
0.0087000132 -0.01915535 0.38760751
-0.0050279801 -0.019419599 0.37186971
-0.02486546 -0.01779354 0.36778799
-0.037528511 -0.02053009 0.3826955
-0.037497919 -0.023115961 0.3823328
-0.0060486938 -0.01575214 0.40508589
0.00410293 -0.018398359 0.40008879
0.026389031 -0.016080599 0.39490119
0.01433527 -0.025130911 0.30715331
0.02636862 -0.01148455 0.3956922
-0.025919661 -0.02243185 0.36307219
-0.01738042 -0.26060089 0.35565031
0.1024881 -0.01096901 0.5510844
0.0885396 -0.005555972 0.57727128
0.097977944 -0.0029281969 0.56817073
-0.033007499 -0.01324829 0.42271021
-0.04512557 -0.0094480664 0.4814133
-0.050467879 -0.01175319 0.41676509
-0.0922869 -0.088509351 0.48785001
-0.04341593 -0.01263949 0.44429791
-0.072272629 -0.2420861 0.4480918
-0.072505377 -0.26511219 0.4523437
0.1753749 -0.025164111 0.39249641
0.052092191 -0.01484039 0.4156934
-0.0070012808 -0.034649979 0.33204249
-0.01526222 -0.1730444 0.34933099
-0.046283539 -0.17904679 0.38339549
-0.03915599 -0.15017679 0.38603961
-0.049211401 -0.1787411 0.409693
-0.082411811 -0.04990837 0.4612911
-0.062537007 -0.25786251 0.42663571
-0.044667289 -0.26473519 0.40195531
-0.029720221 -0.1211774 0.36169669
-0.052265301 -0.2099666 0.42240161
-0.04660188 -0.26439929 0.40499389
-0.0043193852 -0.25790229 0.32898861
-0.028247129 -0.1529299 0.36991689
0.068138152 -0.017230211 0.42030349
-0.0288685 -0.1530409 0.37273011
-0.01354669 -0.1870196 0.34509769
-0.017705919 -0.03661589 0.3364349
-0.04016402 -0.1698954 0.38624939
-0.035563748 -0.1344851 0.3864843
-0.035130691 -0.1291642 0.3850798
0.0059981942 -0.068765067 0.30796251
-0.044927839 -0.1098779 0.40275899
-0.070704393 -0.050373241 0.4411231
-0.04778704 -0.1099792 0.40605631
-0.04693076 -0.070658073 0.4023554
-0.052884609 -0.044300292 0.41172341
-0.092395566 -0.015956329 0.47618619
0.1484991 -0.02063589 0.4001222
0.067522168 -0.015648499 0.40513021
0.085147023 -0.02116172 0.3719627
0.01018722 -0.02569906 0.3109583
0.01092872 -0.02358127 0.31917399
-0.042448878 -0.25614399 0.38873449
0.0611009 -0.01117416 0.53046471
0.06131747 -0.0096428096 0.51355761
0.067504823 -0.01152964 0.47384721
0.054663211 -0.0083324164 0.4879359
0.005799457 -0.0064469869 0.50618511
-0.01391293 -0.01452829 0.4247508
-0.097597837 -0.24833611 0.50740749
-0.057978299 -0.01291479 0.4175002
-0.080144353 -0.2853145 0.4640719
-0.05312464 -0.28156441 0.41552529
-0.081543028 -0.1573682 0.45723271
0.02288973 -0.22004341 0.30933201
-0.048995879 -0.1781041 0.40856409
0.02072352 -0.17673901 0.30171949
0.072821997 -0.2016845 0.3373698
0.005050804 -0.02628839 0.33310041
0.04001357 -0.2120388 0.3140415
0.1001798 -0.1660011 0.34745431
0.094399743 -0.0050713122 0.53633702
0.13736279 -0.01052743 0.51001281
0.041166119 -0.098106593 0.3047452
0.042423371 -0.098106153 0.30594191
0.121604 -0.02166939 0.34715101
0.19160511 -0.255858 0.41365671
0.1210528 -0.23469231 0.37597021
0.058936931 -0.01270983 0.45258719
-0.0226587 -0.0086799264 0.47576559
0.115851 -0.01260132 0.51799542
0.097615242 -0.020621421 0.37109849
-0.088566862 -0.2349261 0.47436109
0.093801402 -0.0089691281 0.54260159
0.1359662 -0.0072451681 0.50500709
0.1095297 -0.016148301 0.4820112
0.15156239 -0.020737691 0.4391866
0.1033259 -0.0083342493 0.54817611
0.1434852 -0.02385558 0.457232
0.027167501 -0.008311674 0.49939331
0.01279868 -0.017524879 0.43212891
0.0413885 -0.019171249 0.3780455
0.1932577 -0.2610946 0.4194285
0.047094818 -0.02758066 0.31342909
0.1922369 -0.1501058 0.39662579
0.19566301 -0.1902701 0.4135378
0.033999551 -0.031690549 0.30465549
0.14103609 -0.095038787 0.3665022
0.1605109 -0.20716231 0.39385289
0.1609401 -0.1521485 0.3871164
0.106108 -0.088280663 0.35331589
0.074285246 -0.063166156 0.32805249
0.1331813 -0.2165148 0.3793653
0.13602421 -0.26462069 0.3793155
0.1212792 -0.1847274 0.3664912
0.116145 -0.093577862 0.35447419
-0.095686793 -0.23088861 0.50206357
0.1077633 -0.1315414 0.35254791
0.12563729 -0.1630384 0.3656092
-0.036487799 -0.18673269 0.3868494
0.17938089 -0.13785779 0.39948761
0.1476448 -0.083446503 0.37064609
0.1679839 -0.02797775 0.41595271
0.1094475 -0.1828794 0.35627061
0.051607411 -0.052765548 0.30228049
0.0070186071 -0.01227394 0.46984369
0.1016643 -0.25755471 0.36124209
0.1237728 -0.2710751 0.37440839
0.1966054 -0.13635971 0.40843719
0.048028849 -0.021069471 0.3974756
0.1386551 -0.037890989 0.3570376
0.1112065 -0.0064490139 0.5698151
0.1020823 -0.0044001038 0.57398659
0.058612268 -0.01549314 0.42126441
0.046331309 -0.012794 0.51131779
0.054486789 -0.0062815249 0.51334327
0.15645979 -0.016566681 0.47874609
0.097692147 -0.02746759 0.33745119
0.1629483 -0.21425579 0.3909229
-0.023005329 -0.0091360211 0.4768914
-0.053470109 -0.021341341 0.41238391
0.01236131 -0.031076729 0.29072869
-0.016021499 -0.024085371 0.36774251
0.033530969 -0.030821759 0.3038488
-0.089601479 -0.24906699 0.49213639
0.1546827 -0.198847 0.38833311
0.1152958 -0.1249086 0.35497329
0.1296404 -0.0084326575 0.53495902
0.14799079 -0.01102753 0.49444151
-0.093137078 -0.27374679 0.4957673
0.062955149 -0.01326109 0.50673199
0.081756473 -0.02320059 0.47061789
0.08721514 -0.005321369 0.57648349
0.17141481 -0.02847041 0.4114452
0.095526427 -0.028875951 0.34361121
0.14204849 -0.25234711 0.37985551
-0.054971959 -0.01243944 0.4297128
-0.01005554 -0.02478449 0.3421877
0.1204102 -0.1854216 0.36601251
0.01687221 -0.16406471 0.3043029
0.146183 -0.1767181 0.38540599
0.01516625 -0.2274902 0.30877551
0.085053243 0.006626185 0.59312189
0.021027829 -0.025219901 0.31173319
0.083293542 0.00155529 0.5934934
0.1953976 -0.2917929 0.42327309
0.089016937 -0.0049398439 0.59675407
0.1182843 -0.025346089 0.35550499
0.18398459 -0.02251439 0.4362396
0.1476758 -0.031281289 0.37785611
0.167981 -0.070759997 0.38148201
0.1602308 -0.028078049 0.378102
0.2063847 -0.02878879 0.40803459
0.18920711 -0.080058292 0.39369291
0.1882145 -0.1037183 0.3948155
0.1972591 -0.087799743 0.4057743
0.1228156 -0.26800311 0.371694
0.127133 -0.2963011 0.37546229
0.1536887 -0.1807342 0.3837299
-0.087682381 -0.2847653 0.32388371
-0.1227238 -0.29593909 0.36779141
-0.065765217 -0.2964907 0.28001249
0.1533549 -0.1788089 0.3814801
0.099473707 -0.26433551 0.3552072
0.19298489 -0.2454197 0.41246
-0.1226245 -0.29494241 0.35540569
-0.054014221 -0.29475829 0.26837471
-0.099164113 -0.29569501 0.32675591
-0.073142387 -0.29404029 0.30804259
0.033810779 -0.030644059 0.30767941
-0.099518523 -0.25575 0.47918871
0.017365159 -0.1985153 0.3072136
0.1131464 -0.0079986863 0.55312741
0.1207281 -0.025074059 0.3468447
0.1942191 -0.2633498 0.41875821
0.19514909 -0.19220041 0.41919029
0.20133001 -0.1908952 0.41695699
0.072900727 -0.20157459 0.33954731
0.119668 -0.2293634 0.36629409
0.1423918 -0.25436431 0.38072011
0.1620422 -0.25972879 0.3915129
0.1972509 -0.2929104 0.42628729
0.039850909 -0.1000063 0.30852529
0.069532417 -0.1246939 0.32170159
0.1474214 -0.2440566 0.3825551
0.18316209 -0.2411229 0.4033117
0.172763 -0.17769291 0.39127821
0.1007222 -0.250833 0.35525161
0.060939599 -0.068381757 0.31519741
0.1273744 -0.29428741 0.37084451
0.13131569 -0.20609599 0.36797991
0.064026073 -0.1986894 0.33348989
0.1610423 -0.1909274 0.38150471
0.1340929 -0.2354573 0.37435091
0.036084671 -0.1736396 0.30894849
0.038471881 -0.2130717 0.31095091
0.14498299 -0.1691785 0.3756617
0.040346891 -0.2559832 0.31338441
-0.007256493 -0.03087227 0.32765391
0.1044233 -0.03950347 0.34041971
0.071785063 -0.26558971 0.34048411
0.087941758 -0.2226826 0.34088299
0.1097639 -0.26502001 0.35673469
0.022924909 -0.26204789 0.3259753
0.13155989 -0.2359473 0.37457639
0.1543624 -0.2519649 0.3868275
0.1019172 -0.2872037 0.36479199
0.1376911 -0.2679143 0.3795473
0.14916369 -0.032022931 0.3768422
-0.01029637 -0.02717582 0.33820021
-0.01319738 -0.024968119 0.35343251
0.046044439 -0.02682689 0.30225509
0.062814303 -0.029223779 0.30136949
0.054894332 -0.02424496 0.29816729
0.0086322501 -0.027935321 0.30017981
0.1963266 -0.15933231 0.40889761
0.19520029 -0.1876245 0.40789181
0.2012908 -0.187336 0.40902969
0.2049935 -0.28650731 0.42779589
0.2066866 -0.2507768 0.42369851
0.2061329 -0.26607269 0.42555079
0.025032351 -0.023606891 0.2833975
0.1208909 -0.027989529 0.3491931
0.1203853 -0.025212411 0.35119539
-0.0045540482 -0.0292647 0.3233158
0.060090639 -0.027290691 0.30763471
0.075722501 -0.024890879 0.31356639
0.072477579 -0.029592041 0.3208082
0.1513987 -0.02044424 0.38432649
0.1425626 -0.01976556 0.4313392
0.096687719 -0.026777349 0.32970241
0.1057911 -0.024477759 0.3306396
0.077143013 -0.01376972 0.48397061
0.100625 -0.021002419 0.3630262
0.1764176 -0.024285721 0.38139471
0.19338571 -0.2628392 0.41921109
0.1980395 -0.27365321 0.4209522
0.14387301 -0.2610274 0.39175329
0.16385721 -0.2631273 0.39948431
0.1212894 -0.2371459 0.37854189
0.074046701 -0.2045936 0.34390461
0.196904 -0.29522029 0.42922539
0.18323649 -0.241492 0.4028028
0.1237831 -0.26807839 0.37293521
0.1481722 -0.24839491 0.39136371
0.1159004 -0.1995538 0.35824481
0.1334509 -0.21077091 0.38234159
0.1252549 -0.24457499 0.38006949
0.1729987 -0.1771477 0.3896853
0.073055796 -0.26523969 0.34064999
0.1205032 -0.1782449 0.35607499
0.1012554 -0.2538555 0.3578541
0.1007769 -0.1667268 0.346522
0.1849394 -0.19222599 0.40046951
0.099150427 -0.1670942 0.3464393
0.1273835 -0.2969813 0.37680909
0.1852825 -0.17572039 0.39774099
0.1624535 -0.19257431 0.38590091
0.1112316 -0.1804617 0.35099709
0.01200905 -0.1981097 0.31201789
0.1340394 -0.2349043 0.37172699
0.063458651 -0.1990293 0.3331396
0.039972238 -0.26540121 0.32884991
0.1723966 -0.2029769 0.39208969
0.1429878 -0.19412211 0.37352771
0.01577672 -0.2275136 0.3109878
0.1308284 -0.23389991 0.3695212
0.1009745 -0.28542829 0.35807899
0.15352561 -0.180582 0.38328809
0.041551139 -0.2104844 0.3154943
0.1926229 -0.2446408 0.4106141
0.1547057 -0.2510919 0.38558581
0.088735983 -0.2729767 0.34822091
0.1562084 -0.29403609 0.39008719
0.01255979 -0.2315356 0.3143369
0.1143815 -0.2353681 0.3683534
0.1039693 -0.17819899 0.35065439
0.061541289 -0.27596611 0.33619791
0.1026839 -0.28435069 0.35927871
0.030346099 -0.1597122 0.30500519
0.033974372 -0.1766573 0.3106983
0.1790034 -0.1805205 0.39245841
0.099134661 -0.2638734 0.35369241
0.01294044 -0.26256379 0.31349239
0.1132409 -0.2482004 0.36500719
0.05014595 -0.26696441 0.32794079
0.1167059 -0.28842059 0.3651796
0.1423889 -0.1751236 0.37110111
0.104798 -0.038650569 0.33864549
0.1472027 -0.036845051 0.36348629
0.1080704 -0.13003381 0.3470068
0.17230339 -0.087102853 0.37578851
0.1765686 -0.133073 0.38990501
0.091850393 -0.1003825 0.3277671
0.052250359 -0.1173427 0.31141609
0.1908503 -0.2578989 0.41233239
0.071013689 -0.26635259 0.3392143
0.088090688 -0.2226346 0.34090191
0.051819101 -0.2486458 0.327454
0.17688709 -0.2159248 0.39016759
0.095258951 -0.189724 0.33562109
0.1093767 -0.2645672 0.35619259
0.1315641 -0.24871241 0.37507579
-0.066819102 -0.29618371 0.33085921
0.018662261 -0.032663621 0.29010719
0.01551594 -0.29552349 0.30798331
0.031386029 -0.243205 0.3159031
0.078808799 -0.29398751 0.34410879
0.01443089 -0.26435909 0.31617951
0.1492669 -0.2032086 0.377864
0.1193222 -0.28543809 0.36778751
0.1620743 -0.29162139 0.39277589
0.1897703 -0.078744031 0.3884744
0.082183272 -0.019010911 0.4711239
0.062919833 -0.2248833 0.3295612
0.1872254 -0.1200933 0.39410889
0.1022863 -0.01961663 0.443791
0.1240004 -0.042415261 0.3437596
0.1137952 -0.090306558 0.34465739
0.13909189 -0.1833986 0.37214959
0.048924241 -0.2258563 0.3195549
0.01633244 -0.29590079 0.31139451
0.1462318 -0.079784818 0.36437091
0.046866938 -0.2219515 0.31863821
0.069551557 -0.1239825 0.3226431
0.047185902 -0.1708786 0.313784
0.041383371 -0.09765663 0.301631
0.1112611 -0.02036963 0.42449561
0.063331649 -0.01386786 0.49549529
0.1935299 -0.1111449 0.39639321
0.1165835 -0.091593169 0.34245631
0.1226338 -0.037734021 0.3423647
0.1883612 -0.14745191 0.39640251
0.1445335 -0.1684258 0.37118429
0.1079726 -0.1503398 0.34937939
0.162903 -0.1507013 0.38057461
0.044227999 -0.096435212 0.30311131
0.1367642 -0.032389902 0.35400149
0.16841 -0.069779143 0.37688029
0.060834039 -0.067398213 0.31196031
0.1357113 -0.063709266 0.3587853
0.1340743 -0.01956193 0.42429069
0.1193514 -0.1795435 0.3565
0.1248175 -0.22405919 0.3650414
0.14130481 -0.1651115 0.36715499
0.1629688 -0.1658306 0.38527849
0.1584131 -0.1473497 0.37882039
0.1710379 -0.28007069 0.39676729
0.15323471 -0.1540221 0.377011
0.086181536 -0.018484579 0.41704449
0.14996991 -0.095193513 0.36586061
0.14400271 -0.060450722 0.36424991
0.1160369 -0.2366512 0.35658029
0.1651796 -0.1137635 0.38387069
0.14642531 -0.089644194 0.368204
0.1435544 -0.1060795 0.37036961
0.14274579 -0.25933769 0.3880266
0.1627351 -0.25958949 0.3936477
0.1229215 -0.26917511 0.37546039
0.1531371 -0.1794302 0.38128901
0.1271237 -0.29542071 0.37463641
0.19323429 -0.26117629 0.41851839
0.2015745 -0.1973816 0.43585441
0.074897617 -0.20160981 0.34120291
0.1200427 -0.23470031 0.37217751
0.13705461 -0.26678559 0.38085729
0.1806391 -0.032295231 0.3863686
0.19494011 -0.15038019 0.39707729
0.1443409 -0.17589609 0.3843388
0.1907026 -0.1467645 0.3863261
0.099362843 -0.1667718 0.34544539
0.017668869 -0.03452814 0.29030621
0.03287245 -0.03281397 0.30631831
-0.0085234866 -0.030320849 0.3342118
0.147192 -0.081929952 0.36559799
0.1200366 -0.2296045 0.3651537
0.1340244 -0.2394132 0.3781479
0.07578668 -0.26351091 0.34232831
0.14298829 -0.2502915 0.37614629
0.1231212 -0.2310607 0.360919
0.1062104 -0.1802153 0.34918889
0.0049078842 -0.03246963 0.3098869
-0.028419049 -0.02535468 0.38081449
0.041635651 -0.098792203 0.3045865
0.039052419 -0.217012 0.31842569
0.1902948 -0.2555126 0.411623
0.069373012 -0.1218956 0.3259865
0.042107169 -0.1449506 0.30599901
0.1474105 -0.084180184 0.37233731
0.1685219 -0.0706276 0.38153341
0.094914667 -0.02537122 0.35454831
0.1500393 -0.1003771 0.37721139
0.19574951 -0.1912467 0.4136495
0.087700747 -0.02597508 0.32719311
0.1127723 -0.0232164 0.35972831
0.1127576 -0.025074599 0.3453615
0.1438091 -0.01733497 0.42807719
0.16296481 -0.02274603 0.40008289
0.121364 -0.02692759 0.34944019
0.1951372 -0.27655849 0.42949751
0.1997814 -0.084082738 0.405505
0.1350798 -0.029036051 0.36946651
0.024402739 -0.02271861 0.35660931
0.0117833 -0.027292609 0.3212817
0.031488121 -0.024325849 0.38044551
0.02012318 -0.024914591 0.3693819
0.037390228 -0.028632971 0.3233023
-0.02999294 -0.018749621 0.4245345
0.0083281994 -0.02802977 0.3505992
-0.025174741 -0.01547498 0.439955
-0.032719139 -0.02336821 0.38375339
-0.001102746 -0.02057299 0.44016081
0.005258203 -0.020815911 0.42997941
0.1141692 -0.02851424 0.3525072
-0.019354099 -0.01632807 0.4650287
0.00072222948 -0.028423071 0.328796
0.0099090934 -0.02913782 0.36407599
0.2053557 -0.28164491 0.45277721
0.096803904 -0.0086002946 0.58598369
0.070776463 -0.02043712 0.40522289
0.03016698 -0.028178129 0.31539011
0.082611769 -0.02476537 0.34503269
0.048368901 -0.02675024 0.32510251
0.04695493 -0.03032079 0.35697711
0.03411603 -0.02404392 0.3391133
0.01446539 -0.02425593 0.39329109
-0.00064349169 -0.03032225 0.34375519
-0.03097963 -0.01230596 0.46281159
0.086078137 -0.016666491 0.44118959
0.097505152 -0.046677738 0.3430858
0.042059001 -0.024132309 0.43801859
0.1390525 -0.032570958 0.3747476
0.033572018 -0.0207687 0.39844689
0.0051697488 -0.020504979 0.39111069
0.090141177 -0.0278787 0.35008979
0.034644932 -0.01268885 0.49161729
-0.02464968 -0.01020089 0.50055557
0.1910214 -0.024347071 0.42129061
0.08814624 -0.02933383 0.37777841
0.0058506131 -0.01763464 0.44826299
0.057344731 -0.016262559 0.4561308
0.1324105 -0.01473138 0.51167578
0.024230961 -0.00936459 0.49602669
0.040173888 -0.020302771 0.47744519
0.1873659 -0.02652311 0.39518091
-0.0050084591 -0.02867684 0.36440569
0.03818908 -0.021944789 0.49900231
0.04846051 -0.02477956 0.3719207
0.12747771 -0.025637571 0.37482181
0.1150119 -0.02108839 0.38097119
0.01572448 -0.031722311 0.30183521
-0.01392365 -0.01751456 0.48261639
0.088333897 -0.025107291 0.40045589
0.0096850991 -0.01442879 0.46482739
-0.01237309 -0.02135447 0.42057541
0.054389421 -0.019828109 0.42064321
-0.033800781 -0.0098578632 0.49711701
-0.05278093 -0.01368898 0.50524873
0.1130702 -0.005748779 0.4023608
0.1014577 -0.028882209 0.34562841
0.04317281 -0.016955821 0.45005029
0.1996821 -0.1556883 0.41079029
0.2015591 -0.18994281 0.41288391
0.1799971 -0.24199469 0.40494731
0.1413403 -0.2545906 0.38332781
0.19442789 -0.1419442 0.40207809
0.068305731 -0.26857769 0.3379271
0.19241551 -0.26298249 0.41946071
0.1832839 -0.1525465 0.3991161
0.16781241 -0.24012209 0.39464721
0.1611295 -0.1685522 0.3858934
0.1790987 -0.17990141 0.40077519
-0.060453001 -0.2927736 0.27210379
0.1867869 -0.1051063 0.39414239
0.1975619 -0.27220371 0.4357236
0.20178629 -0.1696216 0.41066429
0.1984019 -0.24379981 0.44493279
-0.01911521 -0.01320416 0.4329899
0.19941171 -0.2292888 0.4265092
0.0014697911 -0.01875912 0.43907771
0.14682139 -0.13747589 0.376353
0.16773041 -0.1391322 0.4915615
0.1933651 -0.2072265 0.44482419
0.159688 -0.1917239 0.51392388
0.12552141 -0.1915123 0.54539973
0.1930273 -0.2313572 0.4426088
-0.00039035079 -0.0281698 0.32622409
-0.030246319 -0.019143309 0.40682521
0.086400807 -0.2426073 0.34879309
0.040204521 -0.13708431 0.30711529
0.053713139 -0.057656199 0.30763611
0.1749547 -0.2406268 0.48121861
0.1174526 -0.190897 0.57689178
0.19307759 -0.1921366 0.44196171
0.1966159 -0.083298072 0.42205381
0.15053961 -0.167105 0.37927529
0.16063561 -0.2580688 0.5094704
0.1270546 -0.20975441 0.55904198
0.1173877 -0.15382341 0.5709787
0.081623547 -0.02656747 0.32585371
0.042398632 -0.1433675 0.30752969
0.1180024 -0.1134994 0.57182121
0.1363007 -0.2839382 0.55095989
0.1997845 -0.2424407 0.44093609
0.16002969 -0.23174611 0.50594938
0.1594975 -0.2813333 0.51535392
0.1821401 -0.2436382 0.4057129
0.2011285 -0.2049958 0.42963359
0.1737888 -0.26653081 0.48683131
0.1952261 -0.16027001 0.4298366
0.032605171 -0.026132241 0.30935979
0.018698391 -0.020998569 0.38942
0.0030439501 -0.02035882 0.4116399
0.088536441 -0.02817874 0.33620659
0.074861944 -0.02806687 0.32474121
0.008277595 -0.02717704 0.33782861
0.057963189 -0.031418201 0.312134
-0.057590839 -0.29618531 0.24829669
0.074186802 -0.1957881 0.33373901
0.15173461 -0.1533729 0.38330999
0.03255856 -0.14356241 0.30414221
0.1524069 -0.179295 0.382952
0.15513781 -0.1544465 0.3780269
0.19789881 -0.083068371 0.402767
0.1942665 -0.1188156 0.40629199
0.19654819 -0.097480848 0.3979021
0.1880665 -0.22482561 0.45726219
0.20302279 -0.073235288 0.40135929
0.080784738 -0.29167059 0.34342629
0.1767621 -0.1108074 0.46810359
0.1097525 -0.022974741 0.57333791
0.074318647 -0.032255251 0.3209978
0.18683229 -0.2256138 0.45071641
0.03331333 -0.15662511 0.30741999
0.082303166 -0.26186359 0.34705031
0.1478855 -0.1845866 0.51793408
0.19783799 -0.1115596 0.43390489
0.1794969 -0.1967243 0.40320459
0.1125049 -0.22410581 0.58583063
0.1776921 -0.105421 0.4533942
0.1871978 -0.2734893 0.46810731
0.20015261 -0.2704488 0.4275496
0.13473061 -0.075732738 0.53084528
0.1526418 -0.2160496 0.5169692
0.1942686 -0.249217 0.41515249
0.19189809 -0.1135202 0.39928809
0.19796249 -0.084947407 0.39614341
0.1071534 -0.084607199 0.5741753
0.1681468 -0.067296498 0.37854791
0.16770039 -0.1441339 0.48841551
0.1935343 -0.29400519 0.4511131
0.14020909 -0.085218012 0.52884471
0.208176 -0.13777541 0.4157072
0.1809182 -0.091842741 0.4538866
0.2036241 -0.1372447 0.41337761
0.2021102 -0.1255787 0.4184576
0.1984674 -0.1900184 0.41077489
0.1566429 -0.14134531 0.50816131
0.1515163 -0.1438009 0.51189661
0.20464049 -0.14770859 0.41432479
0.1544919 -0.1823003 0.52307659
0.1294747 -0.17211869 0.53967422
0.1015823 -0.078209907 0.59526122
0.1235524 -0.063892387 0.55079651
0.12937111 -0.082835697 0.54911989
0.1076351 -0.086432703 0.58212018
0.1161135 -0.01770911 0.56140572
0.1004547 -0.0081829354 0.58629721
0.1112109 -0.037462469 0.5723269
0.1156806 -0.0094239255 0.55869907
0.14013851 -0.28329861 0.54740423
0.19251651 -0.1352019 0.4306269
0.1970221 -0.1350756 0.42660031
0.1937069 -0.1184238 0.42729169
0.19839869 -0.1920467 0.425551
0.117124 -0.1921699 0.57609671
0.1303498 -0.1658915 0.53691763
0.1175706 -0.1710895 0.57740861
0.14747021 -0.1324805 0.51199669
0.19851319 -0.1290012 0.4204531
0.18254291 -0.1091521 0.44959599
0.039988101 -0.02134756 0.3775878
0.0093072653 -0.032886811 0.28984731
0.0085747838 -0.022130679 0.3512775
0.1035694 -0.023665421 0.34704429
0.2024872 -0.077638857 0.40004149
0.01407766 -0.2561774 0.31302509
0.01211452 -0.2708602 0.3144182
0.095363349 -0.25629351 0.3550339
0.07145822 -0.1315717 0.32834491
0.1347466 -0.20112041 0.37621731
0.13605881 -0.069045067 0.53329682
0.094244123 -0.01316948 0.57313281
0.1974701 -0.1011713 0.41589481
0.204394 -0.1985126 0.43277419
0.1247275 -0.086313039 0.54474169
0.1927565 -0.1149296 0.4386802
0.1056305 -0.1166425 0.58642519
0.1029278 -0.0096950233 0.57742292
0.00073391199 -0.022789661 0.33362171
0.1371948 -0.16999459 0.37215549
0.1858864 -0.085568063 0.44581619
0.094660789 -0.26840031 0.356558
0.1993597 -0.21523491 0.43065369
0.111391 -0.031639799 0.5757618
0.19614971 -0.24608231 0.43386859
0.1834594 -0.246594 0.45745689
0.133462 -0.1792368 0.37367961
0.1766125 -0.1261092 0.4630931
0.1882752 -0.20475949 0.44320211
0.023377361 -0.2097117 0.30977771
0.1056966 -0.25579599 0.59771842
0.090215862 -0.2939111 0.3585251
0.1584601 -0.251522 0.50213891
0.18107159 -0.1136629 0.45436761
0.083430588 -0.2143622 0.34377629
0.2020321 -0.206991 0.42052439
0.1480817 -0.2435243 0.52560741
0.1262297 -0.28770661 0.56354332
0.020876409 -0.035273232 0.2916939
0.1228283 -0.2420589 0.56433761
0.1784921 -0.1934597 0.46012691
0.1413319 -0.1634565 0.52693123
0.1087793 -0.2054179 0.58739209
0.1619181 -0.2369691 0.39376619
0.15755621 -0.22323731 0.50954598
0.14928439 -0.2174889 0.51953602
0.1259772 -0.113831 0.54890913
0.1924428 -0.217732 0.43967181
0.2012161 -0.23759469 0.42417359
0.1263603 -0.2265006 0.55883372
0.18458819 -0.1197728 0.44699591
0.1473963 -0.1354491 0.51779991
0.19055469 -0.2519621 0.44732699
0.1960911 -0.27414441 0.43799391
0.2039573 -0.1426761 0.41866699
0.1572267 -0.164961 0.38403761
0.1876276 -0.1914431 0.40169239
0.1799306 -0.2474812 0.40726489
0.1065359 -0.01625419 0.52059388
-0.061102752 -0.0104585 0.47847
0.1608855 -0.018013639 0.47681931
0.18844821 -0.02535909 0.43134731
0.092849523 -0.027401971 0.336831
0.18202899 -0.1075753 0.3962312
0.1969161 -0.09781085 0.39823201
0.1396182 -0.25578609 0.38575771
0.19091541 -0.1473915 0.39780289
0.068108022 -0.2688854 0.33857611
0.0098416209 -0.016292689 0.45067391
0.1198421 -0.029053031 0.347543
0.1709079 -0.2303782 0.39958641
0.095176756 -0.1682539 0.35164091
0.1187348 -0.045273419 0.3484824
0.1691526 -0.1787222 0.3940703
0.031751689 -0.1745352 0.3111127
0.16320661 -0.1143996 0.38268149
0.084815979 -0.1798055 0.34130639
0.088341057 -0.2763415 0.34921649
0.1141353 -0.018327801 0.42101291
0.05375338 -0.032809932 0.31250271
0.095329463 -0.25617191 0.35579851
0.1435219 -0.03705119 0.3657642
0.15479019 -0.29309839 0.39139289
0.083149023 -0.1068485 0.33681419
0.1631707 -0.20499121 0.3939172
0.059094429 -0.068864942 0.31388009
0.049261332 -0.27072981 0.32660601
0.085798532 -0.2216612 0.34159479
0.1362984 -0.092344433 0.36406171
0.15398049 -0.03069271 0.3728742
0.1443041 -0.05523986 0.36926919
-0.1124755 -0.0136449 0.4705905
0.20438179 -0.1407716 0.41364381
0.1808852 -0.1938325 0.4524326
0.19862621 -0.1279508 0.42053601
0.1984631 -0.1172517 0.4272162
0.1683829 -0.1353617 0.4918547
-0.026652619 -0.0262275 0.38232771
-0.021657471 -0.016846189 0.40560579
0.2067437 -0.1123665 0.41323191
-0.02798361 -0.01174833 0.4602944
0.1324721 -0.25772631 0.55486631
0.12768701 -0.28477949 0.56335229
0.1867208 -0.24288081 0.45682201
0.01171035 -0.02649628 0.33071291
0.1020385 -0.0070614368 0.54490387
0.1099926 -0.017223731 0.47040439
-0.035385732 -0.01407516 0.4754189
0.1108499 -0.02044845 0.57232052
0.1130317 -0.082615092 0.5824936
0.1218129 -0.1507763 0.57180291
0.1326441 -0.20727579 0.55734187
0.1204878 -0.1916004 0.57620943
0.1124825 -0.2335964 0.58564478
0.14764941 -0.1337108 0.52093393
0.1282438 -0.2649956 0.56422287
0.1257239 -0.2933369 0.56990099
0.1448741 -0.2420733 0.54741818
0.1584937 -0.17666569 0.51977688
0.01836193 -0.02178484 0.38540331
0.1530631 -0.1968518 0.51921779
-0.0053685009 -0.0061316788 0.5186584
0.1995136 -0.22766849 0.43196821
0.1432219 -0.14225329 0.52977061
0.1137271 -0.2591469 0.58904618
0.096439272 -0.017133459 0.4363417
0.097981073 -0.01585998 0.4799574
0.1215744 -0.16317891 0.57214803
0.1562618 -0.28462541 0.51628232
0.203509 -0.2042139 0.4220722
0.1165922 -0.1180307 0.58184981
0.1209868 -0.17751449 0.56871468
0.09855637 -0.062604263 0.59996992
0.1098013 -0.23879489 0.59546959
0.114215 -0.1808546 0.58352411
0.1248489 -0.2250271 0.57062852
0.1192903 -0.14235941 0.56878239
0.1282248 -0.1791871 0.55743909
0.1187498 -0.18054929 0.57319868
0.1280835 -0.2379825 0.56335598
0.1671544 -0.1512745 0.4912957
0.13075051 -0.1983943 0.55592477
0.066518009 -0.0043533891 0.5696488
0.094756387 -0.01171838 0.58682573
0.1604775 -0.2580173 0.51130652
0.1196342 -0.1684477 0.57891673
0.16545241 -0.070093468 0.48360339
0.1396917 -0.26883641 0.53788787
0.05890137 -0.0120317 0.4468452
0.1673037 -0.1667046 0.49584591
0.165948 -0.1106159 0.49748471
0.16333251 -0.2289294 0.50642538
0.14588889 -0.28256929 0.54209059
0.16127311 -0.2075655 0.50380069
0.1606552 -0.2053028 0.50230253
0.14977179 -0.28287321 0.53918821
0.1543947 -0.1464189 0.51201129
0.1506753 -0.12590399 0.51223809
0.1491174 -0.132874 0.51187259
0.125241 -0.1992559 0.56650388
0.1574464 -0.2188355 0.51432699
0.1865425 -0.02556975 0.41273609
0.15223069 -0.024156529 0.39440209
0.202765 -0.031297881 0.4111695
0.18730199 -0.074969336 0.4469116
0.01599244 -0.03080925 0.37007189
0.1932583 -0.039433319 0.43195069
0.1751686 -0.23992591 0.48281571
0.1810558 -0.1227171 0.45420679
0.1957608 -0.24505121 0.447965
0.1967016 -0.2430504 0.44358209
0.1824813 -0.2236115 0.46822941
0.1960745 -0.1870594 0.44577751
0.1825351 -0.21306109 0.4695012
0.16545179 -0.19980159 0.48489961
0.18615191 -0.2269735 0.46000081
0.1749876 -0.1123573 0.46980309
0.199607 -0.12736 0.42129841
0.1841895 -0.1864004 0.46279219
0.17085341 -0.2954382 0.4928942
0.1748465 -0.2685034 0.4897956
0.1643437 -0.2434067 0.50325978
0.1484122 -0.242985 0.52548099
0.16943739 -0.1558094 0.4901067
0.1951142 -0.2164413 0.44121081
0.1071214 -0.22911219 0.59291422
0.1209554 -0.2033772 0.57909268
0.113722 -0.1476061 0.58330983
0.13739771 -0.2212964 0.55094779
-0.01514578 -0.007229805 0.50444728
0.2005576 -0.02538706 0.4350675
0.1788384 -0.1159952 0.47945869
0.1922888 -0.070570007 0.44574901
0.1077319 -0.2910676 0.59435678
0.16171239 -0.1332182 0.49636111
0.1348861 -0.29507369 0.58878249
0.1478025 -0.01974255 0.4241609
0.1082503 -0.01346032 0.57292992
0.1161202 -0.1160629 0.57338089
0.1187974 -0.20138539 0.58672309
0.1786052 -0.12809931 0.45310289
0.1050142 -0.003961504 0.58451599
0.1067583 -0.077394947 0.58596933
-0.02129185 -0.0108719 0.44004291
-0.048007611 -0.0081794858 0.45827049
0.1311166 -0.1148547 0.54678708
0.099058717 -0.14566229 0.59709048
0.108718 -0.1399986 0.58727771
0.19830009 -0.040926639 0.41171831
0.20168319 -0.073476933 0.4155218
0.073371381 -0.005332842 0.56344682
0.082119107 -0.029172471 0.325212
0.1853275 -0.18791939 0.45499989
0.1099899 -0.083502963 0.57346892
0.13420209 -0.0753728 0.53090662
0.1682633 -0.02247585 0.46517041
0.01430315 -0.02217108 0.342765
0.18812349 -0.0232861 0.41927481
0.14842279 -0.021774979 0.38471341
0.1175728 -0.032168329 0.35523751
0.043493539 -0.02385908 0.39463851
0.0098012388 -0.01987982 0.3581374
0.18907329 -0.27560699 0.4283607
0.068853617 -0.01098374 0.4776862
0.069396652 -0.03192186 0.32687271
0.069386981 -0.01538783 0.468467
0.09687072 -0.0081270933 0.53059161
0.174906 -0.02365783 0.44719189
0.119781 -0.017898049 0.52427948
0.2030143 -0.27267569 0.43060479
0.1245254 -0.018945631 0.46936321
0.1258889 -0.023885431 0.36860079
0.078173071 -0.01973051 0.46336669
0.05268709 -0.02460927 0.40554681
0.1036651 -0.01339996 0.47143099
0.044256061 -0.03079504 0.33043551
0.091742493 -0.01854706 0.43500829
3.46126e-05 -0.031745549 0.33014539
-0.01364088 -0.01855341 0.39355981
0.1024726 -0.02189004 0.4328464
-0.074745171 -0.29625559 0.31407681
0.103603 -0.02399808 0.412339
0.17706349 -0.021894131 0.41095579
0.14096101 -0.02552551 0.44777051
-0.070692264 -0.29249921 0.2953459
0.1125827 -0.02115247 0.5232327
0.1141585 -0.02653298 0.39780739
-0.077634193 -0.2919074 0.28599319
0.1465023 -0.024064239 0.43754169
0.1422253 -0.022385331 0.46948129
0.136391 -0.02318624 0.46343741
0.1630412 -0.0222815 0.44151419
0.086381868 -0.02231288 0.41230151
0.1023569 -0.01347923 0.49116531
-0.1017835 -0.2857298 0.323378
0.099142261 -0.01326051 0.57838517
0.098441802 -0.01190719 0.54529792
0.094818063 -0.020894529 0.42198351
0.13268571 -0.01210791 0.50416201
0.142364 -0.017814459 0.42941421
0.11494 -0.022808669 0.45647559
0.090156883 -0.026927769 0.43252689
0.1297455 -0.030924561 0.3611432
-0.05041774 -0.027760061 0.4300679
0.1289763 -0.02533558 0.42984259
0.1673757 -0.034767751 0.41229749
0.1171572 -0.017076129 0.51792902
0.1949705 -0.12773789 0.41227421
-0.092100628 -0.29547489 0.3358371
0.05107357 -0.01545042 0.50276691
0.087397717 -0.017651649 0.54601377
0.002038619 -0.032871962 0.33633739
0.098192863 -0.02319935 0.36979499
0.110655 -0.01012698 0.52840668
0.055230819 -0.019992409 0.45641699
0.0435468 -0.01439652 0.51947331
0.1975334 -0.027862789 0.42343381
0.1090195 -0.024257749 0.39060339
-0.038061749 -0.023834171 0.3917231
0.1082958 -0.01276058 0.53823823
0.021245301 -0.022013839 0.38328761
0.073030442 -0.01415229 0.51527548
0.1604722 -0.028265771 0.4078832
0.035298649 -0.023435179 0.3071866
0.062809132 -0.03021884 0.32982481
0.1257934 -0.01464713 0.53535169
0.127432 -0.040989101 0.49768639
0.1380007 -0.028560581 0.45259491
-0.01112048 -0.032119099 0.33536381
0.059424739 -0.019802149 0.50357562
0.052701149 -0.01059568 0.55491549
0.04161508 -0.0097387144 0.52720279
0.098356336 -0.0260213 0.3871696
0.1725574 -0.02488154 0.46749559
0.1922531 -0.021448109 0.41920161
0.1481168 -0.020374659 0.43662941
0.106507 -0.016345739 0.4066903
0.14705341 -0.02173689 0.39766589
0.1790327 -0.01946431 0.44380811
0.16534141 -0.01772961 0.45775279
0.1045079 -0.0097284913 0.51490343
0.139396 -0.01070374 0.50756657
0.1091992 -0.0093720853 0.51905972
0.096666597 -0.017734621 0.37598619
0.1880839 -0.024337741 0.41312701
0.148027 -0.021181701 0.38794601
0.099533111 -0.0056035221 0.57470733
0.12843411 -0.0074344282 0.52090693
0.095268339 -0.01951584 0.37210119
-0.02306095 -0.01176995 0.4265103
0.1290528 -0.01150501 0.50770479
0.1450548 -0.018922631 0.4268344
0.1213406 -0.0086245537 0.52589393
0.1114613 -0.005310833 0.531739
0.1669707 -0.01747149 0.44767299
0.1521161 -0.018457379 0.40225461
0.093462199 -0.0071442132 0.52500641
0.1638521 -0.01409063 0.4616797
0.14427111 -0.02114952 0.37741119
0.1336481 -0.0058577661 0.53060287
0.055903271 -0.02209067 0.327741
0.057326999 -0.023263071 0.3246288
0.1070478 -0.01162103 0.52614403
0.1752293 -0.017913099 0.45863581
0.15600181 -0.016163381 0.46736079
0.1295788 -0.0080174804 0.54667938
0.1122842 -0.004064858 0.5596981
0.1142779 -0.003177166 0.5522995
0.072032571 -0.01354945 0.47059399
0.051555932 -0.0091902018 0.4987509
0.044560332 -0.006621033 0.52697217
0.066108733 -0.0052629709 0.55473912
0.0599516 -0.018107651 0.405707
0.1057861 -0.017708389 0.41323489
0.1188786 -0.01567903 0.45329961
-0.045886129 -0.0056432779 0.48031309
0.050986681 -0.028358851 0.34912029
-0.003026336 -0.023750599 0.35653031
0.065995038 -0.02071384 0.3760393
-0.026800569 -0.0078212321 0.47128221
0.062509976 -0.1265365 0.58894497
0.1497723 -0.02434531 0.3862302
-0.01518399 -0.020517981 0.37054989
-0.05154166 -0.0069172378 0.50274301
0.023663791 -0.027373459 0.31181669
0.095129803 -0.01750255 0.4228304
0.060764611 -0.024569839 0.3470571
