# .PCD v0.7 - Point Cloud Data file format
VERSION 0.7
FIELDS x y z normal_x normal_y normal_z curvature
SIZE 4 4 4 4 4 4 4
TYPE F F F F F F F
COUNT 1 1 1 1 1 1 1
WIDTH 581
HEIGHT 1
VIEWPOINT 0 0 0 1 0 0 0
POINTS 581
DATA ascii
0.10524609 -0.0083428323 0.51522368 0.18734445 0.98228294 0.0047158105 0.039231569
0.13784875 -0.011685548 0.50634456 0.34947908 0.92891616 0.1223888 0.072184466
0.10927536 -0.0087289903 0.51923114 0.21223146 0.97691399 0.024430551 0.052671965
0.096476756 -0.020001119 0.37548393 0.14287797 0.95967889 -0.24207926 0.053387593
0.18814255 -0.024425704 0.41305622 0.618761 0.75148886 -0.22890884 0.1267608
0.14782041 -0.022323297 0.38827217 0.31619185 0.86310738 -0.39378706 0.086693056
0.098248333 -0.007292036 0.57412243 0.22220205 0.80582452 0.54888344 0.10330871
0.12682386 -0.0118612 0.51933163 0.34914055 0.93287742 0.088546962 0.076062605
0.095193066 -0.020007644 0.37211877 0.14341852 0.95750642 -0.25022474 0.054106861
-0.023277555 -0.014020806 0.42662871 -0.054371998 0.99118268 -0.12083276 0.013891362
0.13145615 -0.009349714 0.51064444 0.32245529 0.94229078 0.09005934 0.066343389
0.14490204 -0.018358873 0.42679736 0.17200486 0.97793072 -0.11859958 0.047498215
0.12107542 -0.010989162 0.52602929 0.30722514 0.94900817 0.070684753 0.067157902
0.11111587 -0.0092533883 0.531681 0.25705042 0.96241254 0.087676458 0.064937875
0.16695078 -0.017790258 0.4476912 0.36323142 0.92906761 0.069974855 0.08143729
0.15192415 -0.020570373 0.40249404 0.28268173 0.91462326 -0.2890594 0.07845708
0.093489006 -0.0078800349 0.52504766 0.1411427 0.98886454 0.047177259 0.046383996
0.16335398 -0.017289516 0.46154833 0.32839012 0.94055945 0.086647436 0.066110961
0.14356622 -0.024311079 0.3784889 0.30943942 0.83252257 -0.45951447 0.092252724
0.12979992 -0.015169331 0.5292446 0.42476448 0.8955006 0.13286741 0.077354446
0.054784875 -0.026329014 0.32820952 0.10168867 0.92942345 -0.35472721 0.073532544
0.056320708 -0.027051339 0.32470867 0.10638301 0.92021167 -0.37668693 0.076879993
0.10749772 -0.0089229271 0.52632248 0.22616328 0.97188544 0.065489031 0.055052385
0.17511764 -0.018800717 0.45861635 0.51603413 0.83751589 0.17965521 0.079619035
0.1559419 -0.016816277 0.46737212 0.29189378 0.95312202 0.07972791 0.063209124
0.12253889 -0.013434126 0.54267359 0.46196213 0.84467399 0.27040133 0.095608361
0.11010741 -0.011036934 0.55973715 0.40981644 0.76398093 0.49838105 0.11233547
0.11232344 -0.011226869 0.55320489 0.40953439 0.80787677 0.42381209 0.10983808
0.072536834 -0.012523159 0.47053596 0.035800818 0.99550384 -0.087695114 0.0006091533
0.05157394 -0.0097771557 0.49881226 -0.0070775878 0.99985868 -0.015249155 0.012175418
0.044578861 -0.0059573688 0.52690041 -0.12448985 0.98790163 0.092480145 0.045409117
0.065790839 -0.0026261662 0.55462885 -0.081232563 0.93445033 0.34670421 0.078563184
0.059949569 -0.017607568 0.40564775 0.031218005 0.99506253 -0.094212763 0.00096340256
0.10576718 -0.017487019 0.41315523 0.061760828 0.98908317 -0.13379131 0.0089213075
0.11889224 -0.015980111 0.45332956 0.092767693 0.99487543 -0.04021243 0.018359935
-0.046079218 -0.0075965347 0.48052153 -0.31881168 0.9333424 0.16501866 0.083863437
0.050771885 -0.023159336 0.34831944 0.046796612 0.97976136 -0.19462213 0.022210557
-0.0030735745 -0.022402698 0.35619649 -0.03131358 0.99171507 -0.12458228 0.0031029321
0.065987274 -0.019395605 0.37583596 0.059801027 0.98504978 -0.16155745 0.013002294
-0.026753293 -0.0091515277 0.47127542 -0.13455161 0.99039286 0.031903327 0.047195908
0.062763721 -0.1269116 0.59062576 -0.063134171 -0.049171686 0.99679297 0.041437261
0.15008272 -0.022939455 0.3858107 0.34022668 0.84338117 -0.41587746 0.089228831
-0.0152789 -0.019583929 0.37042281 -0.037150577 0.99064833 -0.13128471 0.0027751827
-0.051329669 -0.007539453 0.50229561 -0.37303334 0.83403444 0.40648809 0.098251447
0.023626994 -0.026832979 0.31165171 0.045591947 0.92309821 -0.38185215 0.10185739
0.095289707 -0.016774837 0.42289278 0.045420304 0.99387312 -0.10076332 0.0018153115
0.060687184 -0.023484809 0.3468889 0.073262796 0.97339797 -0.21709177 0.029347869
0.016377823 -0.020522349 0.3680917 -0.0088336179 0.99056852 -0.13673274 0.0065456564
0.040225264 -0.021956723 0.35309672 0.037009772 0.9814207 -0.18826535 0.022278158
0.0088001061 -0.016691668 0.39366248 -0.015674103 0.99293184 -0.11764649 0.0022581662
0.075624198 -0.056848407 0.59464037 -0.12851757 0.219541 0.96710134 0.076338507
0.17801417 -0.022282258 0.40211651 0.49294952 0.79542869 -0.35255346 0.11091265
0.19068547 -0.13992853 0.44120198 0.99411345 -0.01510695 0.10728656 0.077058412
0.091244288 -0.085500114 0.58828497 0.20191398 -0.051681075 0.97803879 0.077834621
0.071746945 -0.059407808 0.59368128 -0.16596875 0.19874597 0.96589565 0.068868563
0.16525021 -0.021772208 0.39197496 0.38939074 0.83257478 -0.39394671 0.092943691
0.024379913 -0.01946944 0.37858519 -0.01017654 0.99266434 -0.12047367 0.001930288
0.040180665 -0.020568375 0.37297064 0.026615148 0.98737115 -0.15617223 0.011513799
0.054968458 -0.013011279 0.45147285 0.030611947 0.99578321 -0.086479217 0.00032165603
0.12398243 -0.014382554 0.47120756 0.15197873 0.98837399 -0.0043809395 0.036743615
0.092520259 -0.013323109 0.47049978 0.06037429 0.99592441 -0.067003965 0.0063426951
0.096399158 -0.014882743 0.45935041 0.052904081 0.99644625 -0.065543965 0.0056224358
0.13651156 -0.019069366 0.43717489 0.15201084 0.98744851 -0.042874578 0.040114321
0.17847051 -0.020573871 0.44136274 0.60893255 0.78494817 0.11427006 0.10935062
0.18199767 -0.11932912 0.45251691 0.95662189 0.0079824934 0.29122314 0.039105508
0.077946834 -0.013846122 0.44549504 0.028733922 0.99647743 -0.078785233 0.00033116443
0.041151218 -0.017480146 0.40059966 0.009807731 0.99539649 -0.095339268 0.00052622671
0.16063215 -0.094470292 0.4884952 0.86267048 0.073952481 0.50033063 0.0023577013
0.1845682 -0.1670174 0.43551111 0.9736281 -0.034454022 -0.22552432 0.087026171
0.19400316 -0.25288415 0.42890739 0.94432449 -0.16129158 -0.28676859 0.093944378
0.093766436 -0.016109614 0.43648481 0.032722253 0.99648803 -0.077077262 0.00038978842
0.0098698623 -0.016049571 0.40267771 -0.013320128 0.9930293 -0.11711274 0.0022776434
0.091317311 -0.035992183 0.59005332 0.26176521 0.46274811 0.8469612 0.13093312
0.10449168 -0.014348585 0.46475834 0.073376268 0.99587584 -0.053359177 0.011579774
0.084156126 -0.01149854 0.48573139 0.071498916 0.99510419 -0.068231903 0.0067272042
0.059014563 -0.027289826 0.32400474 0.12188375 0.90949881 -0.39743721 0.079294555
0.0056169969 -0.0047983774 0.51925224 -0.19550322 0.94398636 0.26583514 0.063336566
-0.0068474766 -0.067894995 0.54388911 -0.51268995 0.27171558 0.81444436 0.022244265
0.024590911 -0.014534106 0.44695017 0.026170257 0.99553716 -0.090669647 0.0002323118
0.035656992 -0.013064824 0.4699752 0.028491359 0.99552929 -0.090053767 0.00028853113
0.026472453 -0.017884936 0.55809939 -0.42569187 0.67641968 0.60103476 0.077135585
-0.024341961 -0.050406951 0.53278792 -0.48524809 0.44512054 0.7525968 0.047617733
-0.0035489774 -0.21440034 0.56745374 -0.52148908 0.14701563 0.8404972 0.0022018333
0.045500726 -0.0049441149 0.53030354 -0.12164873 0.985048 0.12199228 0.04869448
-0.025110265 -0.2114289 0.55463433 -0.52440834 0.12793767 0.84180033 0.0025681215
0.051812679 -0.0097850347 0.49864501 -0.0069506676 0.99985337 -0.015649403 0.01217764
0.14932367 -0.022087405 0.38954908 0.3320556 0.85377181 -0.40101472 0.089257002
0.19864392 -0.080871165 0.41688028 0.94596767 0.10028868 -0.30836239 0.078255832
0.19607502 -0.131137 0.42817473 0.99903023 -0.0029722988 -0.043929677 0.077068917
0.19696185 -0.11548357 0.42455813 0.98677516 0.052458484 -0.15337166 0.086820401
0.1831128 -0.076004446 0.45259595 0.91975808 0.18565829 0.34579772 0.049083799
0.053848065 -0.0068362933 0.52116656 -0.074045137 0.9953382 0.061799143 0.038153868
0.020559307 -0.093964681 0.56554508 -0.50143927 0.11841143 0.85705161 0.0025977665
0.18989399 -0.028606851 0.42943239 0.76654649 0.63201052 0.1138826 0.12727457
0.073282346 -0.011356543 0.49089199 0.058206063 0.99570817 -0.071952879 0.0042257104
0.020180732 -0.02322429 0.55618542 -0.48577714 0.60680652 0.6291315 0.080161348
0.19414555 -0.036880534 0.43261862 0.87983459 0.45004928 0.15279643 0.11435597
-0.037139464 -0.1838441 0.54571736 -0.52242261 0.13529448 0.84188485 0.0031522904
0.0069894353 -0.060102843 0.55018997 -0.49920762 0.38797352 0.77476984 0.045501806
0.19762315 -0.19533059 0.42561275 0.92397517 -0.067970991 -0.37636414 0.069389097
0.0356749 -0.013727054 0.45747522 0.029854238 0.99548209 -0.09013395 0.00017429351
-0.0025543738 -0.0094855782 0.46335027 -0.018378599 0.99830163 -0.055281907 0.01050442
-0.038267806 -0.017922558 0.40396258 -0.16606867 0.97402585 -0.15393163 0.037040289
-0.013386908 -0.0087624155 0.52421284 -0.28161243 0.85903472 0.42749712 0.071311682
0.13700821 -0.16368714 0.53518176 0.85087806 0.05320413 0.52266228 0.00093000254
0.09306705 -0.028973391 0.5883323 0.21371952 0.58728826 0.78065133 0.12906039
0.11749402 -0.15371005 0.57068735 0.69203562 0.095402107 0.71553129 0.035835739
0.051843513 -0.019293942 0.38876808 0.031773396 0.99210596 -0.12131049 0.0041463715
0.074669547 -0.018260771 0.38890281 0.054953139 0.9901495 -0.12877934 0.0060370141
0.041178744 -0.018072093 0.39602914 0.0091947634 0.99474496 -0.10197047 0.00062743039
-0.055719316 -0.014884457 0.42271197 -0.24728809 0.95354819 -0.17203018 0.042235959
0.013658601 -0.0077278661 0.49146503 -0.0576136 0.99541187 0.076393306 0.035528205
-0.0017393128 -0.0061881435 0.51030922 -0.15768594 0.95924222 0.23449811 0.060757384
0.19575429 -0.19746228 0.4359051 0.98849434 -0.0045460896 -0.15118928 0.075814918
0.19840677 -0.088155054 0.41760725 0.94357944 0.038799975 -0.32886538 0.078010887
0.19751455 -0.12650332 0.42011604 0.96213573 0.015310155 -0.27214044 0.075843282
0.060410466 -0.018862192 0.38869092 0.047950059 0.99117613 -0.12357453 0.0051883189
0.19848859 -0.22834498 0.42978027 0.92511332 -0.031505886 -0.37838179 0.074992083
0.10529494 -0.0086431485 0.52063298 0.20645207 0.97797936 0.030558838 0.046107844
-0.042317163 -0.0071939868 0.49189115 -0.30871904 0.91839445 0.24747564 0.08975596
0.20225979 -0.054629888 0.4034844 0.88463932 0.25395742 -0.3910484 0.10390162
0.13048457 -0.081604131 0.53746766 0.8414982 0.15115878 0.51868266 0.010595197
0.11621959 -0.19600159 0.57374811 0.76607502 0.0083628548 0.64269674 0.02990233
0.11422248 -0.11890768 0.57253712 0.66939175 0.081232518 0.73845506 0.035366032
0.12261648 -0.20185156 0.56591922 0.84486735 0.036799777 0.53370863 0.0013648994
0.044006623 -0.0097009502 0.49791226 -0.026833868 0.99963409 0.003403883 0.017633263
0.03161291 -0.01579701 0.41729835 0.012884608 0.99537027 -0.09524703 0.00050749921
0.058376636 -0.017663721 0.40555009 0.027435755 0.99545085 -0.091240466 0.00063264323
0.086984418 -0.017496524 0.4086968 0.054492608 0.99145216 -0.11854624 0.0045498526
-0.081909992 -0.070172936 0.50076497 -0.66221249 0.22381179 0.71511042 0.040811073
-0.06193408 -0.077561341 0.51579207 -0.61660743 0.20579951 0.75989592 0.0324133
-0.068582907 -0.073930174 0.51058686 -0.63427001 0.21563151 0.74243152 0.036524758
0.10572007 -0.017144676 0.43615457 0.043522354 0.99562287 -0.082709774 0.001429923
0.20393836 -0.041207664 0.40318045 0.85435349 0.38872275 -0.34492719 0.11056654
0.1716668 -0.018703535 0.44060272 0.43776414 0.89806199 0.042979985 0.099597692
0.17605197 -0.022568958 0.4196077 0.44580534 0.87695599 -0.17945945 0.1185519
-0.061068691 -0.22280626 0.53911185 -0.67371869 -0.032725442 0.73826295 0.039525576
0.20007122 -0.22745906 0.42557365 0.92132097 -0.011047964 -0.38864577 0.076663963
0.1195466 -0.028904125 0.35280582 0.39900726 0.7036863 -0.58789361 0.10447463
-0.061937522 -0.013782378 0.50059587 -0.4386031 0.78619897 0.43533716 0.10194878
0.14307295 -0.013812363 0.48430946 0.30875769 0.94807816 0.076265529 0.074610204
0.19811688 -0.14759049 0.41840547 0.95435101 -0.10139087 -0.28095192 0.077107817
0.18781908 -0.024276178 0.41363901 0.60915709 0.76028246 -0.22560634 0.12748808
0.01610972 -0.14721431 0.56822574 -0.52072531 0.15249023 0.83999527 0.0021172515
-0.043182828 -0.047661446 0.52170944 -0.47966161 0.45905963 0.74778938 0.054746434
-0.087076105 -0.14234358 0.50873172 -0.86027062 0.08688391 0.50237995 0.077170916
-0.085148171 -0.12381484 0.50805235 -0.81373346 0.083735138 0.57517493 0.057273615
-0.058095928 -0.22185458 0.54028738 -0.66981471 -0.10115182 0.73560625 0.042030163
-0.08036086 -0.065246768 0.50197494 -0.6452561 0.25247219 0.72104257 0.049330059
-0.040459488 -0.17629042 0.54258376 -0.54657882 0.12676764 0.82775694 0.0051414007
-0.056158584 -0.0069254716 0.48589435 -0.36846754 0.8988533 0.23726434 0.094920985
0.081918173 -0.077280045 0.59445685 0.013688846 0.0042615226 0.99989718 0.062688068
0.022149514 -0.13864803 0.57582474 -0.5117256 0.14939785 0.84605974 0.0019900831
0.033680011 -0.097744897 0.57357699 -0.38879868 0.10665738 0.91512835 0.025108049
0.021942401 -0.017306564 0.55548817 -0.44189054 0.68996841 0.57330304 0.07768248
0.006900873 -0.055360701 0.55007404 -0.48055568 0.4506219 0.75233382 0.055917688
-0.084119849 -0.1393988 0.51099765 -0.80856335 0.08324223 0.58249116 0.058637936
-0.0011283534 -0.080270998 0.54961783 -0.51061803 0.13678965 0.84885675 0.0024253028
0.010388885 -0.059359819 0.55175304 -0.48983002 0.39620733 0.77658635 0.047856923
0.025224801 -0.10578837 0.5715763 -0.5026297 0.12895748 0.85482937 0.0029344687
-0.047210529 -0.22641203 0.54651099 -0.59124136 -0.019244643 0.80626512 0.014866333
-0.09960261 -0.21102354 0.50105023 -0.92542845 -0.18838389 0.32877624 0.070924416
0.11126291 -0.11154281 0.57828009 0.61151546 0.049469251 0.78968447 0.048036225
0.092883438 -0.038484085 0.58913863 0.30629328 0.43821913 0.84507304 0.12977017
-0.079321317 -0.17161657 0.51714331 -0.79617798 0.013008165 0.60492253 0.055460658
-0.058543071 -0.052569229 0.51345062 -0.54954112 0.37827474 0.74492478 0.068745323
-0.045544773 -0.1853081 0.54019767 -0.58034158 0.10006581 0.80820203 0.010354008
0.02281435 -0.10149872 0.56889343 -0.50445211 0.12542745 0.85428101 0.0028413006
0.062198177 -0.13477436 0.58764684 -0.023646949 -0.024292346 0.99942523 0.036637053
-0.037738357 -0.12806609 0.51898998 -0.57174563 0.084410153 0.81607717 0.016636647
-0.095809765 -0.1504612 0.52492112 -0.74710751 0.080871463 0.65976536 0.05610149
-0.021124762 -0.084032953 0.54135621 -0.50597686 0.12398169 0.85359001 0.0014436881
0.13431437 -0.19205937 0.54284126 0.84948856 0.04413832 0.52575767 0.00096935336
-0.078016117 -0.20553209 0.52430147 -0.81296808 -0.074422345 0.57753283 0.064857177
-0.041732017 -0.23999891 0.55367994 -0.548917 -0.12147056 0.82700366 0.024967479
0.0038244745 -0.025422752 0.33492184 0.028402146 0.98202229 -0.18661636 0.035783742
0.094478875 -0.016945556 0.41621676 0.052372128 0.99172962 -0.11717328 0.0040587503
-0.066514775 -0.0074406615 0.48061371 -0.46174949 0.86830896 0.18118235 0.10189977
0.015567191 -0.021284342 0.35946602 0.0061060116 0.9886232 -0.15028927 0.013451217
0.070483968 -0.017016681 0.40861511 0.038477797 0.99422622 -0.10016799 0.0015753106
-0.030704342 -0.014604312 0.42100346 -0.11165759 0.98363662 -0.14139169 0.02920435
-0.032611899 -0.012323327 0.44124475 -0.093091868 0.9912284 -0.093810163 0.014743203
0.060548313 -0.023047987 0.35056531 0.068273619 0.97669101 -0.20350279 0.02428936
0.077517614 -0.01860822 0.38169169 0.070398524 0.98719537 -0.14314128 0.010280007
0.15229082 -0.017807372 0.43726102 0.24072225 0.97018057 -0.028326139 0.065638326
0.10059749 -0.017354151 0.42450824 0.047450982 0.99372423 -0.10129447 0.0018037593
0.11914434 -0.016696298 0.44733307 0.084339961 0.99529219 -0.047751263 0.014880497
0.057843786 -0.012978325 0.45393091 0.030718593 0.99575454 -0.08677163 0.0003358195
0.12337024 -0.014608449 0.47017795 0.15018824 0.98865134 -0.0034648634 0.036436684
0.096212059 -0.014854869 0.45950875 0.052880131 0.99644548 -0.065574348 0.0056322482
0.19186199 -0.023856396 0.40761817 0.64766103 0.71248442 -0.27000189 0.12132796
0.16384198 -0.017928923 0.44235092 0.34325913 0.93874276 0.030581899 0.083413556
0.10309145 -0.013017914 0.47621354 0.098575346 0.99443734 -0.037110727 0.01851389
0.076402858 -0.0034883427 0.56016243 0.017864216 0.93358731 0.35790437 0.085208714
0.15137291 -0.02115362 0.39493316 0.30999905 0.87972271 -0.36053941 0.085545868
0.20130001 -0.028549125 0.40462407 0.74866503 0.6084404 -0.26325083 0.12938786
0.18555979 -0.023765428 0.41399342 0.58068633 0.77978885 -0.23395024 0.12621692
0.08038862 -0.052571598 0.59506077 -0.036043055 0.26441392 0.96373558 0.095009468
0.095656335 -0.0057416721 0.5749647 0.18557125 0.81733561 0.54545927 0.10507227
0.0014569693 -0.20041791 0.57090598 -0.52486593 0.15066093 0.83774519 0.0017668882
-0.073123731 -0.16342863 0.52446717 -0.76240861 0.058753282 0.64442313 0.051580355
0.022441508 -0.079919241 0.56442344 -0.49005553 0.14413571 0.8596921 0.0045005232
-0.033650678 -0.0095051816 0.46725953 -0.17833671 0.98306805 0.042109068 0.054485094
0.1046377 -0.0083776433 0.53820497 0.24054506 0.95648396 0.16515565 0.075889811
-0.090581976 -0.033931997 0.48886004 -0.73652142 0.55342364 0.38891977 0.13068154
-0.020820711 -0.1317182 0.54125762 -0.50162947 0.13786036 0.85402715 0.0012224247
-0.0086643267 -0.06470558 0.54248005 -0.51022732 0.30091676 0.80567801 0.028922979
0.023936614 -0.11093303 0.57197523 -0.50346601 0.14077853 0.85246903 0.0034776146
0.17641947 -0.018654568 0.44882265 0.53172666 0.83341992 0.15059246 0.085811004
0.13129056 -0.0067301006 0.50734788 0.25797036 0.96395797 0.06508664 0.055154145
0.048238084 -0.020707507 0.37176523 0.036379755 0.98594487 -0.16306213 0.011463256
-0.060040217 -0.067476928 0.51512045 -0.5706268 0.28724158 0.76933563 0.044371948
0.1725536 -0.022182874 0.38888156 0.4699322 0.75497407 -0.45735985 0.096325256
0.064293817 -0.019794164 0.37549523 0.055981643 0.98567671 -0.15908349 0.012391136
-0.076268651 -0.013464382 0.48962542 -0.52893084 0.78108537 0.33187029 0.12402895
0.045892097 -0.031921424 0.57318574 -0.37852409 0.53944868 0.75214005 0.088986695
-0.06204335 -0.058198091 0.5123862 -0.55829841 0.33708477 0.75807434 0.061078474
-0.072830543 -0.085388146 0.51050293 -0.66362643 0.15167378 0.73252642 0.04064494
-0.049671084 -0.007492085 0.50323492 -0.36098281 0.83934635 0.40643457 0.09967003
-0.060384724 -0.012332312 0.43168443 -0.28515372 0.94311047 -0.17096762 0.045259956
0.034604244 -0.016513167 0.4031688 0.0070039048 0.99511629 -0.098460674 0.00061520294
0.14956398 -0.022226056 0.38895497 0.3384451 0.84982514 -0.40404463 0.088986009
-0.089136191 -0.037846431 0.4912591 -0.67528427 0.49785417 0.54418045 0.11639178
-0.072802342 -0.1094842 0.51374483 -0.72281808 0.084158227 0.68589461 0.053605933
-0.076599188 -0.17683551 0.5200963 -0.79151231 0.0072314562 0.61111045 0.054101542
-0.043080639 -0.037006572 0.3915619 -0.51119792 0.82028884 -0.25652084 0.086719602
-0.086784042 -0.11226119 0.50621408 -0.84381402 0.10150132 0.52694911 0.065477863
-0.093092985 -0.22518666 0.50791025 -0.91203135 -0.070049018 0.4040941 0.078843787
0.1044285 -0.017709998 0.40920374 0.06385266 0.9889608 -0.13371357 0.0089707086
0.012945595 -0.022676315 0.34288892 0.017933255 0.98298335 -0.18281677 0.029565766
0.14017895 -0.022876458 0.37797385 0.29780176 0.84321606 -0.44754988 0.090504296
-0.023340289 -0.019455457 0.37532827 -0.040849857 0.98980904 -0.13641638 0.0030214041
0.0054204566 -0.02414896 0.34142497 0.021578092 0.98399901 -0.17686243 0.029420659
0.020165555 -0.014265966 0.44779697 0.024557769 0.9954505 -0.092061333 0.00026640439
0.070863657 -0.0042978008 0.54218745 -0.0033171168 0.97539657 0.22043248 0.062706605
-0.048109371 -0.0074192798 0.50377357 -0.35076639 0.84253114 0.40878391 0.098384209
0.010271369 -0.0045101084 0.521092 -0.19204991 0.94869548 0.25118464 0.063679203
0.045388088 -0.0058318824 0.52748758 -0.12176416 0.98832715 0.091558471 0.045922395
0.056834769 -0.0079393834 0.51483083 -0.043611761 0.99832594 0.037990861 0.029620362
0.0043936959 -0.025338279 0.33446974 0.027579742 0.98191899 -0.18728179 0.03593174
-0.016527331 -0.0076020295 0.4997927 -0.18656729 0.95278412 0.23957261 0.066208169
0.045831975 -0.0072054663 0.56294262 -0.22929412 0.83585811 0.49876392 0.081802309
-0.045291971 -0.0079261689 0.47601146 -0.29653257 0.94566149 0.13338976 0.079916254
-0.054838967 -0.0070812651 0.49285683 -0.36491752 0.88883239 0.27715033 0.097034514
-0.036547069 -0.006972427 0.49700135 -0.2943072 0.91970521 0.25985691 0.085168116
0.01651635 -0.0074942159 0.49535263 -0.070067719 0.99348432 0.089885809 0.039051879
0.11091063 -0.0095365029 0.53789192 0.28017205 0.94563442 0.16516414 0.079303659
-0.094877012 -0.027484337 0.47825089 -0.77255738 0.60844481 0.18152162 0.13298787
0.037719499 -0.020168684 0.37747335 0.015433955 0.99084872 -0.13409179 0.0059554526
0.19098736 -0.023840878 0.40399441 0.63321108 0.70762432 -0.31354681 0.12345519
-0.075915217 -0.018608488 0.49543938 -0.54482412 0.7130388 0.44129616 0.11836376
0.059836037 -0.0071137068 0.57289827 -0.16324252 0.83190006 0.53037173 0.098125547
0.11099724 -0.0092260456 0.52896184 0.24667896 0.96672153 0.067815594 0.059528194
-0.089237377 -0.023125244 0.48429817 -0.70444387 0.66249973 0.25466225 0.13772424
0.033215471 -0.021164205 0.56333315 -0.4117499 0.6437003 0.64506739 0.080435522
-0.092871614 -0.14782165 0.50210994 -0.90585303 0.082957238 0.41538945 0.087396123
-0.06165538 -0.076626621 0.51578563 -0.61252177 0.20787458 0.7626304 0.032354571
0.0098001389 -0.076219648 0.55491543 -0.51813573 0.17369188 0.83747625 0.0070525683
0.02295862 -0.039649766 0.56036508 -0.4916254 0.51063108 0.70537961 0.071992308
-0.041081339 -0.18508804 0.54274029 -0.54817426 0.12203991 0.82741237 0.0054878267
-0.077234544 -0.17323186 0.51888508 -0.79553586 0.010558526 0.60581458 0.054664161
0.049698241 -0.089419849 0.5776962 -0.34864974 0.065394767 0.93496895 0.029659729
-0.10031641 -0.17159715 0.50086021 -0.92515099 0.013970227 0.37934214 0.088302024
-0.084631108 -0.033063825 0.49301159 -0.67104965 0.56648004 0.4783228 0.12517074
-0.058372505 -0.0070612873 0.48234987 -0.37788069 0.90480173 0.19631653 0.090489253
-0.072262146 -0.11454183 0.51416838 -0.7420395 0.074647531 0.66618693 0.054545727
0.087903544 -0.011636714 0.48422295 0.074706204 0.99519253 -0.063329875 0.0079369964
-0.10260709 -0.17529687 0.5073967 -0.85786992 -0.021712231 0.51340801 0.061129414
0.083952919 -0.012579304 0.47454017 0.056053232 0.9957279 -0.073375478 0.0044898768
-0.057752788 -0.07986062 0.51869166 -0.58591801 0.1838896 0.78923053 0.024568612
-0.097113669 -0.14797486 0.49301344 -0.96132505 0.091893636 0.25963372 0.08676248
0.0082042143 -0.004274623 0.52323121 -0.22807695 0.92558789 0.30210581 0.065785214
0.08370249 -0.065427437 0.59580582 0.045471206 0.13044381 0.99041241 0.080329381
0.021035088 -0.10295787 0.56817502 -0.50349253 0.12738471 0.85455745 0.0028892974
0.0024286127 -0.084492549 0.55275959 -0.51179922 0.11932421 0.85077804 0.0013612782
-0.016006576 -0.053109761 0.53759235 -0.50248075 0.41887107 0.75634658 0.0434677
0.023953404 -0.017292844 0.55651158 -0.4363986 0.68122995 0.5877772 0.0773957
0.010514441 -0.061090816 0.55195332 -0.49158573 0.37353659 0.78664732 0.045275129
-0.0084645553 -0.080266707 0.54593533 -0.50846356 0.14195926 0.84930104 0.0030129289
-0.038869169 -0.13419314 0.53623414 -0.52077883 0.1229485 0.84479177 0.0027371952
-0.047013186 -0.082920991 0.52580523 -0.52376556 0.14858353 0.83880424 0.0057438565
-0.095052958 -0.22315893 0.50569499 -0.92299062 -0.13613379 0.35993877 0.079161733
-0.064842239 -0.0072911293 0.47967547 -0.44175583 0.88203156 0.16392706 0.098473281
-0.08366888 -0.1330556 0.50995934 -0.80398726 0.088907473 0.58796251 0.055455815
0.16397177 -0.017365405 0.45572165 0.30822733 0.94845378 0.073697418 0.069754876
-0.097144037 -0.067772649 0.48998499 -0.80849874 0.19507584 0.55522531 0.059355225
-0.098344415 -0.11599505 0.49678862 -0.91946536 0.11290609 0.37661079 0.067275338
-0.080904819 -0.23400488 0.51264352 -0.88293195 -0.10215063 0.45825368 0.064746432
-0.094851837 -0.052320052 0.49109167 -0.70410448 0.2987152 0.64420968 0.073181927
-0.08939229 -0.23365009 0.50704688 -0.91972995 -0.08559607 0.38310573 0.064612709
0.12272542 -0.010493554 0.51907951 0.27099293 0.96097255 0.05562856 0.06133895
0.057365242 -0.0037110387 0.55897355 -0.12931202 0.90468574 0.40598303 0.082551122
0.072044544 -0.0029742199 0.57100654 -0.061183166 0.87557364 0.47919461 0.095595419
0.038217839 -0.045464855 0.57211846 -0.40910363 0.40869224 0.81584609 0.066270404
0.010929643 -0.061573606 0.55231458 -0.49219951 0.371923 0.7870279 0.04564267
-0.045359254 -0.013610568 0.50668192 -0.35714659 0.80546409 0.47294173 0.096934579
-0.067765296 -0.12227193 0.51618433 -0.7294544 0.078724712 0.67948413 0.051188249
-0.076109007 -0.2063483 0.52624089 -0.80052346 -0.082991175 0.59352726 0.061357725
-0.022614956 -0.22222872 0.55778217 -0.52604717 0.12861535 0.8406738 0.0028403932
-0.057138588 -0.23477957 0.54524499 -0.61652523 -0.083221532 0.78292459 0.022302317
-0.058705773 -0.029746436 0.50690144 -0.47674364 0.63288993 0.61005402 0.1000965
-0.10227392 -0.17934354 0.50373137 -0.90425289 -0.02225443 0.4264169 0.076941438
-0.099155501 -0.16993633 0.49557266 -0.94676882 0.020183496 0.32128081 0.086962961
-0.094309054 -0.029188145 0.4800019 -0.77636254 0.58789283 0.22725156 0.13389423
0.0027846345 -0.031259853 0.30365112 0.090204217 0.90414381 -0.417597 0.14401405
-0.079122759 -0.069409266 0.50303119 -0.65289253 0.22618723 0.7228905 0.04078389
-0.096800014 -0.078849465 0.48723027 -0.9009394 0.13161479 0.4135043 0.071826592
-0.043794133 -0.23470162 0.55011767 -0.56997794 -0.08731997 0.81700695 0.01927655
-0.086787358 -0.14091425 0.51272923 -0.78103113 0.076862849 0.61974388 0.053524274
-0.0080248164 -0.0098970328 0.45296082 -0.019604597 0.99558473 -0.091797158 0.0068637296
0.014230169 -0.022330483 0.34606031 0.015351205 0.98338044 -0.18090697 0.027443269
-0.031723835 -0.011861213 0.44531235 -0.097452804 0.99119437 -0.089648403 0.015659213
0.17914227 -0.019520793 0.44507933 0.60798973 0.78202885 0.13703765 0.094835594
0.13800836 -0.01191093 0.50638968 0.34947908 0.92891616 0.1223888 0.072184466
0.14390314 -0.018076742 0.42963743 0.17617932 0.97958064 -0.096864216 0.049267918
0.16715154 -0.017913863 0.45960912 0.37046263 0.92231172 0.10999355 0.07061103
0.16484746 -0.017517695 0.45907068 0.33793169 0.93675631 0.091048114 0.070448279
0.1694892 -0.018198952 0.44595066 0.38446662 0.92098558 0.063015483 0.088098936
-0.068829939 -0.0077730184 0.48046666 -0.48015499 0.86015886 0.17198244 0.1069508
0.058133092 -0.020943984 0.3681483 0.048405927 0.98429465 -0.16976756 0.012039303
-0.029069906 -0.014321329 0.42352077 -0.10581809 0.98464006 -0.13887544 0.027854122
0.096781991 -0.0081502646 0.53216624 0.17107168 0.97900003 0.11087558 0.06159969
0.14619613 -0.018143034 0.43855283 0.20951061 0.97769606 -0.014687421 0.057182517
0.11002889 -0.0088732773 0.52044785 0.23891015 0.97028995 0.038201921 0.052436333
0.14594528 -0.021210192 0.39143053 0.28131503 0.88755733 -0.36483383 0.0813419
0.13244708 -0.010132037 0.51045245 0.33726448 0.93660814 0.094962612 0.069250233
0.11241092 -0.0097431205 0.53275973 0.26580954 0.95905465 0.097772218 0.067793407
0.1067986 -0.0088011939 0.52819347 0.21830343 0.97342956 0.069126487 0.056440108
0.045847844 -0.018693514 0.39273748 0.018331535 0.99410683 -0.10684405 0.0012766914
0.18952359 -0.024719628 0.41226247 0.64466983 0.72862637 -0.23131014 0.1277889
0.080330759 -0.022654908 0.3484495 0.16094401 0.94277215 -0.29202354 0.05990776
0.094403766 -0.0058606626 0.57939136 0.15213391 0.81942946 0.5526216 0.10804269
0.17692266 -0.022049308 0.39786035 0.49229982 0.77693266 -0.39244929 0.10688124
0.15177155 -0.020440074 0.40391913 0.28626138 0.91481364 -0.28490436 0.080402397
0.19057362 -0.026231568 0.41797617 0.69642919 0.70147538 -0.15138878 0.13403307
0.095013745 -0.020032393 0.38510966 0.10568731 0.97869158 -0.17604847 0.028104419
0.12950538 -0.014748494 0.46871334 0.17974201 0.98360771 0.014447353 0.044260863
0.101133 -0.0077989991 0.54586613 0.22887093 0.93985415 0.25355938 0.089351594
0.089291967 -0.021246748 0.35758641 0.15635237 0.94619411 -0.2833207 0.058829799
0.055447374 -0.13015096 0.58905387 -0.11083929 0.0061774808 0.99381912 0.037895299
-0.081569649 -0.06405101 0.50117964 -0.64651823 0.25801799 0.71794206 0.051365111
-0.084857419 -0.13668597 0.51028728 -0.82404792 0.088148884 0.55962026 0.060700759
0.064598344 -0.0026977835 0.55709785 -0.099852942 0.92479861 0.36711991 0.081506409
0.029465063 -0.16976337 0.58543831 -0.44157165 0.12346563 0.88869047 0.009060448
-0.087087087 -0.20152402 0.51901102 -0.84340388 -0.075238265 0.53198588 0.068677619
0.029912822 -0.031032324 0.56379175 -0.45533025 0.56339914 0.68938798 0.075620577
-0.081657253 -0.066091999 0.50105286 -0.65090203 0.24608025 0.71817201 0.047958046
-0.085733846 -0.012281436 0.48023748 -0.61315316 0.76474774 0.19800012 0.1266354
0.064945363 -0.0026826099 0.5571866 -0.090427123 0.92625296 0.36589408 0.080257118
0.029577464 -0.16951734 0.58544773 -0.44157165 0.12346563 0.88869047 0.009060448
0.029411608 -0.030331582 0.56334603 -0.45646182 0.56554788 0.6868757 0.075708076
0.19091915 -0.024819542 0.41100857 0.65196216 0.71924961 -0.24005297 0.12414532
0.16801701 -0.017792063 0.44897652 0.36508989 0.92791808 0.075348355 0.07991568
-0.028618598 -0.014309821 0.42304644 -0.10710255 0.98453289 -0.13865103 0.028719192
-0.028877342 -0.011311188 0.4485167 -0.09445928 0.9915784 -0.088598736 0.016128965
-0.021886278 -0.0089717982 0.47723016 -0.14255817 0.98671454 0.0779204 0.0532258
-0.044624604 -0.015938785 0.42091697 -0.17122538 0.97299993 -0.15476732 0.033243675
-0.038971342 -0.0069437991 0.49819511 -0.30554673 0.91142511 0.27558187 0.086663105
-0.061154917 -0.071635768 0.51511848 -0.58841008 0.24586876 0.77027404 0.036153216
-0.067791402 -0.11566567 0.51597577 -0.72874075 0.079604104 0.68014711 0.052592129
-0.029791493 -0.0081003373 0.48610872 -0.21948992 0.9598735 0.17454828 0.075111784
0.17854291 -0.019620473 0.44363746 0.59415358 0.79335201 0.13256742 0.10023706
0.076737054 -0.0035668614 0.55926639 0.015416082 0.93928146 0.34280097 0.081755109
0.14910695 -0.017903365 0.43667713 0.22598098 0.9737289 -0.028013127 0.063162677
0.10524005 -0.017442917 0.41138372 0.0626342 0.98915833 -0.1328263 0.0087956823
0.13765833 -0.010065736 0.50526941 0.34372234 0.93130571 0.12051809 0.072251782
0.010351501 -0.015347908 0.41641235 -0.0032748326 0.99436259 -0.10598266 0.0018856882
0.016728144 -0.014747603 0.43688959 0.0055599608 0.99488503 -0.10086102 0.0016349929
0.097805895 -0.0081927981 0.53166884 0.18097444 0.97782415 0.10539553 0.060485978
0.068223983 -0.017755987 0.40215817 0.049081381 0.99290812 -0.10827967 0.0030403472
0.14857617 -0.020739306 0.3962023 0.26815429 0.90991759 -0.31645414 0.073277451
0.10348699 -0.01795751 0.40663171 0.06928242 0.98775625 -0.13977653 0.011827871
0.09807948 -0.0075800125 0.54619598 0.19455308 0.94546664 0.26123157 0.08926709
0.065084994 -0.0025969646 0.55474198 -0.081232563 0.93445033 0.34670421 0.078563184
0.043365214 -0.0049281218 0.52917266 -0.13656329 0.98504907 0.10501818 0.04775561
0.033307761 -0.002343304 0.54879159 -0.26448718 0.89644372 0.35557735 0.070277855
0.069220625 -0.0026396939 0.56228882 -0.06444791 0.92696708 0.36956546 0.086878203
0.062551469 -0.0040367641 0.5418582 -0.065889768 0.96824759 0.24115349 0.0706653
-0.03468588 -0.0094678635 0.46704432 -0.19264778 0.98033369 0.042809151 0.056455079
0.10456577 -0.01789391 0.42510825 0.052347366 0.99266386 -0.10898741 0.0030709917
0.0075174514 -0.0051839626 0.53153461 -0.28679195 0.87893867 0.38107365 0.068920799
-0.055434629 -0.0071132467 0.49406186 -0.37147716 0.88365275 0.28489065 0.097041301
0.14587046 -0.026825819 0.3737416 0.38745767 0.73547161 -0.5558399 0.097987197
0.095301598 -0.016307639 0.43591726 0.033612043 0.99646074 -0.077046886 0.00040568077
0.094681054 -0.019999295 0.37104568 0.1450175 0.95660782 -0.25272804 0.054467473
0.017116573 -0.012414658 0.46276125 0.02327068 0.9961524 -0.084492318 0.00074670865
0.033416782 -0.016658343 0.40146202 0.0038224163 0.99495196 -0.10027938 0.00087573094
0.052893884 -0.0077586514 0.51532537 -0.068905473 0.99603754 0.056225862 0.035707254
0.1889815 -0.02502309 0.41903827 0.67158431 0.72704768 -0.14274479 0.13381456
-0.039072588 -0.0069346782 0.49961415 -0.31445691 0.90756857 0.27827343 0.085284889
-0.048395824 -0.007514914 0.48075733 -0.33267412 0.92681783 0.17417444 0.085750654
0.17316656 -0.022230748 0.38736746 0.48010063 0.74294817 -0.46640262 0.096641913
0.13863172 -0.027008662 0.36868119 0.3539505 0.74084938 -0.57084262 0.10311347
0.0077611483 -0.015663076 0.40778226 -0.0098894387 0.99309814 -0.11686885 0.0022286053
-0.014027325 -0.014839908 0.41929671 -0.024002971 0.99327683 -0.11324728 0.0072432761
0.16188042 -0.031779505 0.51402229 0.80283326 0.43529615 0.40740156 0.059276957
0.12885581 -0.01884548 0.42809188 0.088939272 0.98849416 -0.12234812 0.015673568
0.066767044 -0.0038017123 0.54129797 -0.026414266 0.97597587 0.21627176 0.063337535
0.15457331 -0.017760441 0.4360581 0.27357313 0.96134943 -0.031064166 0.071893767
0.17777845 -0.022589123 0.41105402 0.45031831 0.83152479 -0.32523829 0.12585346
-0.021399893 -0.01412996 0.42506918 -0.034173004 0.9926011 -0.11651254 0.0085498039
0.097382143 -0.017404782 0.41501904 0.057592575 0.99075997 -0.12279151 0.0054686735
0.044256777 -0.0068846466 0.56181061 -0.23644798 0.83418435 0.49822563 0.081415966
-0.027351309 -0.014980824 0.41578045 -0.10387304 0.98498797 -0.13787331 0.029210912
-0.030779792 -0.013820425 0.42901641 -0.10317965 0.98539311 -0.13547871 0.025525706
-0.033043724 -0.011010954 0.45024893 -0.11051674 0.99163961 -0.066610664 0.024004148
-0.02627722 -0.010849738 0.4486748 -0.086161047 0.99220622 -0.090016969 0.014926191
-0.058645241 -0.007053616 0.4820348 -0.3804554 0.90490526 0.19078831 0.090946168
0.068748586 -0.017932514 0.39860144 0.050342675 0.99267536 -0.10982416 0.0031599493
0.046467703 -0.0047186879 0.5319187 -0.11938726 0.98275763 0.14118795 0.051556416
-0.041109744 -0.0069883759 0.50211412 -0.32478631 0.88361955 0.33723941 0.088003859
-0.094082437 -0.029113818 0.48037413 -0.77636254 0.58789283 0.22725156 0.13389423
0.0088072112 -0.015260657 0.42149734 -0.001551004 0.99441987 -0.10548355 0.0018465633
-0.016187947 -0.022232983 0.36032349 -0.046044845 0.99061197 -0.12871613 0.0027065077
0.14635547 -0.018434605 0.42423171 0.19030972 0.97315568 -0.12942335 0.051098179
0.037966091 -0.020257946 0.37663841 0.017689768 0.98965514 -0.14237203 0.0081202863
-0.09673728 -0.15199366 0.48916653 -0.97714424 0.10140482 0.18683174 0.08593569
-0.00092343177 -0.012358039 0.44120196 0.00040492057 0.99442625 -0.1054342 0.0027919512
0.020883812 -0.020081853 0.37290487 -0.0083158491 0.99162233 -0.12890317 0.0038464498
0.069245689 -0.01686242 0.410126 0.037183024 0.99449539 -0.097960494 0.0012850164
0.045193702 -0.0076100426 0.5182209 -0.10618117 0.99093348 0.082318395 0.042625792
0.0087206084 -0.0044128308 0.52216166 -0.2206382 0.93210876 0.28721443 0.065543339
0.097395264 -0.0059061968 0.5711568 0.20888789 0.8203426 0.53235686 0.10284713
0.10180106 -0.0075374101 0.560736 0.25382265 0.85359198 0.45492283 0.10758976
-0.0017427159 -0.0051735421 0.52435619 -0.26433444 0.88776124 0.37683851 0.069169343
0.06873925 -0.0064476859 0.5266369 -0.00033962677 0.99648631 0.083755456 0.037322536
-0.028465901 -0.014418692 0.42179713 -0.10905235 0.98404652 -0.14057052 0.028612172
0.012142585 -0.0079810936 0.4916676 -0.060297325 0.9947471 0.082719572 0.036624063
0.0025724864 -0.019954544 0.36803779 -0.027143983 0.99198276 -0.12342395 0.0023495597
0.017204329 -0.017930504 0.38660029 -0.019633073 0.99313474 -0.1153169 0.0019897488
0.019389305 -0.0038695056 0.52630788 -0.19850965 0.95009398 0.2406559 0.063545763
0.015261443 -0.013048935 0.45777795 0.02287893 0.99573761 -0.089348078 0.00042255793
-0.021498427 -0.0090654334 0.48113808 -0.14996745 0.98308051 0.10517897 0.057733566
-0.021854455 -0.02010675 0.37015966 -0.041819599 0.98995978 -0.13502155 0.0030197855
0.060904488 -0.021145446 0.36583143 0.050621513 0.98396379 -0.17103377 0.012271298
0.12132195 -0.021587014 0.37364984 0.26943183 0.87771404 -0.39626315 0.090631649
0.089343995 -0.0089214891 0.52288085 0.10135461 0.99402899 0.04041715 0.039533872
0.0010745662 -0.010862176 0.45632511 0.0041272584 0.99598598 -0.089413613 0.0028363275
0.092025355 -0.016360335 0.42571113 0.039454196 0.99489301 -0.092904419 0.00090297865
-0.07321392 -0.011128556 0.48944274 -0.48942134 0.81846374 0.30097163 0.1143769
0.020511808 -0.01484147 0.44193798 0.019315695 0.99543816 -0.093433179 0.0004376221
-0.094710343 -0.030160578 0.47914225 -0.79615504 0.56961358 0.20415053 0.13047507
0.094806768 -0.022602348 0.35357693 0.21342018 0.91498786 -0.34241652 0.080384627
0.052300148 -0.0097139748 0.49945539 -0.0085873986 0.99991274 -0.010040401 0.013110861
0.16908032 -0.018194608 0.4446353 0.37411141 0.92571604 0.055591296 0.087114774
0.027807871 -0.0054230099 0.54889691 -0.32668525 0.85479873 0.40323189 0.070042089
-0.05139472 -0.0068387599 0.48519263 -0.35074434 0.90902394 0.22506444 0.090982065
0.0020062355 -0.026175082 0.33326551 0.02622278 0.98205644 -0.18675506 0.035959288
0.19444263 -0.15449324 0.40313527 0.80934465 -0.09251792 -0.58000147 0.054044869
0.0041080201 -0.0086036399 0.48955566 -0.054144658 0.99569058 0.07528998 0.036379125
0.14192097 -0.069318652 0.36547625 0.52565533 0.20416357 -0.82583511 0.055009514
0.12191524 -0.18252352 0.36328501 0.52194244 -0.078002252 -0.84940672 0.0018032041
0.14027812 -0.096239991 0.36686453 0.53904116 -0.010785381 -0.84221035 0.006512586
0.14934441 -0.24699804 0.38687629 0.59914476 -0.10077217 -0.79427356 0.038113847
0.1238701 -0.26915887 0.37400657 0.50546181 -0.3042804 -0.80741674 0.10076404
0.13165784 -0.033951681 0.35916165 0.417703 0.62859303 -0.65604502 0.1077311
0.08735273 -0.0073500359 0.53809083 0.095411219 0.97902584 0.18001419 0.066520818
0.1068537 -0.039833728 0.34445474 0.44311687 0.58659303 -0.67790574 0.10640131
0.04890861 -0.084248282 0.31116033 0.3633202 0.12586907 -0.92312258 0.070551157
-0.052625768 -0.024966918 0.41348612 -0.38691258 0.89015538 -0.24067011 0.068137079
-0.05032032 -0.015480582 0.42322007 -0.20944311 0.96473914 -0.15941171 0.039340291
0.19881655 -0.19558972 0.41782588 0.84812623 -0.097504266 -0.52074432 0.055657081
-0.012444511 -0.03032193 0.3401247 -0.026512127 0.9884904 -0.14894216 0.012734609
0.1602876 -0.15286312 0.38734785 0.63892001 -0.062338285 -0.76674318 0.024854703
0.16590495 -0.19900979 0.39243141 0.68887174 -0.11821241 -0.71517932 0.031811301
-0.039845828 -0.026949037 0.38730314 -0.2549426 0.94942862 -0.18327452 0.055539899
0.14087366 -0.27384365 0.38711944 0.52944249 -0.35185328 -0.77193898 0.10868955
0.029034203 -0.027703624 0.30504209 0.063990079 0.90096003 -0.42915773 0.11385553
-0.039446708 -0.024699077 0.38823366 -0.25061175 0.95106548 -0.18074341 0.055075638
0.014112641 -0.03007042 0.29018128 0.053036492 0.79270434 -0.60729474 0.16135067
0.14063403 -0.042539913 0.36506602 0.45512342 0.54189873 -0.7065469 0.099240482
0.0038374914 -0.029890727 0.31082997 0.076977044 0.92607254 -0.36941066 0.11985
0.12610425 -0.24565181 0.37722465 0.52857649 -0.14527637 -0.83636218 0.045135822
0.16925545 -0.071287222 0.38669154 0.73430765 0.1788996 -0.65481848 0.071998201
0.18433525 -0.1172299 0.39505407 0.77507937 -0.0020026572 -0.63186073 0.056399003
0.042120561 -0.0992359 0.30716172 0.38533249 -0.022580884 -0.92250144 0.016001254
0.11737491 -0.09369427 0.35556597 0.50792521 0.016713586 -0.86123902 0.014120712
0.12498179 -0.24400872 0.37564969 0.52708942 -0.12735149 -0.8402133 0.039740387
-0.043146648 -0.18723971 0.39144325 -0.87493527 -0.0023062127 -0.48423445 0.0016641149
-0.057239108 -0.15479094 0.41177082 -0.87138897 -0.03314022 -0.48947209 0.002486947
0.071420066 -0.20067376 0.33591479 0.45904362 -0.087097652 -0.88413399 0.0046344846
0.12409779 -0.26954195 0.37417808 0.50546181 -0.3042804 -0.80741674 0.10076404
0.11860564 -0.23388727 0.36378229 0.52760208 -0.070488915 -0.84656215 0.013500402
0.11927591 -0.17864475 0.36142877 0.52078938 -0.075564153 -0.85033435 0.0017362586
0.071987972 -0.12461928 0.32905737 0.49802494 -0.079608366 -0.86350077 0.0023293933
0.19376518 -0.26048082 0.42210704 0.88867265 -0.19925879 -0.41298524 0.096450604
0.1603336 -0.15115035 0.38750339 0.63982064 -0.061434019 -0.76606494 0.025770737
0.19382688 -0.19111483 0.41369352 0.81865513 -0.098806389 -0.56572181 0.048940018
0.19414471 -0.14935906 0.40430424 0.8315379 -0.084285848 -0.54903603 0.05919214
0.19719228 -0.19411066 0.42022923 0.88380569 -0.091930956 -0.45873338 0.064568527
0.17458278 -0.1790884 0.39449021 0.70284361 -0.11217109 -0.70244461 0.033405911
0.14333515 -0.25684485 0.38567251 0.57221001 -0.16504017 -0.80332899 0.06343393
0.14778212 -0.24235235 0.38521984 0.59275633 -0.105101 -0.7984947 0.03142551
0.1289617 -0.23200636 0.37366295 0.52730399 -0.073167697 -0.84652054 0.011643842
0.15649273 -0.25459859 0.39185804 0.63131905 -0.13688308 -0.76334745 0.053424835
0.13845165 -0.26616895 0.3839213 0.53227276 -0.26202494 -0.80500227 0.091155253
0.1011475 -0.25214645 0.35754114 0.49536887 -0.18330072 -0.84912336 0.062779233
0.063490599 -0.19777532 0.33038288 0.42595783 -0.086094156 -0.90063751 0.0079399711
0.15514034 -0.1985739 0.38541344 0.63259691 -0.098689876 -0.76816756 0.01714883
0.10735501 -0.12958698 0.35015503 0.53209108 -0.061083596 -0.84448081 0.00097151229
0.0521942 -0.11694209 0.31943706 0.46186352 -0.11094688 -0.87998456 0.0072179623
0.086067773 -0.22732854 0.34720066 0.50550944 -0.065072417 -0.86036372 0.0083274161
0.13254638 -0.20733888 0.3722555 0.53629822 -0.082333498 -0.84000319 0.0018173826
0.18901192 -0.1034957 0.39595038 0.81033683 -0.026532345 -0.58536327 0.067730114
0.16237995 -0.19341296 0.38919732 0.66445476 -0.10602541 -0.73976922 0.024678592
0.030769654 -0.17714396 0.31009227 0.18676677 -0.095598556 -0.9777419 0.057298396
0.10620878 -0.12015635 0.34904024 0.52600205 -0.063840203 -0.84808391 0.001101299
0.021613179 -0.18426242 0.30956966 -0.0043803011 -0.071999319 -0.99739504 0.073061511
0.18429862 -0.13519114 0.39436701 0.75255513 -0.031497251 -0.65777558 0.044811286
0.10047242 -0.17082223 0.34864303 0.52158087 -0.067659475 -0.85051489 0.0010740254
0.1018238 -0.16829115 0.34901041 0.52539212 -0.064722806 -0.84839499 0.0010586069
0.11630753 -0.20150407 0.35922092 0.52649957 -0.07968276 -0.84643304 0.0013343352
0.11557277 -0.29349619 0.37284616 0.44490647 -0.60713953 -0.65836143 0.13796957
0.10937709 -0.1554781 0.35329586 0.52630657 -0.064117 -0.84787405 0.001066604
0.11653188 -0.25086772 0.36852217 0.51478571 -0.16184933 -0.84190291 0.056576777
0.12406462 -0.16057232 0.36407933 0.51638448 -0.068101019 -0.85364467 0.0013663846
0.03476413 -0.17915259 0.31187078 0.20931774 -0.06693051 -0.97555435 0.063209072
0.11621073 -0.24163762 0.36633599 0.51886147 -0.10306168 -0.84862304 0.028201813
0.017734839 -0.16944487 0.30912316 -0.058532447 -0.083678901 -0.99477226 0.068965413
0.10025376 -0.11647645 0.34369457 0.52645892 -0.059969295 -0.8480829 0.00075123599
0.11334265 -0.16829029 0.35729876 0.52613413 -0.067616299 -0.8477093 0.0010201097
0.15310016 -0.020662999 0.40280253 0.29441714 0.90991509 -0.29218665 0.081203215
0.20389646 -0.028970579 0.40354067 0.76489043 0.5816831 -0.27674422 0.13080251
0.17660074 -0.022332165 0.38430712 0.51558715 0.70603865 -0.48546812 0.097769029
0.14508124 -0.079408772 0.36960122 0.54850948 0.086870871 -0.83161932 0.027210062
0.073865324 -0.012551998 0.47174689 0.038328536 0.99556124 -0.085957736 0.00086065155
0.020919589 -0.027262388 0.31130177 0.04567574 0.92172718 -0.38513994 0.10478595
0.12104399 -0.02770602 0.35453314 0.39260104 0.72628468 -0.56424725 0.10313128
0.11098052 -0.023187816 0.3609409 0.29096344 0.86812115 -0.4021267 0.090619087
-0.025674138 -0.020523904 0.36908308 -0.045572501 0.98946291 -0.1374276 0.0031018206
0.065368026 -0.022016674 0.35759258 0.072826244 0.97518617 -0.20906544 0.023933921
-0.092927672 -0.13300003 0.50229275 -0.91639096 0.082323365 0.39172763 0.076222673
0.0068814293 -0.02997365 0.30703315 0.076328911 0.91857642 -0.3878032 0.12477139
0.064505719 -0.027676927 0.32019088 0.15459152 0.87835687 -0.45231688 0.08189062
0.032287467 -0.027525855 0.30578125 0.068669587 0.90024102 -0.42994264 0.10912713
-0.048377432 -0.020670485 0.40367925 -0.29864734 0.93415165 -0.19537257 0.054149963
-0.0071755676 -0.029931713 0.33189884 0.033058375 0.98531806 -0.16749763 0.029567119
0.10130167 -0.02077233 0.36816305 0.18622003 0.93782419 -0.29292977 0.068805031
0.014181959 -0.029543415 0.28405517 0.016648825 0.65106976 -0.7588352 0.17243455
0.042262908 -0.26318201 0.32639229 0.2488578 -0.23799947 -0.93884283 0.11635014
0.022182252 -0.026017576 0.31562948 0.044861306 0.92944318 -0.36622784 0.097604558
0.061386287 -0.029509993 0.31741098 0.16234121 0.86592937 -0.4730874 0.087622188
0.10209134 -0.037491232 0.34189615 0.42486435 0.66176182 -0.6177066 0.11006777
0.14051233 -0.073743843 0.36430493 0.5180586 0.14883149 -0.84229714 0.040376075
0.087087125 -0.025456462 0.33283782 0.25083464 0.88669008 -0.38841054 0.08186017
0.044542234 -0.0277075 0.30812058 0.097845018 0.89062285 -0.44409162 0.10011468
0.19231382 -0.079519644 0.39411283 0.80691022 0.065299973 -0.58705348 0.055604275
0.062622972 -0.27635747 0.3364445 0.39245552 -0.34016961 -0.85455441 0.11629853
0.092244491 -0.019479187 0.37566689 0.11240052 0.97164971 -0.20799747 0.036659017
0.013815557 -0.23609595 0.31469321 -0.082137056 -0.050190639 -0.99535638 0.07548961
0.12092486 -0.03838712 0.35003451 0.45531523 0.55584806 -0.69550049 0.10142626
0.14060418 -0.1046657 0.36993203 0.54310453 -0.056333117 -0.83777332 0.0034723629
0.14271502 -0.1940818 0.37706983 0.55585688 -0.089952976 -0.8263967 0.0051593962
0.15577392 -0.18181758 0.38423523 0.63204491 -0.088595524 -0.76985067 0.017572444
0.11380791 -0.094652198 0.35271358 0.50394559 0.02264531 -0.86343855 0.014731546
0.042322505 -0.099606954 0.30727586 0.38833776 -0.026540153 -0.92113483 0.015622161
0.059309516 -0.0080921836 0.51382327 -0.025024999 0.99934816 0.026018647 0.02480896
0.058379073 -0.01312109 0.45398349 0.031075174 0.9957515 -0.086679526 0.00033881108
0.058095235 -0.067820169 0.31532705 0.38773558 0.31241104 -0.8672142 0.10515674
0.14351007 -0.059689645 0.36741841 0.50659889 0.29011264 -0.81190652 0.072520375
0.14328033 -0.17638536 0.37574676 0.55561632 -0.076839365 -0.82788056 0.0047156131
0.040431969 -0.094536833 0.30632758 0.36303872 -0.00029096863 -0.93177402 0.02677319
0.098491207 -0.056042716 0.34380561 0.48552844 0.35429347 -0.79921103 0.10248887
0.14043432 -0.095649101 0.3667959 0.53970295 -0.006157842 -0.841833 0.0073873024
0.11236382 -0.091070347 0.35112432 0.49894735 0.042038701 -0.86561203 0.019925913
0.013205132 -0.029476274 0.30269602 0.06102962 0.90423203 -0.42265818 0.12721637
0.1124305 -0.028337371 0.35077018 0.36487323 0.75300932 -0.54758054 0.10656582
0.055027805 -0.017982533 0.40247989 0.026536731 0.9952094 -0.094095767 0.00075986807
0.072577834 -0.26604065 0.34084544 0.42372119 -0.27859178 -0.86188573 0.089706279
0.036589969 -0.21418552 0.31718662 0.026723292 -0.18882212 -0.98164767 0.066123806
0.13662961 -0.12307884 0.37108597 0.53915739 -0.068042859 -0.83945191 0.0033328973
0.050179191 -0.084805511 0.31764448 0.37617525 0.13341254 -0.91689324 0.070899978
0.1119066 -0.25111073 0.36340615 0.50338709 -0.147746 -0.85133576 0.051688723
0.14147526 -0.085921831 0.36644495 0.54232359 0.039794575 -0.83922666 0.017123155
0.16106504 -0.15078887 0.38834074 0.64160341 -0.064678207 -0.76430476 0.025742333
0.033958819 -0.24608247 0.31563938 0.22680415 -0.09896674 -0.96889913 0.082782969
-0.089829125 -0.2364084 0.50362027 -0.9388029 -0.11890952 0.32327974 0.065537497
0.029618196 -0.2057434 0.31466526 0.022963164 -0.18740453 -0.98201442 0.069360077
0.14999878 -0.28800645 0.39285123 0.52875376 -0.48562548 -0.69612312 0.11711624
0.021815216 -0.16647272 0.30764523 0.057600796 -0.095819212 -0.99373078 0.063256636
0.079293765 -0.024638316 0.33416149 0.16313148 0.93855429 -0.30414441 0.057640616
