# .PCD v0.7 - Point Cloud Data file format
VERSION 0.7
FIELDS x y z normal_x normal_y normal_z curvature
SIZE 4 4 4 4 4 4 4
TYPE F F F F F F F
COUNT 1 1 1 1 1 1 1
WIDTH 393
HEIGHT 1
VIEWPOINT 0 0 0 1 0 0 0
POINTS 393
DATA ascii
0.038601466 -0.54704154 0.37937516 0.32370895 -0.45119151 -0.83164823 0.16486758
0.044482887 -0.54528409 0.3778635 0.48935503 -0.40252501 -0.77363116 0.15006621
0.053037416 -0.5424192 0.3743532 0.64332169 -0.34365189 -0.68413496 0.11108744
0.037483558 -0.54632169 0.38540253 0.41520372 -0.46150696 -0.78397518 0.16930623
0.046120048 -0.54480952 0.38517678 0.53378826 -0.41448125 -0.73707223 0.14912242
0.052308477 -0.54337072 0.3861185 0.60033637 -0.35329705 -0.71747994 0.13453168
0.055274498 -0.54023647 0.38672584 0.63627481 -0.30456489 -0.70879805 0.12674664
0.026441559 -0.54650998 0.3972199 0.37844026 -0.52739108 -0.76068497 0.17845465
0.036459759 -0.54628569 0.39306429 0.46635845 -0.46252945 -0.75403994 0.15810651
0.047002655 -0.54490763 0.3925398 0.51969159 -0.39692652 -0.75655144 0.15476342
0.055635501 -0.5436517 0.39586443 0.64630789 -0.30260015 -0.7005136 0.13625559
0.059937645 -0.54091245 0.39733365 0.66018331 -0.28113243 -0.69650739 0.13478392
0.001299143 -0.54650998 0.40699849 -0.090500996 -0.78823692 -0.60868067 0.18651047
0.014436945 -0.54650998 0.40858418 0.19687395 -0.68336833 -0.70302796 0.19854693
0.025864374 -0.54650998 0.40370327 0.43850178 -0.53449827 -0.72251493 0.1730673
0.033881493 -0.54646283 0.40726548 0.51419622 -0.43835658 -0.73718774 0.16388558
0.044394016 -0.5456295 0.40400526 0.58565599 -0.35315421 -0.72958153 0.15317257
0.055812944 -0.54406732 0.4035911 0.63494253 -0.31471297 -0.7055521 0.14219327
0.061081462 -0.54193938 0.40627211 0.68407911 -0.27324742 -0.67629254 0.13057874
0.065613501 -0.54023015 0.41225874 0.70733142 -0.25707909 -0.65847754 0.12394104
-0.0042827725 -0.54650998 0.41769895 -0.20755929 -0.82683223 -0.52275008 0.16906016
0.0042704102 -0.54650998 0.41477141 0.03531241 -0.9055903 -0.42268103 0.17994876
0.013174545 -0.54650998 0.41483554 0.1724696 -0.83400911 -0.52410209 0.19297689
0.029201429 -0.54650998 0.41602531 0.50440365 -0.51615113 -0.69221747 0.17690894
0.035250586 -0.54649341 0.41613781 0.56630319 -0.40471682 -0.71798676 0.16334549
0.043953069 -0.54624194 0.41618839 0.58953816 -0.35083327 -0.72757179 0.15433113
0.054952569 -0.54488099 0.41772431 0.61791778 -0.33474433 -0.71142381 0.14877692
0.064124547 -0.54343975 0.41568184 0.70436472 -0.26897871 -0.65690249 0.12657461
0.070116408 -0.53999209 0.41979793 0.74362665 -0.22944495 -0.62799239 0.11297046
-0.0108863 -0.54650998 0.42845371 -0.295021 -0.93931365 -0.17507841 0.18230098
-0.003364414 -0.54650998 0.42790034 -0.1079601 -0.97073895 -0.21450064 0.15923989
0.0057252739 -0.54650998 0.42558712 0.058657173 -0.96368325 -0.26052606 0.16674019
0.014582763 -0.54650998 0.42268428 0.25202817 -0.84766573 -0.46684542 0.18314819
0.044180389 -0.54648066 0.42494455 0.58828032 -0.35313591 -0.72747594 0.16470112
0.05595281 -0.54564035 0.42433387 0.61651933 -0.33277369 -0.71355844 0.15574279
0.066756465 -0.54382002 0.42417312 0.72147059 -0.26617989 -0.6392405 0.1254275
0.074256547 -0.54254007 0.42711961 0.76603842 -0.22278145 -0.60295403 0.10532182
0.08191292 -0.53924412 0.43212187 0.81555736 -0.14229129 -0.56090933 0.08747834
-0.020073179 -0.54650998 0.4344607 -0.25757018 -0.07661891 -0.96321702 0.1529654
-0.015333585 -0.54650998 0.43436518 -0.39648083 -0.12707138 -0.90920621 0.16762048
-0.0052324682 -0.54650998 0.43529201 -0.1874294 -0.98031551 0.062062204 0.1574558
0.002847858 -0.54650998 0.43214199 0.038858481 -0.98795855 -0.14975961 0.1686203
0.05716737 -0.54601789 0.43757957 0.66355741 -0.37069929 -0.64982587 0.16096783
0.067430153 -0.54478449 0.43267432 0.73359507 -0.28677815 -0.61611396 0.12319269
0.075114973 -0.5434075 0.43446648 0.77984375 -0.22149596 -0.58547688 0.10425296
0.082405023 -0.54238045 0.43836007 0.81501502 -0.18216129 -0.55006158 0.090387709
0.087519079 -0.53911793 0.44099319 0.84547848 -0.09813334 -0.52491528 0.067015402
0.05624843 -0.54609436 0.44683927 0.65192312 -0.39856467 -0.645091 0.16775163
0.064877756 -0.5450753 0.4444215 0.73154891 -0.31545556 -0.60442042 0.13035727
0.075257488 -0.54264456 0.44436806 0.80543411 -0.18145625 -0.56422472 0.098874673
0.083413154 -0.54107559 0.44292101 0.82613695 -0.14763357 -0.54378492 0.083453551
0.088473082 -0.54206824 0.44613516 0.84000862 -0.12754479 -0.52736884 0.069436193
0.063724361 -0.54323316 0.45206475 0.73221612 -0.2970176 -0.61289495 0.13926528
0.071320057 -0.54204351 0.45371196 0.75545889 -0.23494279 -0.61162388 0.12763637
0.08148396 -0.54038411 0.44973397 0.81262255 -0.14835468 -0.56359154 0.088897355
0.087057918 -0.53972691 0.45100677 0.83874559 -0.10004873 -0.53525335 0.073978692
0.095150232 -0.53935504 0.45283189 0.85510272 -0.099951841 -0.50873268 0.070650078
0.067223057 -0.5388971 0.45677534 -0.7415235 0.21342018 0.6360777 0.12425194
0.066597827 -0.54020226 0.45551011 0.75530469 -0.22206868 -0.61660385 0.1244745
-0.012641832 -0.43075579 0.43194205 -0.33721992 0.27393693 -0.90068936 0.11698218
0.018577985 -0.40934762 0.42431521 0.35740104 0.6688965 -0.65179902 0.17223877
-0.010963217 -0.43091086 0.42837995 -0.28588375 0.27892002 -0.9167738 0.13283302
0.011919084 -0.41514981 0.41632432 0.17580755 0.52511066 -0.83267665 0.18572024
0.070705973 -0.52637666 0.46504819 -0.77398342 0.085317768 0.62743157 0.093857691
0.06767948 -0.45879617 0.4532052 -0.80422002 -0.1665889 0.57050705 0.055196591
0.029371614 -0.44361082 0.40114132 0.415077 0.3697708 -0.83125246 0.15807703
0.066120222 -0.46477589 0.45621103 -0.81959158 -0.098509356 0.56441611 0.044909529
0.03472437 -0.43856502 0.40470961 0.42350197 0.36598983 -0.82867217 0.15782611
0.063734271 -0.44359297 0.46019897 -0.75152951 -0.3057242 0.58458203 0.096231967
0.069427557 -0.50014758 0.46130139 -0.83615828 -0.034721784 0.54738808 0.058521502
0.06892626 -0.50946528 0.44788453 -0.77846855 0.011914155 0.62757051 0.084898859
0.070992015 -0.54118532 0.45347065 0.75530469 -0.22206868 -0.61660385 0.1244745
0.033799067 -0.46031111 0.4095358 -0.56873751 -0.28834203 0.77032238 0.12453998
0.02848736 -0.41426739 0.41561323 0.37808192 0.49780071 -0.7805438 0.16554701
0.0323461 -0.42103761 0.40569404 0.37991187 0.40038934 -0.83387971 0.17374851
0.045729917 -0.45274818 0.41268262 0.58123046 0.29054898 -0.76010025 0.12453061
-0.0024421003 -0.42372057 0.42108563 -0.089218959 0.44188616 -0.89262342 0.16137917
0.027920168 -0.42137226 0.40338573 0.35605493 0.42034304 -0.83458769 0.17339
0.031083204 -0.43044126 0.40348542 0.39891508 0.39349514 -0.82826829 0.16679879
0.026906002 -0.44300199 0.40049753 0.40920603 0.37524283 -0.83171099 0.15850098
0.015511835 -0.41630986 0.4113718 0.25282803 0.49173209 -0.83323318 0.18156739
0.051944185 -0.41315007 0.44168425 0.49276343 0.58911347 -0.64041352 0.16957827
0.042614836 -0.41850135 0.41963559 0.48050785 0.49430221 -0.7244153 0.15785466
0.04189343 -0.43784538 0.40653276 0.4595955 0.3522709 -0.8152774 0.15651204
0.040017109 -0.46115309 0.4173879 -0.59997696 -0.27696973 0.75054336 0.11873716
0.035288747 -0.46202886 0.41362053 -0.5844332 -0.28246444 0.76069152 0.12171537
0.055317502 -0.42655623 0.44748202 0.60857582 0.43171817 -0.66577381 0.15816952
0.033158351 -0.44519955 0.40069336 0.44110006 0.36097306 -0.82166243 0.15066747
0.044221092 -0.42431375 0.41130212 0.40293807 0.37141463 -0.83647603 0.17080981
0.071998157 -0.53430766 0.45995155 -0.78364795 0.10960856 0.61145878 0.096943498
0.025870392 -0.45968196 0.40092432 0.44568524 0.31024474 -0.83971 0.12935168
0.031746786 -0.43542629 0.40495744 0.40886912 0.38178703 -0.82889366 0.15996416
0.013830161 -0.41182217 0.42130846 0.23193707 0.5671882 -0.79025477 0.18511365
0.069989666 -0.50073522 0.46224651 -0.84176767 -0.039784033 0.53837198 0.058968104
-0.019008251 -0.43892768 0.4361794 -0.45611447 0.12642159 -0.88089573 0.10070636
0.008612046 -0.4140819 0.42087346 0.13559462 0.56153065 -0.81627047 0.18616341
0.0023970448 -0.42374578 0.41289863 0.041076936 0.46515146 -0.88427758 0.16979817
0.005471867 -0.42211768 0.40898883 0.055487689 0.45354369 -0.88950509 0.1625728
-0.020435028 -0.4423297 0.43829235 -0.44118953 0.081740372 -0.89368361 0.10738793
-0.015095194 -0.43341276 0.43369871 -0.39937696 0.2229677 -0.88926011 0.10380099
0.0094383378 -0.41370228 0.42038178 0.1456417 0.54844755 -0.82340372 0.18554342
-0.0079674665 -0.42387185 0.4307009 -0.2184692 0.36786029 -0.90385288 0.14582226
-0.0075263055 -0.42105079 0.43322286 -0.20358224 0.37567469 -0.90411437 0.16342217
0.013998006 -0.41444486 0.41503164 0.21438584 0.52603871 -0.82299572 0.18694055
-0.0099253198 -0.42479566 0.43281683 -0.268433 0.34958962 -0.89762509 0.13839766
0.010426284 -0.41760662 0.4125264 0.15932077 0.53112346 -0.83218068 0.17746045
0.015980603 -0.41001612 0.42526886 0.3124049 0.71940941 -0.6203655 0.17101282
0.00016564128 -0.4168947 0.42785102 0.056881763 0.62263507 -0.78044224 0.19019777
0.0051572174 -0.41766104 0.41889906 0.12625751 0.54092395 -0.83154088 0.18152399
-0.0037472551 -0.41908148 0.42986032 -0.097084872 0.5024454 -0.85914087 0.1686123
-0.014917278 -0.43314427 0.43363363 -0.39937696 0.2229677 -0.88926011 0.10380099
-0.005050696 -0.41194952 0.43731552 -0.054437317 0.81740189 -0.57348996 0.13658191
0.077930555 -0.45560521 0.43879363 0.83183956 0.19920141 -0.51803654 0.034023661
0.08679615 -0.49353987 0.44310275 0.88106906 0.061049514 -0.46903121 0.028263871
0.089278519 -0.53832906 0.44308758 0.85516703 -0.08350569 -0.51158202 0.062107842
0.043593403 -0.43622085 0.38977441 0.43395162 0.38170293 -0.81608135 0.15634264
0.072177947 -0.51716506 0.41494027 0.76589328 -0.039245881 -0.64176893 0.085116573
0.039036769 -0.43047601 0.37731203 0.36016747 0.40955582 -0.83817858 0.14114006
0.085080177 -0.44669503 0.44044861 0.83236396 0.19310695 -0.51949966 0.032196835
0.050476905 -0.49861711 0.37910151 0.70488662 -0.0041542985 -0.70930785 0.062059499
0.090647317 -0.53765172 0.44452882 0.85943204 -0.079214282 -0.50507593 0.062519617
0.048142157 -0.45986313 0.38833764 0.63309956 0.26497751 -0.72730446 0.094834656
0.073483333 -0.47153819 0.42843395 0.83153266 0.096235543 -0.54707611 0.039863829
0.052916691 -0.53782839 0.3860406 0.60877407 -0.28327981 -0.74104428 0.13456555
0.051498715 -0.53837681 0.38465789 0.59047377 -0.29282245 -0.75206101 0.13846794
0.081004456 -0.47262201 0.44576582 0.85825026 0.092471123 -0.50483233 0.031843286
0.088947542 -0.52641135 0.43957916 0.86270463 -0.041536845 -0.50399935 0.051006425
0.053790066 -0.41033319 0.40862867 0.52921253 0.52532911 -0.66630578 0.145252
0.069060311 -0.53086454 0.41145158 0.71899062 -0.12118176 -0.68437386 0.11220499
0.050249565 -0.45450881 0.39344257 0.58753359 0.28740755 -0.75643986 0.1134273
0.040577576 -0.43269691 0.3894954 0.39030689 0.3859531 -0.83588326 0.15861745
0.064170688 -0.45587 0.41542685 0.71120417 0.23991206 -0.66078043 0.084269784
0.069037125 -0.41672206 0.42998651 0.63673091 0.43815944 -0.63449979 0.1271131
0.052822083 -0.52071363 0.3798061 0.65566778 -0.11943597 -0.7455433 0.096144445
0.061927624 -0.47159153 0.40774199 0.74508077 0.14867651 -0.6501922 0.05753478
0.056644637 -0.40679643 0.41110921 0.52443808 0.53086334 -0.66569424 0.14672367
0.054814883 -0.45547259 0.39988068 0.64752537 0.27470696 -0.71080726 0.10712032
0.092109896 -0.52280283 0.44271439 0.8768757 -0.013602287 -0.48052481 0.042173505
0.06377209 -0.46552336 0.41201031 0.73282182 0.19199434 -0.65277129 0.063603386
0.089746393 -0.5183953 0.44072005 0.87204462 -0.0047010593 -0.48940369 0.041224476
0.091393039 -0.51713592 0.44329309 0.87721461 -0.0055176928 -0.48006681 0.038256545
0.084060825 -0.49239433 0.4395225 0.86434996 0.063122705 -0.49891332 0.038884144
0.063202985 -0.50243962 0.40114 0.76645857 -0.013942122 -0.64214236 0.062528573
0.060060237 -0.44976851 0.41114768 0.64965802 0.27731276 -0.7078433 0.10854644
0.058575813 -0.48012763 0.39884865 0.78101456 0.087200888 -0.61839485 0.042616464
0.056273412 -0.44834188 0.40425417 0.61399645 0.28961259 -0.7342568 0.11681974
0.083328322 -0.50620079 0.43700519 0.85501522 0.029556865 -0.51775992 0.050399229
0.053105161 -0.44093207 0.40136033 0.54526383 0.31890634 -0.77523297 0.13764542
0.068740048 -0.50972354 0.40969747 0.75834125 -0.026418066 -0.65132213 0.075658999
0.059692383 -0.48160723 0.40070334 0.78615767 0.072607003 -0.61374617 0.043142986
0.044081684 -0.42647031 0.39402816 0.43944886 0.43785396 -0.78432697 0.15789187
0.037050851 -0.44418159 0.38064837 0.34275496 0.3436397 -0.87431729 0.1383258
0.057249375 -0.47351286 0.39789799 0.71762848 0.13806458 -0.68260354 0.059100155
0.068564937 -0.43463853 0.42685857 0.70622605 0.35788742 -0.61086935 0.11423714
0.058276009 -0.46959925 0.40071175 0.72222221 0.17897023 -0.6681053 0.0632466
0.06478674 -0.42265135 0.42246538 0.63157761 0.43837839 -0.63947952 0.12827829
0.046636771 -0.47770074 0.38145509 0.69138962 0.1278753 -0.71107543 0.063502871
0.066559061 -0.496896 0.4091877 0.79009783 0.015371979 -0.61278796 0.053569183
0.079431348 -0.45943987 0.44035745 0.8450079 0.16407366 -0.50896126 0.023091724
0.050794005 -0.42917779 0.3994301 0.47727427 0.41343129 -0.77542484 0.1487744
0.051362555 -0.42601675 0.39997229 0.53024912 0.45645818 -0.71448004 0.14140408
0.053074345 -0.47090852 0.39177203 0.70193988 0.1786122 -0.68947673 0.066484906
0.053051226 -0.50082147 0.38474703 0.72677159 -0.013372687 -0.6867491 0.061914779
0.06031647 -0.52174395 0.39359823 0.70568568 -0.10510677 -0.70068556 0.097328909
0.068892881 -0.52621973 0.40979686 0.71900636 -0.08759068 -0.68946207 0.10297851
0.058614526 -0.52511805 0.39035264 0.6939404 -0.11756792 -0.71036941 0.099399693
0.063085981 -0.52628863 0.39878517 0.7109068 -0.10247757 -0.6957801 0.10007699
0.063008927 -0.507137 0.39957362 0.75771284 -0.025805721 -0.65207767 0.069769688
0.026299769 -0.41611141 0.40447745 0.36305892 0.49469087 -0.78960061 0.16243336
0.027815875 -0.41500002 0.40602463 0.36305892 0.49469087 -0.78960061 0.16243336
0.018186629 -0.41506189 0.41083717 0.30891052 0.51015103 -0.80269563 0.17363958
0.032046635 -0.41710055 0.40239182 0.39279273 0.47835821 -0.78542173 0.16366224
0.027507536 -0.41362986 0.40723473 0.36305892 0.49469087 -0.78960061 0.16243336
-0.0029008763 -0.4255738 0.41890267 -0.12754788 0.36822468 -0.92094636 0.14734791
-9.2024718e-05 -0.4259975 0.41355109 -0.072098121 0.41035727 -0.90907031 0.14640674
0.052433968 -0.43057802 0.40131223 0.49313667 0.40536579 -0.76973683 0.14811088
0.073369622 -0.41080219 0.44018984 0.66802937 0.44877592 -0.59357977 0.12674214
0.090634309 -0.53603125 0.44360182 0.85339022 -0.079607427 -0.51515812 0.061304547
0.091861174 -0.52866948 0.44287375 0.87013561 -0.041494686 -0.49106234 0.049521826
0.070862882 -0.48928294 0.4206664 0.81703621 0.053374186 -0.57411057 0.040594235
0.063249886 -0.41219178 0.41630206 0.57012498 0.48979294 -0.65959114 0.13605398
0.06380748 -0.43582082 0.41781735 0.68505275 0.35041836 -0.63867813 0.12008112
0.06906338 -0.41413 0.42856789 0.6274882 0.45475176 -0.63202798 0.12870605
0.06440495 -0.4199568 0.42224371 0.61971897 0.44521537 -0.64632159 0.12982018
0.075385891 -0.46064773 0.43962711 0.83046097 0.16523051 -0.53200895 0.036617972
0.06931407 -0.4624657 0.42237854 0.76634872 0.18901825 -0.6139884 0.061280623
0.073779345 -0.44198504 0.43984947 0.79052466 0.26839173 -0.55048758 0.06637568
0.073330559 -0.5172224 0.41779628 0.76499701 -0.038375527 -0.64288944 0.086376771
0.072885454 -0.51909471 0.41709116 0.7639696 -0.040210646 -0.64399803 0.086906113
0.078660965 -0.49622434 0.43123195 0.82524663 0.045509875 -0.56293583 0.052259151
0.083486341 -0.53662819 0.43141207 0.83453876 -0.11052628 -0.53974897 0.071892098
0.086766958 -0.5362494 0.43854851 0.84291708 -0.097816348 -0.52907729 0.066307731
0.073510841 -0.51279885 0.41857153 0.77531171 -0.028522329 -0.63093442 0.080382511
0.074110113 -0.46545786 0.43024561 0.82027787 0.12019545 -0.55919337 0.042223349
0.08840853 -0.51668727 0.43957469 0.87480444 0.0075013111 -0.48441815 0.041843884
0.072809286 -0.46947199 0.42746028 0.82722068 0.10487553 -0.55200273 0.040805507
0.08400844 -0.50769562 0.43720195 0.85501367 0.029551091 -0.51776278 0.050764803
0.071543232 -0.52107501 0.41410986 0.76003969 -0.04579835 -0.64826083 0.08960101
0.070552617 -0.53807139 0.4193584 0.73425549 -0.21824376 -0.64283639 0.11953261
0.053570643 -0.44969144 0.39966747 0.58659661 0.29263854 -0.75516039 0.11437173
0.065551914 -0.52427876 0.40350753 0.71978426 -0.092059106 -0.68806672 0.097962245
0.058546528 -0.53943443 0.39696568 0.66020697 -0.27697897 -0.69814712 0.13361911
0.046777543 -0.4632715 0.38531521 0.650065 0.24702239 -0.71860659 0.087391235
0.053260278 -0.52113301 0.38063112 0.66019011 -0.12236081 -0.74106467 0.097715802
0.060700897 -0.52293986 0.39413095 0.70568568 -0.10510677 -0.70068556 0.097328909
0.060376476 -0.51709658 0.39378056 0.71169484 -0.091691002 -0.6964792 0.089987807
0.056629542 -0.53891981 0.39128059 0.64350063 -0.277679 -0.71330303 0.12670584
0.066013798 -0.53895468 0.41260985 0.7104792 -0.24297029 -0.66044289 0.12175303
0.072060168 -0.52504987 0.4161264 0.7395156 -0.08663477 -0.66754109 0.099746689
0.074602917 -0.44535151 0.43964145 0.79801106 0.24378492 -0.55113274 0.055193111
0.085914254 -0.53860062 0.43796587 0.84315658 -0.099416219 -0.52839702 0.066854179
0.062545821 -0.45189375 0.41363281 0.66952348 0.26348874 -0.6944868 0.10121728
0.066356555 -0.45389521 0.41921782 0.70528603 0.23441957 -0.66904336 0.08686921
0.06355381 -0.45662731 0.41446915 0.71120417 0.23991206 -0.66078043 0.084269784
0.065110661 -0.46716607 0.41422254 0.75387442 0.17252834 -0.63396162 0.058604855
0.074382298 -0.48983288 0.42666915 0.82129115 0.050881393 -0.56823581 0.042648543
0.074063927 -0.48524213 0.42699102 0.82383466 0.063725859 -0.56323653 0.040264811
0.069783859 -0.47859186 0.42108953 0.82003611 0.076819114 -0.56713277 0.040618673
0.086146012 -0.49262309 0.44244224 0.87987953 0.062437296 -0.47107711 0.028078647
0.046950538 -0.48118791 0.3808524 0.70939583 0.098237246 -0.69793051 0.058950163
0.061637633 -0.48583135 0.40327021 0.79130584 0.045415651 -0.6097315 0.046310011
0.053898856 -0.43213785 0.40557778 0.49844679 0.34688532 -0.79449445 0.15136789
0.044686709 -0.4703292 0.38138539 0.64827698 0.19779669 -0.73526424 0.07036332
0.042044569 -0.44206333 0.3871102 0.4304837 0.36357266 -0.8261348 0.14725731
0.063375846 -0.45273095 0.41508171 0.67974824 0.25819588 -0.68649638 0.09767314
0.075711392 -0.45994166 0.43724108 0.82638341 0.17411457 -0.53551334 0.039930306
0.039775614 -0.45386147 0.38184941 0.43972263 0.31976974 -0.83928025 0.1245008
0.065558031 -0.47748619 0.41299552 0.81559902 0.080860525 -0.57293975 0.041111995
0.052462295 -0.4723441 0.39049456 0.69924992 0.1629568 -0.69605649 0.066229388
0.054174073 -0.41200909 0.41047049 0.53450966 0.5084787 -0.67509168 0.14342423
0.061194822 -0.41356578 0.41466871 0.56970638 0.48648444 -0.66239524 0.13499202
0.054802828 -0.41792861 0.40790108 0.54007381 0.49539825 -0.68036813 0.14237592
0.087565407 -0.4937205 0.44411379 0.88077319 0.060981512 -0.46959528 0.0297362
0.07554689 -0.47788137 0.43070999 0.8331688 0.081244037 -0.54701847 0.038961135
0.053218778 -0.50550628 0.38313979 0.69033307 -0.044187482 -0.72214103 0.067337684
0.053526286 -0.41521403 0.41052505 0.53913397 0.5024792 -0.6759063 0.14318109
0.043140188 -0.45713475 0.41521505 0.59718758 0.28196582 -0.7509076 0.12048183
0.065948591 -0.45445612 0.41835597 0.71019101 0.24031107 -0.66172457 0.085637033
0.042817034 -0.4161278 0.40676335 0.47583464 0.50110435 -0.72282481 0.15807648
0.075208127 -0.43336174 0.44171172 0.77976185 0.28978455 -0.55497426 0.080309324
0.06576094 -0.42713538 0.42429438 0.6477381 0.41516346 -0.63880724 0.12415354
0.06544102 -0.45976385 0.41588792 0.72055084 0.22442535 -0.65607911 0.078422092
0.055268876 -0.42395049 0.40698847 0.56149739 0.46479911 -0.68460387 0.13805725
0.048790649 -0.44965181 0.39333096 0.55370015 0.31558084 -0.77060038 0.11952802
0.037793785 -0.42448515 0.39740098 0.39054528 0.42697415 -0.8155781 0.16243839
0.044988401 -0.44257084 0.39010063 0.45784628 0.36639804 -0.810018 0.14276834
0.04210401 -0.43681556 0.39039168 0.40944284 0.37550724 -0.83147508 0.15855542
0.068105146 -0.48537916 0.41635799 0.81734693 0.059623398 -0.57305241 0.0398307
0.060041148 -0.4842836 0.40049875 0.79761791 0.051068094 -0.60099727 0.044806164
0.051202297 -0.43076256 0.40086675 0.47524509 0.3867102 -0.79031467 0.15296817
0.051140502 -0.44753224 0.40734032 0.57690924 0.29255229 -0.76261973 0.13121206
0.059769686 -0.48372626 0.40009254 0.79657495 0.052274361 -0.60227543 0.045254048
0.069933854 -0.47718748 0.42168915 0.82324123 0.081393346 -0.56182641 0.040062688
0.074537881 -0.46763444 0.43073216 0.82801169 0.10729682 -0.55034894 0.040528513
0.070147626 -0.42324859 0.43548563 0.68635404 0.39277729 -0.61208171 0.11234139
0.061551247 -0.42402413 0.41870257 0.60728401 0.45209494 -0.65331173 0.1372129
0.079454444 -0.50078207 0.43249685 0.84140807 0.03214094 -0.53944361 0.050628614
0.072143525 -0.4628948 0.42720819 0.79842496 0.16258469 -0.57972729 0.050201599
0.059127089 -0.47352958 0.40116528 0.73832959 0.13798414 -0.66017407 0.054949053
0.070681147 -0.45393285 0.42579371 0.72399944 0.21213295 -0.65637213 0.079628222
0.052920185 -0.47345915 0.39112535 0.70594728 0.14989334 -0.69222134 0.064410202
0.049348108 -0.45279247 0.39271486 0.58086091 0.29089954 -0.76024872 0.11257482
0.053524908 -0.42246187 0.40472168 0.54950565 0.48268262 -0.68195373 0.14172992
0.056968365 -0.4609448 0.40202719 0.69064456 0.24353197 -0.68095678 0.087067656
0.047414664 -0.43445244 0.39425904 0.44028232 0.37045071 -0.81787384 0.15443425
0.058885224 -0.41644704 0.41422296 0.5443747 0.495886 -0.67657471 0.14291348
0.072479554 -0.41393131 0.43414038 0.66155064 0.4139635 -0.62528795 0.11685354
0.06704171 -0.47230023 0.41702032 0.81155747 0.10957202 -0.57390636 0.044827107
0.074463382 -0.44491875 0.436988 0.79208708 0.26070526 -0.55193371 0.062253192
0.075245515 -0.49396122 0.426467 0.82078713 0.048058886 -0.56920892 0.04606095
0.080408812 -0.50594109 0.43280873 0.84172982 0.020962205 -0.53949195 0.05289153
0.051916569 -0.427986 0.40239921 0.48505226 0.40936631 -0.77275056 0.14845593
0.002362258 -0.48839968 0.41427395 -0.24310377 -0.0064451722 -0.96997887 0.081264749
0.0021429977 -0.4840773 0.41513112 -0.25365612 -0.013009622 -0.96720695 0.086849965
-0.00023995676 -0.42697737 0.41192159 -0.094000451 0.37126359 -0.9237572 0.14435989
0.040671241 -0.43540797 0.38987717 0.40900117 0.38183245 -0.82880753 0.16000073
0.040385116 -0.44157499 0.39295855 0.42622346 0.36932173 -0.82579362 0.15130159
0.092462949 -0.52023488 0.44342962 0.87744534 -0.0085804472 -0.47959986 0.040433053
0.088069089 -0.49861896 0.44367647 0.88118851 0.056048706 -0.46943095 0.03324879
0.07807938 -0.46036679 0.43800113 0.83358043 0.1576197 -0.52943349 0.034124736
0.046807531 -0.43161356 0.3940042 0.45312425 0.4003019 -0.79651546 0.1521562
0.075449929 -0.44789517 0.43926147 0.80911267 0.23430476 -0.53892297 0.048506413
0.040018003 -0.4202162 0.39967003 0.40900493 0.45329767 -0.79198241 0.16238545
0.091925308 -0.52416843 0.44323471 0.87458289 -0.020344198 -0.48444918 0.043757819
0.047638342 -0.43560174 0.39411479 0.44825429 0.366597 -0.81527579 0.15408973
0.046755198 -0.42811945 0.39561743 0.47187218 0.42385033 -0.77310258 0.1507023
0.053441536 -0.44649893 0.40004021 0.57098001 0.30714667 -0.7613427 0.12003752
0.05154622 -0.42852089 0.40166724 0.48505226 0.40936631 -0.77275056 0.14845593
0.074086383 -0.44440898 0.43547511 0.77986395 0.26636806 -0.56644535 0.067571372
0.0829615 -0.49141771 0.43820065 0.85943037 0.063614465 -0.50727963 0.037207391
0.055536453 -0.45253158 0.40338942 0.62325972 0.27967471 -0.73029399 0.11354684
0.092523642 -0.53206456 0.44469672 0.86743057 -0.049857844 -0.49505395 0.053388469
0.075248085 -0.47812176 0.42996767 0.8340385 0.081040345 -0.54572165 0.038807806
0.048715126 -0.44710279 0.39361981 0.5486722 0.32274002 -0.77123129 0.12222055
0.052199367 -0.44000518 0.40028772 0.51969892 0.3256104 -0.7898677 0.14351146
0.038867496 -0.42314184 0.39742672 0.41050965 0.44861999 -0.79386526 0.15739943
-0.0077563063 -0.43431795 0.41772142 -0.21484762 0.28077859 -0.93541646 0.13191946
0.040246021 -0.45574781 0.38140699 0.4540346 0.30618179 -0.83672291 0.12249593
0.081608362 -0.53962672 0.43256557 0.81013602 -0.15802142 -0.56454301 0.087233394
0.057211988 -0.44984543 0.40584642 0.61399645 0.28961259 -0.7342568 0.11681974
0.061153222 -0.42290595 0.41684163 0.59400386 0.45912623 -0.66057736 0.13864323
0.069356874 -0.48928964 0.41762236 0.8059926 0.042002849 -0.59043342 0.043832313
0.083201349 -0.51077002 0.43501303 0.84640133 0.017125053 -0.53227007 0.054914497
0.076040737 -0.49303594 0.42832389 0.82147759 0.048357882 -0.56818664 0.045432266
0.085138582 -0.5015434 0.43897325 0.86719626 0.038999654 -0.49643701 0.040645413
0.087752871 -0.53520459 0.4398123 0.84592187 -0.087179437 -0.526133 0.063379981
0.074193284 -0.467484 0.43015003 0.82801169 0.10729682 -0.55034894 0.040528513
0.087989949 -0.52605492 0.43825683 0.86168337 -0.040760614 -0.50580662 0.04963924
0.061775632 -0.48480204 0.40390265 0.79197514 0.046079651 -0.60881197 0.045844581
0.052126251 -0.42295384 0.40264356 0.53047925 0.46190578 -0.71079868 0.14262345
0.051744405 -0.48193285 0.38752875 0.75556409 0.085596576 -0.64945829 0.049587436
0.082874753 -0.50852537 0.43576545 0.84640133 0.017125053 -0.53227007 0.054914497
0.080089092 -0.50398451 0.43139172 0.8417992 0.0214504 -0.5393644 0.051911902
0.077047661 -0.46459153 0.43739316 0.84635705 0.12575209 -0.51755786 0.030985747
0.059248131 -0.47340909 0.40153536 0.73832959 0.13798414 -0.66017407 0.054949053
0.088605665 -0.51823676 0.43943247 0.86992872 -0.00097878964 -0.49317655 0.041181684
0.0022691337 -0.48818052 0.41401958 -0.24994853 -0.0080986302 -0.96822524 0.077868991
0.074980326 -0.44963023 0.4368501 0.80538851 0.23615277 -0.54367381 0.049315926
0.04004278 -0.41679174 0.40492383 0.46253055 0.50836843 -0.72637933 0.15830369
0.052386962 -0.41416183 0.41003716 0.51579076 0.51542813 -0.68431991 0.14847937
0.055908151 -0.41635835 0.41331127 0.53913397 0.5024792 -0.6759063 0.14318109
0.054800682 -0.42121899 0.41134295 0.5309909 0.48835027 -0.69250464 0.14687136
0.046926003 -0.45247912 0.41124421 0.58123004 0.29054871 -0.76010066 0.12453046
0.06619744 -0.43633896 0.44664347 0.70782226 0.36118582 -0.60706884 0.11876647
0.036017541 -0.424371 0.39759439 0.39054528 0.42697415 -0.8155781 0.16243839
0.058262795 -0.4382793 0.41359174 0.58809268 0.29136065 -0.75449061 0.13937657
0.067049496 -0.45125705 0.45239046 -0.78910434 -0.2205413 0.57330269 0.069601007
0.070991457 -0.44662344 0.44679469 0.792835 0.26291925 -0.54980558 0.063027665
0.054545507 -0.41916093 0.42627111 0.53096759 0.4941377 -0.68840498 0.15281726
0.042868543 -0.44346595 0.40201724 0.49766004 0.33559415 -0.79981935 0.14660351
0.054821473 -0.41903847 0.42611516 0.53096759 0.4941377 -0.68840498 0.15281726
0.07129088 -0.47022727 0.45406663 -0.84919864 -0.087598771 0.52075732 0.033583857
0.073128507 -0.41636565 0.45635763 0.72350657 0.32531884 -0.60885626 0.10504613
0.068238094 -0.47443882 0.41903487 0.82192963 0.089446016 -0.56252199 0.041017361
0.061236303 -0.45630056 0.41415533 0.69056612 0.25097665 -0.67832834 0.092155375
0.058147542 -0.48257127 0.39752495 0.78035086 0.074007444 -0.62094736 0.042186379
0.056041948 -0.47021216 0.39677781 0.71406543 0.17938931 -0.67670536 0.06329713
0.046448663 -0.47849166 0.38117263 0.69266218 0.12323334 -0.71065646 0.062770449
0.048508242 -0.46010223 0.38871393 0.63945872 0.26199508 -0.72280771 0.095594101
0.068556897 -0.42074659 0.42808574 0.65295994 0.42480114 -0.62704647 0.12042318
0.050243638 -0.41519457 0.40627944 0.51579088 0.51542801 -0.68431997 0.1484793
0.066061407 -0.41195691 0.41954714 0.58354902 0.48049903 -0.65466875 0.13337979
0.073371001 -0.41602457 0.4420048 0.70763636 0.38562062 -0.59207052 0.1092252
0.049669605 -0.51635879 0.37147337 0.62309265 -0.073140644 -0.77872074 0.09688057
0.073214814 -0.52213544 0.41852364 0.77183694 -0.049212418 -0.63391322 0.087944992
0.070445456 -0.41579908 0.43363246 0.65207386 0.42931485 -0.62489074 0.12229735
0.0015878136 -0.41338867 0.43149334 0.041081399 0.63599914 -0.77059549 0.19070821
0.043237001 -0.41707712 0.40534449 0.47583464 0.50110435 -0.72282481 0.15807648
0.043834902 -0.42700246 0.39416757 0.43932012 0.43748701 -0.78460366 0.15584999
0.073604137 -0.44307101 0.4403339 0.7912733 0.26530531 -0.55090809 0.064827956
0.073139355 -0.52367866 0.41837487 0.7659986 -0.061226599 -0.63992 0.090874642
0.089272104 -0.51415211 0.44117048 0.87253046 0.016615681 -0.48827723 0.041167628
0.058333796 -0.48262113 0.39788756 0.78035086 0.074007444 -0.62094736 0.042186379
0.074621484 -0.46026269 0.4397769 0.82685351 0.17264551 -0.53526336 0.039139509
0.067794874 -0.54070014 0.41848707 0.71695232 -0.24167371 -0.65389085 0.12614956
0.053073343 -0.52439135 0.38006997 0.65444624 -0.13381861 -0.74417245 0.10554071
0.052857932 -0.52288067 0.37968913 0.65332502 -0.12207231 -0.74717116 0.10113137
0.073383592 -0.42068616 0.43785766 0.68905979 0.38553128 -0.61364675 0.1102452
0.045699518 -0.42944592 0.39378557 0.47138113 0.41912863 -0.77597106 0.14915124
0.069053501 -0.44031492 0.42593449 0.73168778 0.31986484 -0.6019299 0.096096769
0.028820194 -0.41399476 0.40886691 0.37808192 0.49780071 -0.7805438 0.16554701
0.061884463 -0.48521653 0.40400693 0.79197514 0.046079651 -0.60881197 0.045844581
0.05815671 -0.49042916 0.39549053 0.79420608 0.032342482 -0.60678715 0.047785163
0.075893827 -0.45267624 0.43886971 0.81491697 0.20876662 -0.54067242 0.049702618
0.065827496 -0.42755902 0.42433932 0.65382105 0.41262382 -0.63423944 0.12316759
0.073188633 -0.41546565 0.44116887 0.68765771 0.3978295 -0.6073373 0.11454631
0.054094609 -0.41565853 0.41223198 0.53913397 0.5024792 -0.6759063 0.14318109
-0.0016672433 -0.41811508 0.42808592 -0.035724647 0.59033209 -0.80636948 0.17286493
-0.0029988447 -0.42697316 0.41690168 -0.13689643 0.3493886 -0.92692345 0.14089377
0.056952722 -0.45916024 0.40148133 0.68537194 0.25370082 -0.6825695 0.094376467
0.066082716 -0.47133201 0.41520238 0.79617703 0.12379521 -0.59226412 0.049474254
0.08632382 -0.49456918 0.44230404 0.88014144 0.059852697 -0.47092324 0.029719559
0.075376585 -0.47867516 0.43008289 0.8340525 0.080237933 -0.54581881 0.039001651
0.061026733 -0.45627826 0.41298828 0.68687737 0.25353798 -0.68111521 0.093674578
0.048247319 -0.44949347 0.39209461 0.54079622 0.31764486 -0.77887172 0.12021331
0.03553059 -0.43923023 0.38359237 0.32338327 0.36501175 -0.87303466 0.15353103
0.057484441 -0.51883405 0.38854116 0.70307404 -0.098784789 -0.70422184 0.091053985
0.055249251 -0.50946319 0.38611382 0.71052849 -0.065144747 -0.7006464 0.07862246
0.038242113 -0.44108257 0.38396418 0.34142613 0.35170498 -0.87162596 0.14891735
0.068007514 -0.5348258 0.4148258 0.73832828 -0.16110133 -0.65491802 0.11275782
0.092849188 -0.52235353 0.44355428 0.87593514 -0.011956438 -0.48228073 0.042271491
0.074378319 -0.4188745 0.44811699 0.73694426 0.32470861 -0.59285533 0.095646553
0.07051111 -0.40943852 0.45438832 0.68487293 0.42223352 -0.59385848 0.13012137
0.089529082 -0.48329976 0.45182168 0.88517052 0.081421219 -0.45808709 0.026089935
0.09216436 -0.50021166 0.44908664 0.88041663 0.04945606 -0.47161502 0.035929505
0.093596376 -0.51006001 0.44758445 0.88739908 0.032638602 -0.45984513 0.037534207
0.1012225 -0.53319663 0.45382616 0.87317383 -0.041216694 -0.48566318 0.061166812
0.099808402 -0.5303517 0.45226866 0.8783704 -0.025671246 -0.47729063 0.05780334
0.07396812 -0.41610584 0.4500967 0.73832113 0.33217722 -0.58697551 0.097904712
0.0062674824 -0.49270532 0.4268097 -0.0079056285 -0.024614589 0.9996658 0.1191498
0.0067022727 -0.49089772 0.42908025 -0.010654135 -0.0075672232 0.99991465 0.11833458
0.092028633 -0.49865192 0.44933492 0.88359582 0.054125901 -0.46511149 0.034325182
0.0069505987 -0.41448092 0.42204747 0.11874653 0.57671511 -0.80826908 0.18861943
