# .PCD v0.7 - Point Cloud Data file format
VERSION 0.7
FIELDS x y z
SIZE 4 4 4
TYPE F F F
COUNT 1 1 1
WIDTH 363
HEIGHT 1
VIEWPOINT 0 0 0 1 0 0 0
POINTS 363
DATA ascii
-0.018485039 -0.4269475 0.4308506
0.016861871 -0.40543339 0.42307809
-0.0108863 -0.43090901 0.42845371
0.0095667467 -0.4113743 0.4148179
0.071909212 -0.52654833 0.46518591
0.061993379 -0.46182081 0.45023909
0.025850231 -0.44129089 0.40276331
0.063965186 -0.4644312 0.45767939
0.031680532 -0.44191599 0.4080179
0.064066038 -0.44356319 0.46034941
0.069427557 -0.50014758 0.46130139
0.070054971 -0.51072568 0.44863799
0.071187139 -0.54105079 0.45341071
0.05871354 -0.48199251 0.44867441
0.035380151 -0.4635222 0.40815231
0.04567378 -0.50807601 0.42320111
0.059425469 -0.52171463 0.43983749
0.029201429 -0.411542 0.41602531
0.03202951 -0.42038819 0.40911621
0.046158269 -0.45466241 0.42712411
-0.0080997124 -0.41816691 0.4177402
0.02755451 -0.42115271 0.40274179
0.0278995 -0.43083051 0.40091899
0.022323981 -0.44271401 0.4042289
0.01336896 -0.4119184 0.40904319
0.05148834 -0.41329461 0.4416191
0.040712152 -0.41634339 0.42450529
0.039758559 -0.43878919 0.4159562
0.054967131 -0.52163577 0.43532109
0.040359039 -0.46134761 0.417505
0.035400972 -0.46215039 0.4135358
0.036437269 -0.50490481 0.4037737
0.05554872 -0.42635769 0.44781429
0.027702101 -0.44369331 0.39776611
0.040617932 -0.42603591 0.41941059
0.070151582 -0.53064728 0.45596719
0.0241936 -0.45965609 0.40257221
0.02566555 -0.43562871 0.40545329
0.01220685 -0.40831891 0.42065921
0.069989666 -0.50073522 0.46224651
-0.020073179 -0.43893629 0.4344607
0.0077621941 -0.41296101 0.4203786
0.00031135979 -0.42160359 0.4115856
0.001299143 -0.41698059 0.40699849
-0.01943817 -0.44182751 0.43984011
-0.016168 -0.50404042 0.4391233
-0.01528607 -0.43325019 0.43368691
0.0085472763 -0.41252649 0.4198617
-0.00550697 -0.42582139 0.4324697
-0.01025036 -0.41872379 0.43224391
0.01552267 -0.4167181 0.4167434
-0.01216187 -0.42325529 0.43160301
0.01082642 -0.41823781 0.41292769
0.01467957 -0.40700361 0.42431551
-0.00074500591 -0.4158437 0.4272112
0.005895488 -0.41849089 0.41907901
-0.005983822 -0.41686419 0.42858949
-0.01554558 -0.43285841 0.4332082
-0.004957967 -0.41235411 0.43811429
0.086492337 -0.45446309 0.43182451
0.090792343 -0.4932113 0.44010589
0.0913257 -0.53929812 0.44170171
0.047633331 -0.43561819 0.38509899
0.072324812 -0.5171454 0.41478211
0.04322632 -0.43233681 0.37531069
0.087670937 -0.44615301 0.44012931
0.053543501 -0.49808261 0.37779751
0.09740451 -0.53949708 0.44056571
0.0524498 -0.45900509 0.38497469
0.078956284 -0.47101319 0.4244478
0.06010415 -0.54061729 0.3807584
0.058506209 -0.54031217 0.37424499
0.085732967 -0.4723967 0.4435575
0.089699693 -0.52654988 0.4390519
0.06138977 -0.40670681 0.39859661
0.075271547 -0.53142202 0.409399
0.056656659 -0.45294601 0.38923731
0.045420531 -0.4319838 0.38288799
0.069409847 -0.45589879 0.41240701
0.076289617 -0.4164598 0.42542619
0.05149119 -0.52078468 0.38049141
0.06557785 -0.4715564 0.40618211
0.061497569 -0.4061653 0.40478009
0.06002352 -0.45439219 0.39677849
0.091671683 -0.52298301 0.44296449
0.067481443 -0.46541569 0.4100616
0.089101329 -0.51852232 0.44120541
0.09283869 -0.51684898 0.44228429
0.086908542 -0.49198169 0.43732619
0.064470172 -0.50221622 0.40030119
0.066161416 -0.44903731 0.40685469
0.059803128 -0.4800421 0.39828229
0.06059498 -0.4482196 0.40138379
0.086488441 -0.5057317 0.43418941
0.05861887 -0.4406319 0.39709839
0.069114402 -0.50969672 0.4094781
0.064985894 -0.48146319 0.39777389
0.049788039 -0.42351359 0.3875491
0.038429081 -0.44413441 0.37937081
0.062540859 -0.47335669 0.39482841
0.073427439 -0.4347834 0.42329529
0.06173474 -0.4694283 0.3991797
0.070369437 -0.42174259 0.41917339
0.04922064 -0.47806749 0.37902081
0.068569466 -0.4963859 0.4082337
0.082739837 -0.45891669 0.437902
0.056726959 -0.4277432 0.39369529
0.056141 -0.42440441 0.39505979
0.05592012 -0.47092929 0.38990229
0.055055909 -0.5005666 0.38331699
0.061384048 -0.52161229 0.3927463
0.07166335 -0.52636009 0.40853369
0.060731869 -0.52454972 0.38865241
0.065144479 -0.52637571 0.39765081
0.064309977 -0.50700772 0.39867711
0.02499567 -0.40702611 0.40206459
0.023737211 -0.41255879 0.39980289
0.01550493 -0.40880379 0.40812519
0.0286259 -0.36052379 0.42388159
0.02788537 -0.4124321 0.39409059
0.02854255 -0.3554168 0.42499909
0.008360615 -0.46687001 0.4131071
0.025998721 -0.40779319 0.40529811
-0.001452196 -0.5367009 0.4128468
-0.003830686 -0.42470151 0.41836929
0.0012164121 -0.42723531 0.4141061
0.059475541 -0.42990279 0.39586851
0.08316949 -0.41112429 0.43739071
0.099710584 -0.53665382 0.4374032
0.098282248 -0.5275048 0.4381167
0.074201643 -0.48882201 0.41882911
0.0642111 -0.41272831 0.41557509
0.06505987 -0.43556851 0.41686171
0.068872027 -0.40422079 0.43044761
0.066619933 -0.41963691 0.42075509
0.080878198 -0.46104491 0.4393006
0.06980148 -0.46248671 0.4221032
0.080306202 -0.4392983 0.44026959
0.075087063 -0.51752049 0.4175396
0.073396146 -0.51918548 0.41702911
0.078227788 -0.4962711 0.43160221
0.087877333 -0.53895468 0.4283506
0.091825962 -0.53696042 0.4349266
0.076610863 -0.51296347 0.41731659
0.075212479 -0.46557891 0.42946461
0.091937751 -0.51585948 0.43718001
0.073989272 -0.46953791 0.42669821
0.086924583 -0.50726938 0.43467879
0.074296363 -0.52103359 0.4130238
0.076670021 -0.54054677 0.41371569
0.057719681 -0.44916019 0.39710921
0.067683458 -0.52430201 0.4024516
0.063671321 -0.54145533 0.3938573
0.049731672 -0.4626123 0.38245031
0.05130202 -0.52146798 0.38179079
0.062037349 -0.52278882 0.39308819
0.062227849 -0.51686537 0.3922821
0.0593009 -0.53964412 0.39018261
0.071051508 -0.54086769 0.4107348
0.074373193 -0.52516031 0.41532889
0.081632912 -0.44263619 0.43768841
0.091696799 -0.53963047 0.431979
0.066691726 -0.4512929 0.4109681
0.070192844 -0.45375389 0.41747391
0.066468753 -0.4563432 0.41305611
0.068312757 -0.46735641 0.41280609
0.076749437 -0.4896774 0.424896
0.078320287 -0.48472291 0.42444199
0.073302269 -0.47851989 0.4190163
0.08700484 -0.49251899 0.44180101
0.04419595 -0.48206639 0.38277039
0.062561601 -0.48572469 0.40288991
0.056846831 -0.4319168 0.40445089
0.043086082 -0.47043049 0.38309249
0.03994653 -0.44181901 0.3890653
0.065265723 -0.45240411 0.41383171
0.077192098 -0.46020061 0.43736079
0.041596681 -0.4529877 0.37897941
0.062009159 -0.47729859 0.41437161
0.054431621 -0.47229421 0.38924879
0.06040651 -0.41109949 0.4061794
0.063825756 -0.4148834 0.41274899
0.059169531 -0.4166126 0.404991
0.089789152 -0.49352169 0.4424499
0.073506832 -0.4783777 0.43270639
0.049832702 -0.5052315 0.38456741
0.05654937 -0.41344959 0.4086141
0.044307739 -0.46064451 0.41583511
0.067006469 -0.45434099 0.4177635
0.04355171 -0.40855619 0.40550911
0.075276174 -0.43362281 0.44351879
0.065385342 -0.42717591 0.42489809
0.065565787 -0.45972189 0.4158116
0.059172839 -0.42379841 0.40489581
0.049378201 -0.4495163 0.3929005
0.03807494 -0.42172351 0.3929309
0.042643439 -0.4430688 0.39326209
0.042767759 -0.4366152 0.38926199
0.058773071 -0.4897323 0.4208658
0.05504756 -0.4843412 0.40240419
0.055391099 -0.43073979 0.39846319
0.04991677 -0.449184 0.40664101
0.058858339 -0.48379239 0.40060219
0.063738316 -0.47809899 0.4271895
0.072677627 -0.4679049 0.43268299
0.069171377 -0.42292181 0.43587491
0.059621811 -0.42335519 0.42041939
0.07575205 -0.4994581 0.4356254
0.064994387 -0.4623329 0.43125489
0.057441652 -0.47351581 0.40187791
0.06994164 -0.4539251 0.4262343
0.052985221 -0.4734315 0.39108619
0.05224156 -0.45194221 0.3905991
0.05358322 -0.4222692 0.4044497
0.05450777 -0.4615595 0.4033483
0.048057199 -0.43431169 0.39364851
0.060797971 -0.41623941 0.4129636
0.073320821 -0.41412371 0.4338932
0.063042149 -0.4722701 0.41892761
0.074534118 -0.44501641 0.4368754
0.073294804 -0.4942275 0.4279983
0.079643458 -0.50600719 0.43344089
0.053946082 -0.4275313 0.40079689
0.030593259 -0.36747879 0.41892129
0.00053392351 -0.48941949 0.41459411
-0.00080192828 -0.48287711 0.41675439
0.0001436919 -0.42739919 0.41201511
0.042311791 -0.4349629 0.38731259
0.036306709 -0.44012931 0.38563821
0.090867698 -0.52058947 0.44463721
0.085183933 -0.49835989 0.44585061
0.079817846 -0.46014291 0.43691811
0.048674461 -0.43138531 0.3919923
0.082128569 -0.44704491 0.44432911
0.04293998 -0.4133029 0.39053509
0.090686448 -0.52481389 0.44423559
0.04932477 -0.43537989 0.39244911
0.04873167 -0.42734241 0.39341339
0.054413259 -0.44636929 0.39947399
0.05348279 -0.42811909 0.40009421
0.074648112 -0.4443619 0.4349654
0.082385719 -0.49149641 0.43866321
0.056459069 -0.45216271 0.40289801
0.093247503 -0.53221643 0.4442462
0.074350543 -0.47832939 0.43078849
0.050115779 -0.44689849 0.3924697
0.054225668 -0.4399339 0.39895949
0.042461891 -0.41499171 0.38622531
-0.004269823 -0.43583241 0.41955259
0.03948459 -0.4562442 0.38251391
0.083023511 -0.54113191 0.43173859
0.057848331 -0.4496707 0.40548769
0.062539607 -0.42288029 0.415952
0.068110757 -0.48995411 0.418284
0.082354791 -0.51091892 0.43554959
0.075383767 -0.49311191 0.4288702
0.085077547 -0.50155318 0.4390617
0.088310003 -0.53543848 0.43935749
0.073180847 -0.46742421 0.4309496
0.087649822 -0.52638072 0.4384599
0.060946159 -0.4849143 0.40425771
0.053566981 -0.42224309 0.40115401
0.050605848 -0.48219979 0.3881855
0.082369998 -0.50860769 0.4362388
0.079548337 -0.50408077 0.4318724
0.078808822 -0.46479771 0.43695849
0.057905171 -0.47339091 0.40210339
0.08754275 -0.51844579 0.4402324
0.0038581791 -0.48713851 0.4137758
0.075768143 -0.4494558 0.4363775
0.041321229 -0.40787089 0.40038499
0.055258591 -0.41232881 0.4082382
0.05062326 -0.41602391 0.41792199
0.04734461 -0.4221527 0.41579509
0.04719178 -0.4509792 0.41237
0.06547115 -0.43674049 0.44592029
0.03486618 -0.42238459 0.39319399
0.05252498 -0.4389824 0.42225179
0.065276466 -0.45170799 0.45083681
0.064562373 -0.44380531 0.4434379
0.054676 -0.41200939 0.4267408
0.043612991 -0.44068971 0.40478459
0.054800611 -0.41770661 0.4263092
0.073461458 -0.46857351 0.45626929
0.072591551 -0.41773701 0.45609969
0.059401251 -0.4740386 0.42403641
0.059841391 -0.45560721 0.41723341
0.056776531 -0.48254541 0.3983013
0.057091571 -0.47012231 0.39612761
0.047272868 -0.4786976 0.38037029
0.049972739 -0.45971701 0.38750899
0.070888482 -0.4203591 0.4264141
0.05527918 -0.41129509 0.4011682
0.065289557 -0.41135541 0.42023891
0.076965503 -0.4155294 0.44167981
0.05038406 -0.51616168 0.37080061
0.069935389 -0.52162081 0.4192059
0.071713172 -0.41567621 0.4328644
0.002847858 -0.41512921 0.43214199
0.04396731 -0.40948761 0.40265051
0.047601849 -0.42526159 0.3892228
0.078870364 -0.4415749 0.44579121
0.068121433 -0.52343881 0.4193466
0.092028111 -0.51356792 0.43933919
0.05634385 -0.48251301 0.3988893
0.079918116 -0.46190459 0.44213429
0.068948656 -0.54141998 0.41774249
0.05113551 -0.52507269 0.38119921
0.048750281 -0.52399123 0.3823894
0.035831511 -0.3577939 0.42677629
0.078798592 -0.42062569 0.43562081
0.04670557 -0.42903581 0.3926627
0.069936387 -0.44022971 0.4254778
0.02829759 -0.40665519 0.40728819
0.062284339 -0.48516721 0.40382811
0.058868531 -0.4903374 0.39507359
0.082292996 -0.45304611 0.44424379
0.067467928 -0.42767689 0.42279461
0.077759251 -0.41484311 0.4407711
0.059427381 -0.41146281 0.40934029
4.4599179e-05 -0.41976181 0.42938051
-0.0044117118 -0.42575839 0.41607839
0.05668604 -0.4592264 0.40157419
0.063390903 -0.4713212 0.41651359
0.089935154 -0.4940263 0.4394356
0.07379812 -0.47905639 0.43149021
0.061031669 -0.45593849 0.4129011
0.049097959 -0.44925261 0.3914029
0.03495352 -0.43937081 0.3841449
0.05497852 -0.51931119 0.39053461
0.050647769 -0.50950992 0.38975659
0.036932681 -0.44102231 0.38563189
0.065655962 -0.53414071 0.41551349
0.032844771 -0.34355921 0.4544512
0.092678487 -0.52243441 0.44365349
0.082847238 -0.4186233 0.4501971
0.070616104 -0.40895081 0.4545427
0.090134569 -0.4831731 0.45151049
0.090941042 -0.50040781 0.44973889
0.020033 -0.34198681 0.45079139
0.04917717 -0.361754 0.44412589
0.039594982 -0.54089153 0.48086479
0.052532759 -0.38665819 0.42832991
0.03938565 -0.53113878 0.48031631
0.091266632 -0.51035088 0.44912279
0.059425231 -0.3950856 0.4494555
0.1039812 -0.53375298 0.4513233
0.047376681 -0.36607921 0.44102809
0.036183741 -0.4118678 0.47860491
0.033116311 -0.359467 0.44615811
0.049392719 -0.36295301 0.4405795
0.029929791 -0.37473989 0.43729451
0.1006719 -0.53051633 0.45160449
0.050758362 -0.35151851 0.44348881
0.073151588 -0.41576809 0.44993529
0.006631285 -0.492753 0.42669049
0.006418556 -0.49083349 0.42917919
0.091163591 -0.4987807 0.44983149
0.041067138 -0.46100011 0.48413301
0.0077697341 -0.4154433 0.4223069
0.04434213 -0.33719021 0.46397251
0.022268699 -0.352844 0.44982699
0.01346469 -0.54028672 0.43243101
