# .PCD v0.7 - Point Cloud Data file format
VERSION 0.7
FIELDS x y z normal_x normal_y normal_z curvature
SIZE 4 4 4 4 4 4 4
TYPE F F F F F F F
COUNT 1 1 1 1 1 1 1
WIDTH 591
HEIGHT 1
VIEWPOINT 0 0 0 1 0 0 0
POINTS 591
DATA ascii
-0.071256556 -0.0024622865 0.62448609 0.02927782 -0.17486727 0.98415667 0.10120529
-0.027220018 0.0023915609 0.62560433 -0.13079035 0.82706732 -0.54667491 0.073878959
-0.017413454 0.0035446945 0.62608051 -0.06064675 0.99324292 -0.098946571 0.019307688
-0.0038122295 0.0022814721 0.62554646 -0.028847601 0.99869132 -0.042232029 0.010583644
0.0069247815 0.0014364709 0.62315208 0.033946678 0.99432576 -0.10081603 0.040553764
0.027548315 0.0021927308 0.62852067 0.058050487 0.99782228 -0.031318903 0.066818714
0.039306127 0.0019015906 0.62077844 0.067575045 0.98971564 -0.12608121 0.10278952
0.045428012 0.0037596836 0.62734711 0.058918208 0.98910147 -0.13493341 0.097296149
0.058519349 0.0033235764 0.62457269 0.043295506 0.93995416 -0.33854336 0.099183723
0.062155318 0.0014866502 0.62513739 -0.125249 -0.59748316 0.79203945 0.12125698
0.073053092 0.0011393846 0.62634492 -0.16887358 -0.51507378 0.84034556 0.11662262
0.089181416 -0.0012180998 0.62477511 -0.10783041 -0.37216729 0.92188072 0.092593655
0.093887269 0 0.62567365 -0.14334413 -0.40877864 0.90130603 0.087043434
0.1332335 -0.0029671732 0.62697119 -0.30268496 -0.3648681 0.88048464 0.087152414
-0.27857471 -0.00093380886 0.6344499 0.30555496 0.6291486 0.71470845 0.096776143
-0.27891532 2.9185749e-05 0.63497019 0.30555496 0.6291486 0.71470845 0.096776143
-0.27507603 0.0015164461 0.62928367 0.28346187 0.63697064 0.71688056 0.093447261
-0.20149025 -0.0060842927 0.6267122 -0.00939433 0.12177737 0.992513 0.045436345
-0.1898396 -0.0045836549 0.63197774 -0.1820803 0.1123776 0.97684079 0.027993539
-0.18497026 -0.0043134457 0.63377684 -0.18369277 0.085700445 0.97924072 0.029594721
-0.17197981 0.0034431624 0.63083261 -0.069812983 0.054282036 0.99608201 0.032065947
-0.15397274 -0.00082295685 0.63469839 -0.15047456 -0.033521589 0.98804539 0.019289577
-0.090950012 -0.0028226839 0.63294333 -0.20844299 -0.070797943 0.9754687 0.051451258
-0.080424562 -0.002089621 0.6350491 -0.13180125 -0.08044529 0.98800659 0.065217629
-0.07945767 -0.0020925067 0.6355924 -0.13179779 -0.08044786 0.98800677 0.065218076
-0.058953922 -0.0017364253 0.63539565 0.086277463 -0.29892397 0.9503687 0.11986648
-0.041535683 0.0021278544 0.63767207 0.068039246 -0.60473275 0.79351681 0.097848766
-0.035772149 0.0021906551 0.63731456 0.12889585 -0.71732974 0.68470722 0.096969642
0.035019472 0.0028773975 0.63307458 0.051993165 0.99793452 -0.037728619 0.0582272
0.045953784 0.00382559 0.63399118 0.056632414 0.94729543 -0.31531623 0.10244998
0.057545412 0.0029711858 0.63538444 0.049307674 0.9099828 -0.41170394 0.11398366
0.064989887 0.0015708772 0.6356898 -0.13872971 -0.40416431 0.90410471 0.13443889
0.082753606 0.00086131645 0.63875604 -0.12516327 -0.43600577 0.89119756 0.10872983
0.095100395 0.00029253835 0.63356805 -0.15128906 -0.46625751 0.87161666 0.091313586
0.1067311 0 0.63687354 -0.21503706 -0.50723547 0.83454853 0.089535788
0.11425012 -0.0018694433 0.63955671 -0.273296 -0.45641625 0.84675473 0.097496711
0.12163499 -0.0029083411 0.63747805 -0.28374708 -0.44974917 0.84688443 0.10012688
0.13384545 -0.0024100067 0.6328975 -0.31880933 -0.4177554 0.85078847 0.11388779
-0.080429025 -0.001882137 0.64850909 -0.18808286 -0.071477495 0.97954881 0.053907149
-0.079506233 -0.0020536429 0.64278781 -0.13179779 -0.08044786 0.98800677 0.065218076
-0.02186414 0.0039880103 0.64396966 -0.08128231 0.98766524 -0.13383089 0.035573009
-0.0088812169 0.002968248 0.64596695 -0.047617521 0.99683338 -0.06368538 0.017523076
0.031250309 0.0019634434 0.64668322 0.058569018 0.99007344 -0.12776604 0.090917982
0.046226501 0.0025312961 0.64599174 0.066133305 0.91623884 -0.39513645 0.12162324
0.054078404 0.0024331154 0.64376503 0.079510368 0.85520428 -0.51215601 0.12080274
0.063771017 0.0013986864 0.6458689 -0.16116692 -0.45219958 0.8772347 0.13023973
0.082748562 0.00096288131 0.64204311 -0.12516327 -0.43600577 0.89119756 0.10872983
0.14614581 -0.0053307079 0.6439079 -0.41228554 -0.35035533 0.84099454 0.14854372
0.1639898 -0.0094250143 0.64688236 0.49682546 0.47016123 -0.72946066 0.17648938
-0.037361816 0.0029628968 0.65474993 -0.12513429 0.81423616 -0.56688696 0.10539503
-0.029079678 0.0042632604 0.65494376 -0.10599814 0.98039901 -0.16607863 0.050041355
-0.010131342 0.0031486994 0.65397775 -0.04737081 0.99803007 -0.041133497 0.017111521
0.016098803 0.00021238475 0.65424818 0.061834238 0.99768412 -0.028334601 0.069244586
0.020013405 0.00017509652 0.65638041 0.064545751 0.98827738 -0.13835303 0.1028042
0.03465154 0.0018414959 0.65634954 0.043730699 0.97207534 -0.23055811 0.095412761
0.05398931 0.00096788042 0.65704262 0.046619967 0.98623669 -0.15863036 0.14314172
0.062944792 0.00088771456 0.65899551 -0.091397062 0.99430245 -0.054855205 0.13116194
0.073928535 0.0012026457 0.6507833 -0.062656902 -0.46141288 0.88497019 0.12719001
0.08415322 0.0008414184 0.65496171 -0.13106021 -0.7016443 0.70037019 0.1217669
0.098215982 0 0.6513055 -0.17671357 -0.64083534 0.7470625 0.10946547
0.10296945 -0.00071537751 0.65533507 -0.21065477 -0.59809905 0.77324128 0.10891668
0.11096264 0.00012214527 0.65658563 -0.24846105 -0.55162835 0.79622442 0.11090557
0.12788673 -0.0012077828 0.65439242 -0.29259476 -0.51057279 0.80851942 0.12589125
0.16221936 -0.0055599203 0.65976757 0.40381891 0.4588992 -0.79141754 0.19107002
-0.081585325 0.00090437382 0.66151983 -0.18808286 -0.071477495 0.97954881 0.053907149
-0.03370915 0.0045413985 0.66171193 -0.13605605 0.95873666 -0.24962525 0.077546023
-0.02393074 0.0054564099 0.66773635 -0.059383761 0.99755913 -0.036734462 0.022578346
0.036730953 0.00027236596 0.66768473 0.042244732 0.99299681 -0.11033035 0.093085162
0.063594326 0.00071029487 0.66149414 -0.096974798 0.99262238 -0.072779417 0.13553907
0.08449354 0.00048805471 0.66466528 -0.00096651353 0.9591378 -0.28293803 0.12396339
0.090618096 0.00035335054 0.66634423 0.054236591 0.95151973 -0.30276814 0.12338057
0.1090871 0.00032827674 0.66766435 0.22609961 0.74870735 -0.62315029 0.14118116
0.11742914 0.00018198277 0.66029155 -0.2787227 -0.53547889 0.79723024 0.11361925
0.12897269 -0.00034284947 0.66187704 -0.29193524 -0.55799651 0.77679706 0.12794302
0.13067801 -0.00057303812 0.66037196 -0.28290623 -0.55361038 0.78324938 0.13062733
0.1744871 -0.007654631 0.66595906 0.6098209 0.52690375 -0.59202266 0.22188836
-0.023945745 0.0059163421 0.6714099 -0.060241956 0.99758261 -0.034640111 0.023651399
0.004715174 0 0.67791551 0.055559736 0.99810356 0.026506303 0.053961828
0.02955645 0 0.6706264 0.061628383 0.99569964 -0.069167987 0.082736649
0.045742203 -0.00042661678 0.67536151 0.046386309 0.99629986 -0.072352655 0.099614829
0.054731488 -3.2430853e-05 0.67369169 0.025076384 0.99381721 -0.10815938 0.14112313
0.085500553 0 0.67331821 -0.046446871 0.99315304 -0.10718962 0.10007314
0.098808773 0 0.67396408 0.053368643 0.97424823 -0.21907102 0.12295091
0.11301275 0.0004494754 0.67207855 0.18750025 0.87814581 -0.44011781 0.14736015
0.12605873 0.00025400528 0.67420161 0.29076973 0.74577391 -0.59939474 0.17296751
0.13611247 0.0019688902 0.67273563 0.39659956 0.71747881 -0.57265431 0.19248964
0.14504714 0.0013606859 0.67350847 0.4767808 0.62132359 -0.62180138 0.18983102
0.15058881 0.001861335 0.67701542 0.41577581 0.67067105 -0.61427253 0.18681048
0.16819696 4.6976671e-05 0.67543006 0.48902583 0.57876271 -0.65260059 0.209677
0.030000741 0 0.69025838 0.059823707 0.99792719 0.023716222 0.034566615
0.1127998 0 0.70649558 0.067032367 0.98465133 -0.16114712 0.17132826
0.1379956 0 0.70627022 0.36293301 0.92050171 -0.14476264 0.2269693
0.13790549 0 0.71227509 0.39851335 0.91105789 -0.10564407 0.23655583
0.023006471 0 0.72222018 0.033734631 0.99937344 0.01071154 0.00036887897
0.1218118 0 0.72501802 -0.010749982 0.99887687 0.04614637 0.13227044
0.054407671 0 0.73397082 -0.00015510981 0.99999654 0.0026383349 1.7486829e-05
0.069424771 0 0.73869652 -0.054961998 0.99847823 0.0045194821 0.023195686
0.1034981 0 0.74451238 -0.052718479 0.99859929 0.0044734119 0.042610768
0.1241599 0 0.74419659 -0.01775356 0.99871171 0.047537379 0.049836699
0.040062461 0 0.75249159 -0.00037112227 0.99999923 -0.0011992842 2.5789718e-06
0.055353429 0 0.7568332 -0 1 -0 0
0.012726489 0 0.76584864 -0 1 -0 0
0.04047687 0 0.76894939 -0 1 -0 0
0.055091169 0 0.76739103 -0 1 -0 0
0.0089777932 0 0.78259611 -0 1 -0 0
0.026664751 0 0.78935462 -0 1 -0 0
0.057921551 0 0.7829234 -0 1 -0 0
0.086569861 0 0.78894103 -0 1 -0 0
0.090015352 0 0.78373897 -0 1 -0 0
0.2000213 0 0.78855419 -0 1 -0 0
0.039757062 0 0.79922497 -0 1 -0 0
0.02285186 0 0.80512547 -0 1 -0 0
0.19081371 0 0.80886889 -0 1 -0 0
0.01450811 0 0.81628466 -0 1 -0 0
0.026265278 0 0.81483078 -0 1 -0 0
0.188841 0 0.8168872 -0 1 -0 0
0.017526779 0 0.82873201 -0 1 -0 0
0.027266979 0 0.827492 -0 1 -0 0
0.024673 0 0.83557469 -0 1 -0 0
0.19424145 0 0.8330605 -0 1 -0 0
-0.033000272 -0.3109107 0.29694122 0.020691322 -0.99804497 -0.058975451 0.00037988366
-0.05102808 -0.31321621 0.3271243 0.022047464 -0.99875033 -0.044851921 0.00093763013
-0.038083225 -0.31063706 0.29489738 0.018732203 -0.99808562 -0.058940869 0.00036366467
-0.071938127 -0.31430808 0.34808403 0.010162705 -0.99917144 -0.039411157 0.0011020148
-0.10214105 -0.31212783 0.28905666 -0.0019400602 -0.99826825 -0.058793843 0.00037761175
-0.13925265 -0.3144137 0.31440309 -0.020755092 -0.99941474 -0.027193902 0.0076849968
-0.16183136 -0.3141346 0.34873402 -0.15058739 -0.92345792 0.35291475 0.053293131
-0.16376707 -0.31392837 0.34036112 -0.13107418 -0.95005351 0.28322792 0.045128871
-0.15646239 -0.31282568 0.31128979 -0.021251565 -0.99971801 -0.01059538 0.0086875148
-0.10984334 -0.31325433 0.29332715 -0.0077434462 -0.9984405 -0.055287015 0.00043432138
-0.27493379 0.024456486 0.62888587 0.25011322 0.21104957 0.94493461 0.080500744
-0.22041696 -0.30976543 0.24269764 0.016394505 -0.99962687 -0.021849122 0.0006565178
-0.17766288 -0.31001177 0.29455855 0.0099682491 -0.99916327 -0.039666746 0.00050335325
-0.20976107 -0.30960336 0.24281402 0.026160724 -0.99956536 -0.013590714 0.00032812639
-0.24239364 -0.31053501 0.27054206 -0.0018328248 -0.99938971 -0.034883663 0.0011019093
-0.20913687 -0.30946693 0.25815955 0.027295817 -0.99912477 -0.03169639 0.00035797624
-0.14124447 -0.30879432 0.27702537 -0.0053079403 -0.99901289 -0.044103719 0.00059472403
-0.20947234 0.006399062 0.60563028 0.031984508 0.37123355 0.92798847 0.051685497
-0.19892392 -0.31048951 0.24228498 0.026988305 -0.99952942 -0.014580647 0.00034895894
-0.23393559 -0.31068721 0.23110051 0.0078900633 -0.99985576 -0.015044564 0.0008099784
-0.26813766 -0.30987924 0.23662764 -0.011846464 -0.99960434 -0.025512405 0.00076013064
-0.26648301 -0.31083441 0.2503992 -0.017448904 -0.99927604 -0.033805527 0.00068296154
-0.27053007 -0.31157193 0.26073551 -0.030096114 -0.99916035 -0.027802341 0.0010426556
-0.3991214 -0.31367218 0.341649 -0.072897345 -0.87036842 -0.48697504 0
-0.30158353 -0.30943236 0.26303509 -0.057761084 -0.99814069 -0.019463735 0.0014556298
-0.29595101 -0.30873403 0.2507259 -0.042145927 -0.99887365 -0.021799721 0.0009890853
-0.30326882 -0.30940956 0.28013229 -0.087625764 -0.99552739 0.035310797 0.010187766
-0.39139676 -0.31620973 0.34503296 -0.14041474 -0.85369736 -0.50148231 0.00014776074
-0.22325595 -0.31059304 0.26147938 0.014872967 -0.99938834 -0.031649984 0.00052050233
-0.16172208 -0.26860738 0.40171245 -0.26826948 -0.6639815 0.69796848 0.072286636
-0.15908076 -0.2838864 0.40020609 -0.25190562 -0.69477063 0.67367458 0.065030351
-0.15840007 -0.29528317 0.39133316 -0.26435843 -0.69293553 0.6707868 0.061127711
-0.17876792 -0.22998948 0.42687917 -0.26746204 -0.41241175 0.8708505 0.0461457
-0.16381429 -0.31260934 0.352718 -0.1640342 -0.90722036 0.38735518 0.05314846
-0.17772347 -0.31283128 0.34047696 -0.076018505 -0.95759356 0.27791324 0.041939832
-0.18300545 -0.31333551 0.34563461 -0.065585218 -0.95035738 0.30416992 0.038322095
-0.19598022 -0.31129095 0.3346926 -0.0089812595 -0.98491913 0.17278187 0.033705272
-0.209727 -0.31290573 0.34001118 -0.056196768 -0.95780635 0.28186697 0.033209968
-0.23115653 -0.31630245 0.34700647 -0.06996581 -0.95578557 0.28561983 0.034269333
-0.23917387 -0.31351483 0.33043212 -0.049508765 -0.99113214 0.12331231 0.025858389
-0.25143796 -0.31891456 0.34613073 -0.071498737 -0.96515894 0.2517063 0.033526003
-0.25934193 -0.31775811 0.33995092 -0.070155695 -0.97409528 0.21498027 0.035807654
-0.22108135 -0.31075051 0.23701607 0.015439902 -0.99975443 -0.015897352 0.00061629451
-0.27719057 -0.31113023 0.33329752 -0.078694902 -0.99096709 0.1085882 0.03012849
-0.24568948 -0.31073153 0.24179123 -0.0010763006 -0.99930352 -0.037299871 0.00098338933
-0.30105162 -0.30177101 0.36732933 -0.10425273 -0.82022518 0.56246054 0.060745481
-0.28885847 -0.31139305 0.33018503 -0.092534751 -0.99061829 0.10056213 0.031268947
-0.30775154 -0.30437073 0.36459836 -0.13216649 -0.92134011 0.36560142 0.055008013
-0.30514345 -0.30248478 0.33585972 -0.15574919 -0.98352283 0.091788009 0.015286617
-0.29914868 -0.29247242 0.35335782 -0.16310121 -0.78675961 0.595321 0.071489036
-0.30868521 -0.2104691 0.38994989 -0.36933604 -0.76937741 0.52119988 0.03031799
-0.3084107 -0.31074405 0.29840556 -0.12621076 -0.99063915 0.052008271 0.011425623
-0.32307503 -0.30859292 0.31111938 -0.056795761 -0.99605054 0.068246201 0.016472718
-0.31745529 -0.30643472 0.25877771 -0.05836184 -0.99828994 -0.0033360985 0.0017488129
-0.3153275 -0.30908531 0.30854762 -0.14186452 -0.98791903 0.06237239 0.012080933
-0.3101759 -0.30980569 0.2967841 -0.13164136 -0.98994416 0.0517799 0.011597345
-0.18133937 -0.085704871 0.62416452 0.040598851 -0.0011334277 0.99917489 0.0041025495
-0.18092316 -0.30840987 0.27063376 0.0090643819 -0.99939024 -0.033721291 0.00049618818
-0.18191096 -0.30766591 0.27565566 0.010011539 -0.99933344 -0.035107404 0.00047658058
-0.19309871 -0.31013593 0.24249448 0.022713229 -0.99950176 -0.021915166 0.00052423222
-0.27664533 -0.31165698 0.28293037 -0.072924368 -0.99732971 0.0039183018 0.008376319
-0.2390236 -0.3107658 0.23199779 0.0063269427 -0.99984771 -0.016265776 0.00086487236
-0.3013337 -0.29610777 0.35142672 -0.13013701 -0.95420361 0.26936954 0.051742125
-0.30721343 -0.30765349 0.25102746 -0.050685428 -0.99863225 -0.012828271 0.00096155616
-0.18694788 -0.31020975 0.29123104 0.015985977 -0.99912304 -0.038698979 0.00045792395
-0.19277513 -0.30889913 0.25834301 0.015931347 -0.99951822 -0.026636794 0.00053925393
-0.22795793 -0.3101902 0.28408185 0.0019910387 -0.99941611 -0.034109198 0.0013264364
-0.19310689 -0.3083587 0.2603167 0.017923513 -0.99939752 -0.029717907 0.00048476347
-0.22245991 -0.3123939 0.28045574 0.0086721769 -0.99926388 -0.037368782 0.0011720799
-0.22722645 -0.31048295 0.24220674 0.014269375 -0.99956506 -0.025808418 0.00069343048
-0.27254125 -0.31187442 0.26468799 -0.03942167 -0.99891305 -0.024871964 0.0017032287
-0.41759714 -0.32296699 0.36102247 -0.072897345 -0.87036842 -0.48697504 0
-0.24167195 -0.3105115 0.23470986 -0.0014672015 -0.99984598 -0.017488366 0.00094481779
-0.2525841 -0.31032902 0.23788156 -0.0072157029 -0.99939007 -0.034168303 0.00091593864
-0.17891869 -0.22894731 0.44416595 -0.36426494 -0.38786921 0.84668088 0.065739736
-0.1661986 -0.3076061 0.40861478 -0.25449312 -0.74222088 0.61995268 0.05982798
-0.16092008 -0.28817916 0.40959859 -0.29606721 -0.6779272 0.67287362 0.066760555
-0.16033429 -0.2822347 0.41241965 -0.25379133 -0.658252 0.70872724 0.072524488
-0.16222985 -0.30018613 0.40272215 -0.22952151 -0.70147175 0.6747275 0.06131709
-0.16488019 -0.17801 0.45410967 -0.037837312 -0.51339304 0.857319 0.056353025
-0.17619836 -0.22849904 0.4379482 -0.37433833 -0.37407628 0.84849143 0.067253634
-0.13999985 -0.3108272 0.36578259 -0.15230955 -0.85562944 0.49467161 0.045185756
-0.16204742 -0.29777265 0.40086031 -0.25732687 -0.69229811 0.67417067 0.063084446
-0.16273072 -0.2996825 0.40574583 -0.25728419 -0.69297624 0.67348999 0.059410263
-0.15955445 -0.28290883 0.40662059 -0.27438298 -0.66352427 0.69602406 0.067386471
-0.16202851 -0.27365062 0.41405806 -0.2685664 -0.61842376 0.73852837 0.086796753
-0.11450227 -0.31954178 0.37426507 -0.12500003 -0.93753392 0.32466155 0.03650504
-0.11605146 -0.31408346 0.36097693 -0.10337428 -0.95400667 0.28139839 0.038993448
-0.13141155 -0.31140599 0.366496 -0.1360257 -0.88300395 0.44922277 0.045404684
-0.13536692 -0.1781894 0.45702285 -0.064454138 -0.46289191 0.88406831 0.024139404
-0.1379333 -0.24461585 0.4194434 -0.25631016 -0.40348825 0.87835205 0.045268234
-0.14995629 -0.31081647 0.36064306 -0.17462748 -0.87135804 0.45851988 0.053600796
-0.16069824 -0.26394096 0.4105067 -0.17589365 -0.57345361 0.80013269 0.083689839
-0.061236218 -0.31492388 0.37384841 0.018663742 -0.99282438 0.11811575 0.033046074
-0.041005652 -0.146209 0.50707406 0.81493682 -0.47367403 -0.33393225 0.015686586
-0.041724939 -0.15487568 0.50669193 0.81493682 -0.47367403 -0.33393225 0.015686586
-0.0095656561 -0.15238003 0.64545506 0.2389901 0.111543 0.96459419 0.07152538
-0.080201522 -0.0019133987 0.64800227 -0.13180934 -0.080434278 0.98800635 0.065204218
-0.080631308 -0.0018529027 0.64899689 -0.18808286 -0.071477495 0.97954881 0.053907149
-0.021961927 -0.30222604 0.42807344 -0.36904183 -0.87380135 0.31666929 0.075781338
-0.018996686 -0.30601528 0.43151465 -0.4096202 -0.83990169 0.35605672 0.071343169
-0.032751679 -0.28903195 0.43305206 -0.45703289 -0.794025 0.40080571 0.072152935
-0.12344015 -0.32136208 0.37585282 -0.13767807 -0.89025879 0.4341476 0.04162905
-0.16593677 -0.25608575 0.41722021 -0.27775425 -0.36857533 0.88713294 0.088591717
-0.093920864 -0.31837496 0.37967819 -0.092262216 -0.95527363 0.28096256 0.034168888
-0.074722007 -0.31733319 0.38468695 -0.014866878 -0.97987938 0.19903615 0.038250327
-0.10400637 -0.31961432 0.37919366 -0.11468881 -0.9517073 0.28477991 0.034573991
-0.055487026 -0.31709996 0.38895756 0.0057698209 -0.97792947 0.20885576 0.047314763
-0.065586992 -0.31754419 0.38860139 -0.010529568 -0.97905064 0.20334464 0.042056005
-0.046737414 -0.31309822 0.32478526 0.018869286 -0.99870068 -0.047337916 0.00082271057
-0.084904209 -0.31833276 0.38498217 -0.082544871 -0.94801635 0.30732945 0.036027562
-0.041783538 -0.31260237 0.39786416 -0.042160615 -0.97248739 0.22910848 0.050338369
-0.1380206 -0.17690055 0.45866379 -0.064454138 -0.46289191 0.88406831 0.024139404
-0.14086103 -0.31419489 0.36092094 -0.1462115 -0.88493013 0.44217747 0.045714762
-0.036535904 -0.31345347 0.39330706 -0.038621772 -0.97443855 0.22130923 0.051659163
-0.04601603 -0.31482303 0.39307782 -0.014641352 -0.97493201 0.22202052 0.046710573
-0.10299949 -0.31629327 0.36850449 -0.10685096 -0.97993463 0.16825868 0.027056696
-0.024125552 -0.31267169 0.39936301 -0.12058848 -0.96583742 0.22938272 0.057115026
-0.038706046 -0.31306675 0.33197561 0.020635325 -0.99891979 -0.041635755 0.0010877211
-0.065896258 -0.31556323 0.37709379 0.0063482001 -0.98739362 0.15815696 0.036557134
-0.026367666 -0.31334221 0.39772534 -0.10702642 -0.96848321 0.22491266 0.055990811
-0.12194514 -0.31628063 0.36509171 -0.10749919 -0.93241602 0.34502798 0.045341808
-0.049220499 -0.31148353 0.40552491 -0.081714213 -0.9622525 0.25960153 0.052964151
-0.08443401 -0.31645173 0.37302572 -0.045911904 -0.98343122 0.17537136 0.030598136
-0.067321643 -0.26722279 0.43969843 -0.39033246 -0.66544443 0.63625801 0.025768878
-0.01918048 -0.31062618 0.29936582 0.019370338 -0.9976114 -0.066304997 0.00045207917
-0.15384364 -0.31202194 0.35828319 -0.1587349 -0.87763673 0.4522799 0.054926753
-0.13620025 -0.31501213 0.36568189 -0.14189722 -0.86793125 0.47598365 0.044450328
-0.039679665 -0.31258121 0.31273955 0.010393688 -0.99834567 -0.05655029 0.00050683646
-0.029128881 -0.31274682 0.39472863 -0.058240615 -0.97705913 0.20485015 0.052128252
-0.010350914 -0.31268519 0.34161368 0.049737785 -0.99869841 -0.011301959 0.0058403197
-0.044919617 -0.31292352 0.31841388 0.017863093 -0.99847794 -0.052179292 0.00068139192
-0.06988354 -0.26527801 0.43878111 -0.36045635 -0.64270115 0.67602253 0.020419173
-0.059104245 -0.31678399 0.38495937 0.0014240358 -0.9809615 0.19419724 0.043934867
-0.043679539 -0.31323546 0.33509803 0.020569367 -0.99891675 -0.041739412 0.0010483826
-0.097528882 -0.31552476 0.36614954 -0.094725847 -0.98364109 0.15322281 0.027872201
-0.057566077 -0.31214109 0.30802774 0.0082550012 -0.9982146 -0.05915644 0.00041132406
-0.0077699577 -0.31292486 0.34593117 0.052796036 -0.99857992 -0.0071263616 0.0065654409
-0.0085467203 -0.31200677 0.33199945 0.023678297 -0.99877721 -0.043399725 0.00076125562
-0.06029404 -0.31247544 0.31823632 0.016664542 -0.99819016 -0.057781868 0.00061225251
-0.042317081 -0.31295758 0.32237217 0.019554045 -0.99856615 -0.049832337 0.00073012488
-0.068278715 -0.31480294 0.36840948 0.029251719 -0.99552453 0.089863107 0.026126033
-0.041983802 -0.30935058 0.41011631 -0.10898459 -0.95561546 0.27371788 0.058530387
-0.012363912 -0.31328717 0.34975404 0.055355214 -0.99845695 -0.0044295145 0.006449122
-0.041715562 -0.31509203 0.37964919 0.027401917 -0.98953199 0.14168833 0.040939409
-0.012604277 -0.31563455 0.42546836 -0.34631535 -0.88795221 0.30266565 0.066103429
-0.014932002 -0.3167043 0.37156886 0.1064956 -0.99236697 0.062180471 0.019555153
-0.046595547 -0.31430149 0.35838029 0.050395403 -0.99841261 0.02515001 0.015423556
-0.053959571 -0.31305575 0.33015171 0.022845784 -0.99872887 -0.044931136 0.00090742292
-0.078933604 -0.31310153 0.3368049 0.0060247146 -0.99887002 -0.047143359 0.0009165972
-0.060767137 -0.31362304 0.34026343 0.018127147 -0.99894583 -0.042173665 0.0010906646
0.053006213 -0.21083304 0.65760344 -0.12612858 -0.0071277632 0.99198836 0.13500823
0.025979649 -0.16833559 0.65195346 -0.017835626 0.011878309 0.99977046 0.070083283
0.059258722 -0.20955579 0.65747321 -0.12612858 -0.0071277632 0.99198836 0.13500823
0.065322421 -0.31245366 0.50685221 0.08346805 -0.9926722 -0.087377883 0.013543486
0.012100915 -0.32742047 0.76641655 -0.027741419 -0.99960995 -0.0031837267 0.059548881
0.026794668 -0.31262508 0.81905425 -0.018712893 -0.99938452 0.029669678 0.094278745
0.028842041 -0.30781212 0.8099153 -0.020092014 -0.99979115 0.0037298989 0.084912874
0.040202431 -0.32054037 0.76896477 5.1447496e-05 -0.99999678 -0.0025378298 0.053110141
0.064478509 -0.31294966 0.50532091 0.08346805 -0.9926722 -0.087377883 0.013543486
0.021497816 -0.31062931 0.52608651 -0.010918837 -0.99981791 0.015645087 0.014197436
0.11153509 -0.31435445 0.51219672 0.056055434 -0.98886991 -0.1378191 0.017760212
0.088894725 -0.31142482 0.50990188 0.026421597 -0.99466813 -0.099685252 0.015082141
0.066201247 -0.088761531 0.66204304 -0.029072139 0.18357593 0.9825756 0.10642447
0.052749008 -0.078623623 0.65994292 -0.13786939 -0.024835924 0.99013895 0.089192264
0.06502343 -0.2091659 0.66046166 -0.031888567 -0.067980073 0.99717689 0.12956707
0.049691413 -0.3208124 0.49062088 0.019443968 -0.98501676 -0.1713593 0.016985167
0.017003754 -0.33213162 0.82880563 0.58100933 -0.80872339 0.091622047 0.091315262
-0.02865779 -0.224227 0.65570652 -0.005264407 0.0048826085 0.99997425 0.12252811
0.1547901 -0.31426829 0.51108158 0.031610098 -0.99890912 -0.034370415 0.0098206466
0.14663957 0.058467709 0.67502064 0.56681126 0.5375843 -0.62428206 0.20176437
0.15067206 0.032327522 0.67495012 0.43698406 0.5709669 -0.69501203 0.20014106
0.12472469 -0.10548558 0.65644586 -0.051682621 0.10596681 0.99302566 0.11753757
0.13515772 0.046710886 0.67474449 0.34543931 0.61744881 -0.70670265 0.19336516
0.12849988 0.057516787 0.67648435 0.56751257 0.45594123 -0.6855998 0.24616179
0.12757157 -0.33502352 0.7294029 -0.046353575 -0.99302268 -0.10843085 0.021722624
0.11721753 -0.088781953 0.66694564 -0.14915061 0.12581012 0.98077822 0.088697165
0.10897361 -0.099041231 0.66641676 -0.015026669 0.086808845 0.99611163 0.11105509
0.097970836 -0.11142461 0.66406643 -0.070333593 0.050583556 0.9962402 0.10581696
0.083549641 0.059775621 0.6708408 -0.24816701 -0.30836767 0.91832596 0.11431113
0.065254182 -0.3128514 0.50938457 0.08346805 -0.9926722 -0.087377883 0.013543486
0.059925336 -0.31266284 0.52993912 0.075703286 -0.99613905 -0.044452894 0.015431308
0.086488999 -0.090818077 0.66180152 -0.028065503 0.20080973 0.97922808 0.09486118
0.087417834 -0.11497092 0.66430146 -0.11534442 -0.058537822 0.9915992 0.088348985
0.089257687 -0.13448319 0.66101593 -0.090293229 -0.091104187 0.99173951 0.062766135
0.082855567 -0.15736954 0.66197449 0.078405909 -0.16616526 0.98297596 0.057760376
0.045742348 -0.21536842 0.67544204 0.014213347 0.0098593021 0.99985039 0.1285325
0.045757774 -0.31070682 0.76460665 -0.049625639 -0.99876082 -0.0037496551 0.04740284
0.001352824 -0.30451089 0.60923553 0.58796299 -0.76431417 -0.2648083 0.0010446353
-0.001456983 -0.30777159 0.60253781 -0.15964711 -0.98672587 -0.029746799 0.012109668
-0.01145743 -0.31381041 0.42762694 -0.38610998 -0.86545777 0.31922093 0.067401104
0.16967909 -0.041309308 0.67496246 0.87269849 0.10984185 -0.47574377 0.20568594
0.17326669 -0.30951869 0.57394642 0.45704424 -0.88713104 -0.064102665 2.5081383e-05
0.19650505 -0.33844683 0.83514625 0.61302233 0.69446766 0.37672031 0.0050170198
0.10498466 -0.11407971 0.66167259 -0.11873198 0.024321685 0.9926284 0.10625736
0.084320776 -0.15215261 0.67003155 0.052835524 -0.14747822 0.98765302 0.056722134
0.030495051 -0.1474807 0.66822898 -0.076255724 -0.10839869 0.99117851 0.050123829
0.1741107 -0.30838299 0.57164961 0.45704424 -0.88713104 -0.064102665 2.5081383e-05
0.14207807 -0.080223918 0.67015553 -0.035647932 0.046246011 0.99829388 0.047871903
0.11143014 -0.31290981 0.51002544 0.056055434 -0.98886991 -0.1378191 0.017760212
0.1362195 0.022792175 0.66966122 0.36009333 0.70890421 -0.60645503 0.18420808
0.10911063 -0.099747822 0.66549563 -0.015026669 0.086808845 0.99611163 0.11105509
0.086569861 -0.32991901 0.78894103 -0.069385611 -0.99675095 0.040906169 0.046332013
0.088744618 -0.16496511 0.66244626 0.082681715 -0.16178706 0.98335582 0.059368104
0.11238313 0.053921673 0.70629007 0.89804131 0.40046015 0.18208098 0.26451561
0.015659828 -0.15656996 0.65730149 -0.08346013 -0.088230573 0.99259752 0.060579725
-0.01692131 -0.3114979 0.52579409 -0.12544395 -0.99106121 0.045402728 0.013584128
0.081620373 -0.19221242 0.64078534 0.073711745 -0.0010338627 0.99727905 0.13210668
0.096412659 -0.068396471 0.63125312 -0.071033314 0.098127313 0.99263549 0.052274447
0.0367449 0.076794527 0.66766262 -0.021393003 0.0038924811 0.99976361 0.077962004
-0.0053757401 -0.29535779 0.44797516 -0.47172761 -0.7923227 0.38690805 0.046867214
-0.03574574 -0.2190385 0.65244758 0.4733094 -0.16541322 0.86522639 0.077435605
0.056723341 -0.33904445 0.78542733 -0.044410963 -0.99900591 0.0038374779 0.055824697
-0.036774103 -0.15702604 0.66038239 0.20292799 0.086432166 0.9753716 0.095390521
-0.035956249 -0.1650158 0.65920913 0.18793926 0.048873611 0.98096389 0.094725259
-0.034466937 -0.094764017 0.66230941 0.10558254 0.17919193 0.97813225 0.063375108
-0.0014755162 -0.32266465 0.48797491 -0.049408972 -0.98539048 -0.16298543 0.035897527
-0.036929525 -0.14266418 0.65709305 0.23595099 0.14553614 0.96080506 0.10988139
-0.03474991 -0.13312845 0.65632957 0.39731783 0.32005781 0.86005908 0.10690888
-0.036423068 -0.1107609 0.65685415 0.54686517 0.49258184 0.67697978 0.04793841
-0.035307009 -0.09634722 0.6553703 0.15221587 0.18398814 0.97107095 0.064774081
-0.015737504 -0.31797165 0.37854251 0.11273251 -0.99060422 0.077424973 0.020876003
-0.028785765 0.026025863 0.66575694 -0.051070612 0.99750078 -0.048827101 0.016529875
-0.018054169 -0.31686738 0.37645233 0.086297639 -0.99209774 0.091075554 0.02812635
-0.017771255 -0.30812207 0.43564686 -0.44956508 -0.8019098 0.39348686 0.063332558
-0.022016393 -0.31624591 0.38707718 0.040800054 -0.98977554 0.13667423 0.03710901
-0.024949161 -0.31408054 0.39214465 -0.076379031 -0.97806668 0.19378226 0.051080521
-0.028164884 -0.31272483 0.40261111 -0.099752806 -0.9647581 0.24349788 0.05811391
-0.04174909 -0.15728106 0.51329786 0.81493682 -0.47367403 -0.33393225 0.015686586
0.026548781 -0.31383929 0.8274802 -0.018712893 -0.99938452 0.029669678 0.094278745
0.041732047 -0.31248584 0.53350073 0.054291423 -0.99734706 0.048490237 0.015285386
0.01543211 -0.32753325 0.81856042 0.039002195 -0.99835414 0.042047042 0.1065899
0.021665998 -0.31347781 0.53084213 -0.010918837 -0.99981791 0.015645087 0.014197436
0.054731179 0.088576071 0.67369348 0.35174531 0.93442827 0.055847608 0.018279776
0.024619034 -0.31880072 0.83558226 0.085948594 -0.99607903 0.020961557 0.12070046
0.012646629 -0.32943293 0.81424868 0.039002195 -0.99835414 0.042047042 0.1065899
0.012023812 -0.32740071 0.76766592 -0.027741419 -0.99960995 -0.0031837267 0.059548881
0.19190787 -0.32825285 0.83097827 0.61302233 0.69446766 0.37672031 0.0050170198
0.11838873 -0.33242854 0.73965371 -0.14826182 -0.96322995 -0.22406791 0.023160253
0.12454122 -0.10612746 0.65562361 -0.051682621 0.10596681 0.99302566 0.11753757
0.10704252 -0.114409 0.65377003 -0.11539051 -0.048258699 0.99214721 0.1020504
0.10402858 -0.10691871 0.66212183 -0.10025755 0.063125581 0.99295694 0.11191551
0.081473768 -0.19477585 0.6533339 0.073703744 -0.0010476379 0.99727964 0.13210733
0.11565581 -0.095468625 0.66918641 -0.13677028 0.13522299 0.98133004 0.10408965
0.059698604 -0.20999366 0.65914899 -0.053947806 0.020404959 0.99833524 0.13892196
0.052455954 -0.20555493 0.64137477 -0.17130014 0.048154633 0.98404133 0.12395394
0.094190545 -0.10327222 0.64761442 -0.11752982 0.030260583 0.99260825 0.10775858
0.059694182 -0.080632508 0.65071386 -0.0315945 0.21189788 0.97678095 0.10930897
0.090871468 -0.11583972 0.6646558 -0.11534442 -0.058537822 0.9915992 0.088348985
0.088836879 -0.13441406 0.65566355 -0.090293229 -0.091104187 0.99173951 0.062766135
0.085866004 -0.095443144 0.65986937 -0.056812644 0.086622298 0.99461997 0.10808895
0.064605668 -0.20432575 0.6462304 -0.17506745 -0.028443052 0.98414546 0.11362941
0.02995207 -0.15979119 0.64740044 -0.066233732 -0.082422689 0.99439412 0.072695591
0.049980894 -0.3183507 0.48394564 0.019443968 -0.98501676 -0.1713593 0.016985167
0.046713166 -0.20885161 0.64592946 -0.069507711 0.077809334 0.9945423 0.10736198
0.018728653 -0.15904355 0.65020216 -0.063769616 -0.045015242 0.99694884 0.067335494
0.05191363 -0.077709831 0.65291786 -0.14247486 -0.0074053234 0.98977077 0.073461711
0.037589975 -0.068087868 0.65845072 -0.11683718 0.0062671895 0.99313128 0.062704369
-0.011491705 -0.15654653 0.65247697 0.21570659 0.1122262 0.96998763 0.074806996
0.090507522 -0.1134877 0.66312641 -0.10046178 -0.012790741 0.99485874 0.089954145
0.19411948 -0.32419595 0.81085402 0.61302233 0.69446766 0.37672031 0.0050170198
0.12589137 -0.10599247 0.65233505 -0.051682621 0.10596681 0.99302566 0.11753757
0.1054679 -0.11022104 0.65693623 -0.076843306 0.00098327966 0.99704272 0.11034389
0.087354422 -0.30699334 0.49105865 0.026421597 -0.99466813 -0.099685252 0.015082141
0.080141552 -0.14645486 0.6458292 -0.1058078 -0.064201355 0.99231189 0.056600284
0.081067041 -0.1922342 0.63935065 0.073711745 -0.0010338627 0.99727905 0.13210668
0.057635188 -0.20444182 0.64240956 -0.17506745 -0.028443052 0.98414546 0.11362941
0.05218222 -0.20501509 0.63994139 -0.17130014 0.048154633 0.98404133 0.12395394
0.088951953 -0.13309808 0.65082937 -0.085705802 -0.10664396 0.99059653 0.062567763
0.082225256 -0.15355243 0.64074087 -0.085236147 -0.061723202 0.99444717 0.0619746
0.042937212 -0.31849715 0.75709414 -0.049928863 -0.99873507 -0.0059489049 0.05041049
0.03513287 -0.30615556 0.7921713 -0.021504661 -0.99975413 0.0054089562 0.075389907
0.06322515 -0.20160881 0.63857186 -0.17506745 -0.028443052 0.98414546 0.11362941
0.051073279 -0.31359261 0.47230756 0.048536498 -0.99013883 -0.1314124 0.016981803
0.046968054 -0.2082212 0.64386618 -0.069507711 0.077809334 0.9945423 0.10736198
0.026591664 -0.30919603 0.80595434 -0.020092014 -0.99979115 0.0037298989 0.084912874
0.05354818 -0.31290865 0.47613341 0.036159854 -0.98018664 -0.19474782 0.017736455
0.10797758 -0.30453584 0.49282241 0.056055434 -0.98886991 -0.1378191 0.017760212
0.18902238 -0.32300183 0.8169961 0.61302233 0.69446766 0.37672031 0.0050170198
0.16052054 -0.091513425 0.65813643 -0.11252448 0.12195082 0.98613703 0.08378949
0.085572504 -0.091252476 0.65531236 -0.06706468 0.14248557 0.98752224 0.10407914
0.030695193 -0.15986219 0.64466238 -0.077197656 -0.059100505 0.99526256 0.071082614
0.1657232 -0.030799825 0.66288239 0.50726891 0.31657508 -0.80153519 0.20412751
0.13673012 -0.0063612834 0.6573121 -0.34604016 -0.37814277 0.85864091 0.15076391
0.0076082712 -0.32314461 0.67595708 0.50558823 -0.82167941 -0.26310369 0.0010656494
0.0031468321 -0.2986365 0.59591001 -0.10018601 -0.99447495 0.031343017 0.0067051435
0.012456926 -0.32984698 0.76333117 0.016405061 -0.9998458 0.0062657502 0.063465156
-0.0030316352 -0.31258294 0.4686006 -0.053793781 -0.99719304 -0.052080147 0.038676932
0.12124486 0.056798927 0.67289263 0.48020923 0.48418757 -0.73141056 0.19330682
0.017239483 -0.32470828 0.78334647 -0.021504661 -0.99975413 0.0054089562 0.075389907
0.05780964 -0.32961291 0.75773436 -0.082209669 -0.99633318 0.02369928 0.043316446
-0.00070156495 -0.30971879 0.46562052 -0.048708625 -0.9976849 -0.047459263 0.040848013
0.11467339 0.055373244 0.67233407 0.36882183 0.49968174 -0.78376567 0.18659459
0.189285 -0.30153471 0.58049542 0.45704424 -0.88713104 -0.064102665 2.5081383e-05
-0.041774407 -0.15165415 0.49471542 0.81493682 -0.47367403 -0.33393225 0.015686586
-0.16546825 -0.18002115 0.44202372 0.060264964 0.53014261 -0.8457641 0.051014118
-0.014864 0.02149081 0.64647484 -0.057694338 0.98362345 -0.17075217 0.038777709
-0.031315465 -0.11488872 0.63927501 0.50750077 0.48654842 0.71113551 0.043994136
-0.036315579 -0.093265101 0.63708043 0.53790808 0.44076955 0.71859372 0.033433329
-0.061747152 -0.067586437 0.6322999 -0.05880478 -0.0012706997 0.99826866 0.041702956
-0.041028887 -0.14314005 0.49657845 0.81493682 -0.47367403 -0.33393225 0.015686586
-0.050640345 -0.31212214 0.40223399 -0.048571162 -0.9616096 0.27008867 0.049842566
-0.081834957 -0.060912069 0.63777906 -0.17739992 -0.055822425 0.98255438 0.044439111
-0.080054633 -0.053897988 0.63402689 -0.1618184 -0.047876682 0.98565847 0.047924586
-0.067519121 -0.26307654 0.42948183 -0.35456598 -0.66249758 0.65983325 0.022548964
-0.065667421 -0.31573611 0.37901562 0.0049052155 -0.98687351 0.16142087 0.036787439
-0.07873188 -0.051754411 0.63410264 -0.18101886 -0.058580685 0.98173338 0.047097899
-0.11993565 -0.0013044026 0.62787026 -0.13286546 -0.10315756 0.98575109 0.018344216
-0.091764286 -0.061784752 0.63411129 -0.22528495 -0.056282438 0.97266597 0.044666015
-0.15394694 -0.11960153 0.62296665 0.030636329 -0.052023642 0.9981758 0.0063500376
-0.10593253 -0.3115029 0.3501398 -0.085516743 -0.99288774 0.082830116 0.025572255
-0.20418268 -0.012290077 0.62302142 -0.011519562 0.10687455 0.99420577 0.04112247
-0.18820302 -0.080520339 0.62704062 0.011474687 -0.017186588 0.99978644 0.0036845831
-0.15724154 -0.29232436 0.39251256 -0.26436412 -0.69294077 0.67077923 0.061123811
-0.079636671 -0.0020593144 0.63770878 -0.13179779 -0.08044786 0.98800677 0.065218076
-0.075464316 -0.010123506 0.64188462 -0.13179779 -0.08044786 0.98800677 0.065218076
-0.079943657 -0.0020990667 0.63477558 -0.13179779 -0.08044786 0.98800677 0.065218076
-0.10373699 -0.31698364 0.37126657 -0.1133865 -0.97788811 0.17572205 0.0278545
-0.11248433 -0.31507349 0.36451054 -0.11742794 -0.95938247 0.25650746 0.036647726
-0.032197367 -0.10053264 0.64109486 0.1509891 0.16622366 0.97445983 0.06237179
-0.27067024 0.027478203 0.62359208 0.25011322 0.21104957 0.94493461 0.080500744
-0.26935673 0.025345448 0.62155294 0.19968642 0.20519562 0.95813364 0.076911494
-0.28290921 0.087466277 0.63231581 -0.78218329 -0.054536752 -0.62065691 0.0013092223
-0.27779087 0.056486394 0.63177109 -0.78173769 -0.038288262 -0.6224308 0.0047431705
-0.27123642 0.086833574 0.61806595 -0.79046553 -0.047696389 -0.61064672 0.0012250528
-0.21119486 -0.010631661 0.62493998 -0.0030689028 0.11436002 0.99343467 0.044944257
-0.17782888 -0.13102563 0.62209028 0.1479346 0.011281348 0.98893279 0.0091206217
-0.2165868 -0.2943621 0.39106831 -0.26761687 -0.652587 0.70888036 0.048981991
-0.15658024 -0.29190743 0.3894279 -0.26436412 -0.69294077 0.67077923 0.061123811
-0.15720199 -0.29350525 0.3905305 -0.26436412 -0.69294077 0.67077923 0.061123811
-0.074199438 -0.31566325 0.37645671 0.012145039 -0.98829973 0.15203999 0.032475051
-0.12286884 -0.31666747 0.36575946 -0.10591195 -0.93190533 0.34689349 0.044410996
-0.070480287 -0.31440204 0.34940904 0.013263773 -0.99912983 -0.039543964 0.0010852404
-0.081578813 -0.18200174 0.46908912 -0.16007189 -0.57752907 0.80052304 0.019630568
-0.18837097 -0.22793216 0.3755213 0.25000677 0.42515582 -0.86990756 0.060994379
-0.063419364 -0.31250778 0.32426789 0.016820807 -0.99844414 -0.053164747 0.00078811112
-0.24542776 -0.31480238 0.3320314 -0.055510696 -0.98731536 0.1487512 0.02853325
-0.23208626 -0.31205386 0.32618409 -0.046355732 -0.99385124 0.10055285 0.027128214
-0.027465248 -0.12573305 0.64221168 0.41809392 0.33205831 0.84553814 0.10058247
-0.065949872 -0.31166694 0.31119245 0.014465676 -0.99795216 -0.062307935 0.00048237751
-0.081310444 -0.31392053 0.35198012 -0.0030427745 -0.99947882 -0.032138526 0.0033583143
-0.067528553 -0.31344873 0.33647388 0.013594003 -0.99898762 -0.042883422 0.0010504271
-0.10276334 -0.31367695 0.35722244 -0.094288819 -0.98784488 0.12358078 0.028542563
-0.27605835 0.015183406 0.63639134 0.23979689 0.18993057 0.9520629 0.088016674
-0.19224882 -0.089193411 0.63033235 0.14182417 0.036908109 0.98920357 0.0038378469
-0.26883546 -0.22237642 0.4102357 -0.28373986 -0.7170102 0.63670093 0.026210526
-0.26858506 -0.22436047 0.41514239 -0.28373986 -0.7170102 0.63670093 0.026210526
-0.30187371 -0.21708611 0.3865138 -0.37311095 -0.74107176 0.55821222 0.022623532
-0.24358739 -0.23785795 0.38835207 0.12228212 0.50726402 -0.85307109 0.051661082
-0.27604544 -0.31041348 0.3289004 -0.07841263 -0.99175191 0.10138822 0.02919803
-0.26762173 -0.30746707 0.34175754 -0.066123396 -0.9741562 0.21598026 0.037480824
-0.28447938 -0.31029347 0.31986943 -0.11169482 -0.9926793 0.045957766 0.011137294
-0.26535392 -0.31302613 0.32493457 -0.068620168 -0.99392748 0.086020522 0.023439694
-0.18827507 -0.31305861 0.34608662 -0.079452798 -0.94502556 0.31719708 0.039321627
-0.16945115 -0.31145006 0.35171941 -0.12527867 -0.91216099 0.39021474 0.054239582
-0.15055488 -0.31238592 0.35688102 -0.16832066 -0.88266098 0.43883684 0.053764343
-0.22579992 -0.25601089 0.38978821 -0.3029485 -0.5145852 0.80213726 0.051365826
-0.1411366 -0.31294763 0.35836381 -0.14063926 -0.89831328 0.4162378 0.048335224
-0.13186172 -0.31346589 0.36117294 -0.12408206 -0.91053391 0.39437497 0.04708739
-0.15882216 -0.28235057 0.39894921 -0.24088539 -0.68243074 0.69011772 0.064356335
-0.16051503 -0.26466149 0.42059082 -0.21129704 -0.46878603 0.85766727 0.10229194
-0.1985829 -0.24203853 0.38998958 0.21871553 0.39222366 -0.89348984 0.060714915
-0.17602278 -0.11010804 0.62322748 0.14802268 0.0062483824 0.9889642 0.0074383421
-0.20087178 -0.0053036637 0.62562305 -0.005713243 0.1478629 0.98899132 0.047585983
-0.1909744 -0.08347185 0.62893397 0.0094689373 -0.027838664 0.99956763 0.0040424624
-0.21048142 -0.020843932 0.62063611 -0.011519562 0.10687455 0.99420577 0.04112247
-0.078580536 -0.019004978 0.63543397 -0.13179779 -0.08044786 0.98800677 0.065218076
-0.078998253 -0.31323057 0.30636746 0.0077197906 -0.99807429 -0.061546706 0.00053799007
-0.26345369 -0.31281668 0.30264497 -0.064269625 -0.99783599 0.013885312 0.0071383817
-0.15725988 -0.31442708 0.34280598 -0.1270975 -0.9549219 0.26827314 0.045116898
-0.13907219 -0.31322035 0.34855092 -0.11726593 -0.95164049 0.2839528 0.043213516
-0.24879937 -0.31434959 0.32144248 -0.052760351 -0.99576241 0.075323269 0.017733745
-0.2692633 -0.31185034 0.31767726 -0.066672683 -0.99541253 0.068620265 0.021833079
-0.19527785 -0.31115106 0.33439916 -0.015249693 -0.9836368 0.17951675 0.033598512
-0.17701639 -0.31281352 0.33843321 -0.073696651 -0.96292609 0.25950378 0.042053178
-0.24928555 -0.31160161 0.28625008 -0.031679701 -0.999475 -0.0067947195 0.0052736094
-0.21361063 -0.31237769 0.33017239 -0.034639373 -0.99308759 0.11214778 0.029370995
-0.27759817 -0.30677226 0.34557781 -0.067358971 -0.96159506 0.26607826 0.048358016
-0.086808421 -0.31364241 0.35278395 -0.011873471 -0.99961549 -0.025061255 0.0045318394
-0.27729103 -0.31211174 0.29005849 -0.076384418 -0.99706352 0.0054670409 0.0085390266
-0.22906947 -0.31094387 0.2526575 0.0081832884 -0.99936342 -0.034724128 0.00070326542
-0.30008391 -0.22371702 0.38828421 -0.22186738 -0.55087769 0.80455494 0.030590327
-0.18507306 -0.22647066 0.39542669 0.25186285 0.40700525 -0.87801582 0.048404653
-0.16969353 -0.26655751 0.37791193 -0.31080571 -0.67926306 0.66483194 0.056313448
-0.15428317 -0.29105479 0.38208452 -0.26343083 -0.7192241 0.64290029 0.067659199
-0.15105978 -0.27387831 0.38315398 -0.24493417 -0.67724216 0.69379407 0.063380957
-0.28519991 -0.29465222 0.3485091 -0.054425564 -0.85603684 0.5140416 0.065797575
-0.28181538 -0.29259577 0.34864253 -0.068862207 -0.81271684 0.57857525 0.065168008
-0.21981011 -0.31005484 0.25958425 0.019365596 -0.99927109 -0.032898363 0.00050242298
-0.23953371 -0.31345147 0.3277795 -0.047479648 -0.99116206 0.12386854 0.026099868
-0.28625137 -0.29573262 0.34906313 -0.054425564 -0.85603684 0.5140416 0.065797575
-0.20093334 -0.31317431 0.33331275 -0.010930482 -0.98656851 0.16298179 0.030361054
-0.26089409 -0.31283635 0.32930243 -0.064526089 -0.98661333 0.14976795 0.032512724
-0.25589368 -0.31376982 0.31637129 -0.057032414 -0.99674565 0.056969553 0.018835261
-0.13427129 -0.31357911 0.35029936 -0.1203728 -0.95755798 0.26190293 0.042849053
-0.11255055 -0.30859143 0.27470735 -0.0042991424 -0.99830598 -0.05802431 0.0004442409
-0.11674847 -0.31241918 0.35716614 -0.094825536 -0.95596361 0.27774397 0.038879804
-0.1340955 -0.25900659 0.39881113 -0.19892207 -0.63333946 0.74787104 0.057680421
-0.062937602 -0.26420718 0.4223744 -0.34799072 -0.71871889 0.60195142 0.030549282
-0.066564895 -0.26094082 0.4246473 -0.36080003 -0.68026638 0.6380133 0.024043547
-0.075077839 -0.17925031 0.46135029 -0.16007189 -0.57752907 0.80052304 0.019630568
-0.072290748 -0.17944431 0.46334112 -0.17337422 -0.55748934 0.81187868 0.022009406
-0.058773201 -0.30936599 0.28815037 0.011848625 -0.99841195 -0.055074692 0.00059407862
-0.04351398 -0.31398138 0.38862342 -0.0083182147 -0.97624838 0.21649468 0.048101615
-0.041808665 -0.14854416 0.48366988 0.81493682 -0.47367403 -0.33393225 0.015686586
-0.19591317 -0.012353144 0.62462837 -0.17450607 0.0970615 0.97986054 0.028043102
-0.1940733 -0.057629965 0.62630767 -0.034413323 0.0082025761 0.99937403 0.011801687
-0.19487037 -0.0021913159 0.62096596 -0.14086875 0.13093509 0.98133177 0.034275688
-0.021005027 -0.29657423 0.41433826 -0.24604033 -0.92575139 0.28713867 0.074372463
-0.043307539 -0.31199539 0.30636558 0.0082862731 -0.99824566 -0.058626227 0.00049495022
-0.030263171 -0.27976614 0.42800233 -0.46249783 -0.7950204 0.39247704 0.072274931
-0.044197306 -0.3105692 0.29334098 0.018703422 -0.99803931 -0.05973034 0.00037077817
-0.019464685 -0.31401506 0.38025758 0.056262847 -0.9917143 0.11548728 0.034631401
-0.022334795 -0.089719899 0.62102574 0.11176981 0.11920375 0.98655868 0.062142842
-0.032045044 -0.31484428 0.37451547 0.058593363 -0.9940834 0.091460429 0.031638511
-0.14529529 -0.13166983 0.62145388 0.058762297 -0.040833432 0.99743652 0.0088786641
-0.11060176 -0.18157865 0.45633438 -0.16467804 -0.50268638 0.84863865 0.0087657645
-0.07309141 -0.055246737 0.62868601 -0.17079219 -0.053187869 0.98387051 0.045792527
-0.014312034 -0.12626284 0.62944549 0.41809392 0.33205831 0.84553814 0.10058247
-0.021727799 -0.31488064 0.37744564 0.060021896 -0.99244243 0.10703016 0.033787113
-0.036710959 -0.31078342 0.29511902 0.017768122 -0.99800968 -0.06050631 0.0003824317
-0.15857507 -0.13822855 0.61793941 0.14774325 0.012184862 0.98895079 0.01141113
-0.19612834 -0.050825164 0.62759221 -0.084186099 0.013593131 0.99635732 0.013683325
-0.021907192 -0.29636237 0.41546145 -0.27432811 -0.92551464 0.26108739 0.075945228
0.0042260638 -0.16617139 0.62537342 0.15759861 0.16620839 0.97341537 0.05692758
-0.015341919 -0.31007767 0.29343152 0.022168433 -0.99761748 -0.065328591 0.00040204945
-0.02692032 -0.092911988 0.62814534 0.19297878 0.16006936 0.96805835 0.066009387
-0.016796999 -0.3092429 0.28065842 0.027226459 -0.99749541 -0.065281823 0.0004297588
-0.10165896 -0.061916802 0.62635577 -0.21431346 -0.027248172 0.97638482 0.030466583
-0.11103456 -0.061982825 0.62403768 -0.16874984 -0.0097839721 0.98561037 0.021456663
-0.16567475 -0.0677035 0.61645991 -0.017222403 -0.012216078 0.99977708 0.006250598
-0.0070128166 -0.31105253 0.32311451 0.017440753 -0.99868089 -0.048292961 0.00070036028
0.010943141 -0.15166835 0.62370229 0.10831694 0.075248294 0.99126446 0.05407507
-0.027380357 -0.30783725 0.27671856 0.026625451 -0.99762642 -0.063502446 0.00047584355
-0.019012664 -0.31004205 0.29075077 0.023358755 -0.99772561 -0.063229799 0.00036490933
-0.024151852 -0.31583378 0.37714899 0.073010601 -0.99178344 0.1050476 0.032398254
-0.071469426 -0.0084757861 0.6344645 -0.026014173 -0.12913652 0.99128556 0.090832658
-0.040208321 -0.13181919 0.49252588 0.81493682 -0.47367403 -0.33393225 0.015686586
-0.016001321 0.0050531598 0.63516468 -0.056136616 0.99499452 -0.082671478 0.018666353
0.035955988 -0.30462134 0.79849792 -0.021504661 -0.99975413 0.0054089562 0.075389907
0.039978467 -0.15821645 0.6230256 -0.15601736 -0.010526351 0.98769826 0.080498025
-0.0028240033 -0.30892617 0.304153 0.022882914 -0.99752861 -0.066430554 0.00042523592
-0.025034104 -0.31480378 0.36818236 0.08758232 -0.9939993 0.065533578 0.024256131
-0.17159528 0.0048046838 0.63271517 -0.069812983 0.054282036 0.99608201 0.032065947
-0.0098673906 -0.30895776 0.28613853 0.027226459 -0.99749541 -0.065281823 0.0004297588
-0.0048265764 -0.31016451 0.31355146 0.019413248 -0.99780941 -0.063241072 0.00043418063
-0.0067529883 -0.31157288 0.33529258 0.024837129 -0.99872154 -0.044026911 0.00076385465
-0.054749887 -0.30965361 0.29052746 0.011378633 -0.99839872 -0.055413477 0.00055235304
0.038724076 -0.29665291 0.76751208 0.0064183604 -0.99995852 0.0064693303 0.064834423
-8.2842525e-05 -0.14683653 0.62245113 0.24026234 0.09257552 0.96628344 0.089417182
-0.1449402 -0.12087789 0.62494648 0.032394666 -0.054556891 0.99798506 0.0070653399
-0.03077366 -0.31005388 0.29012749 0.024558542 -0.9978649 -0.060518257 0.00035044673
-0.0090997433 -0.3115527 0.33136564 0.023678297 -0.99877721 -0.043399725 0.00076125562
-0.039220501 -0.31288204 0.39465085 -0.020030532 -0.97538817 0.21958287 0.050265089
-0.060767166 -0.31345257 0.33665159 0.019160269 -0.99889696 -0.04286848 0.0010943111
-0.035219792 -0.31151316 0.30152312 0.018120445 -0.99799871 -0.060580865 0.00043504444
-0.039053258 -0.31193721 0.3056322 0.011551299 -0.99817502 -0.059271831 0.00048309821
-0.068978913 -0.31379649 0.34702727 0.013805741 -0.99910247 -0.040047269 0.0010763773
0.071184985 -0.19471015 0.62844431 -0.13601674 0.039171621 0.98993188 0.12502362
0.087004982 -0.18392563 0.62591863 0.036584035 -0.084653035 0.99573863 0.10452011
-0.12991977 -0.19021592 0.44283703 0.043220181 0.49089065 -0.87014842 0.020297902
-0.1158296 -0.17916408 0.45601195 -0.16467804 -0.50268638 0.84863865 0.0087657645
0.0629436 -0.073408067 0.62736928 0.045970205 0.19560906 0.97960395 0.03876308
0.048250277 -0.061367627 0.628223 -0.050309431 0.10587502 0.99310589 0.077640951
0.060149774 -0.15995723 0.62501568 -0.16684635 -0.025188437 0.98566115 0.070173413
0.054945841 -0.30227119 0.45998785 0.049426422 -0.97348601 -0.22334309 0.028581079
-0.036074307 -0.3140431 0.37985182 0.029922986 -0.98902464 0.14468889 0.041298203
-0.040338729 -0.13378586 0.49369428 0.81493682 -0.47367403 -0.33393225 0.015686586
-0.14448558 -0.18408303 0.44732445 -0.10648706 -0.5047338 0.85668212 0.033248022
-0.011683557 -0.3126339 0.34060478 0.042568482 -0.99887788 -0.020757778 0.004049622
0.045428064 0.0040157354 0.63245976 0.056632414 0.94729543 -0.31531623 0.10244998
