# .PCD v0.7 - Point Cloud Data file format
VERSION 0.7
FIELDS x y z
SIZE 4 4 4
TYPE F F F
COUNT 1 1 1
WIDTH 654
HEIGHT 1
VIEWPOINT 0 0 0 1 0 0 0
POINTS 654
DATA ascii
-0.032577131 -0.31979871 0.29604021
-0.051068779 -0.3176243 0.3271262
-0.039100312 -0.32892311 0.2914286
-0.071992397 -0.31688389 0.3479805
-0.102134 -0.31219789 0.2890425
-0.13837031 -0.3197147 0.31497821
-0.1618246 -0.3203755 0.3481459
-0.16419169 -0.32244739 0.34034529
-0.15726431 -0.31998801 0.31069601
-0.109609 -0.3162241 0.29273379
-0.2747156 0.02446501 0.62906718
-0.2193253 -0.31705731 0.24236681
-0.1761121 -0.30130851 0.29462519
-0.2097179 -0.30367669 0.2419188
-0.2420122 -0.3197529 0.27101171
-0.2092991 -0.30255559 0.2584236
-0.14140689 -0.31171939 0.27607509
-0.20929269 0.0055724378 0.60506052
-0.1987766 -0.3087427 0.2421529
-0.2340088 -0.31006721 0.2310719
-0.26791891 -0.30767649 0.23666321
-0.2664375 -0.30923691 0.25039619
-0.2696768 -0.30432811 0.26090229
-0.39903939 -0.3126896 0.34219861
-0.30124721 -0.31728131 0.26251099
-0.2957553 -0.3119283 0.25054371
-0.30345359 -0.31640649 0.2800549
-0.39147869 -0.3171913 0.34448391
-0.223332 -0.31006119 0.26148909
-0.1635212 -0.2694039 0.4040727
-0.1620149 -0.2833178 0.40040949
-0.1670455 -0.29508081 0.38991991
-0.1759564 -0.220524 0.42439041
-0.1639296 -0.31365499 0.35293421
-0.1777281 -0.3129192 0.34047461
-0.1829704 -0.31216291 0.3458702
-0.19595949 -0.31169251 0.3345508
-0.20975959 -0.3123447 0.34003559
-0.2308159 -0.3202289 0.34633729
-0.2393202 -0.31149039 0.33089581
-0.25136471 -0.32275909 0.34522629
-0.2592544 -0.3202486 0.33937541
-0.2211972 -0.30811769 0.23665489
-0.27826339 -0.3195008 0.3336165
-0.2456581 -0.31166431 0.2417974
-0.3006537 -0.30193371 0.36743999
-0.29012409 -0.3220098 0.33416721
-0.30603749 -0.3060281 0.3656579
-0.30905181 -0.30936879 0.3404758
-0.29361719 -0.29121181 0.3609491
-0.30868521 -0.2104691 0.38994989
-0.30828369 -0.30958739 0.2984463
-0.32261911 -0.3055414 0.3109093
-0.31692779 -0.30362901 0.25920489
-0.31514451 -0.30859131 0.30853739
-0.31030649 -0.31183499 0.29675469
-0.1897596 -0.087253757 0.6102162
-0.1813049 -0.3118223 0.27106419
-0.1823335 -0.31144309 0.27613211
-0.1931518 -0.31115919 0.24257819
-0.27642441 -0.3073028 0.282897
-0.2393271 -0.3082557 0.2320081
-0.30060691 -0.29211 0.3481929
-0.3072547 -0.3072632 0.2511315
-0.39204189 -0.3138302 0.2504043
-0.1868909 -0.30898079 0.29130581
-0.1927817 -0.30912831 0.2583499
-0.22829419 -0.3087866 0.28412631
-0.19316 -0.31100869 0.26050639
-0.2230542 -0.3084321 0.2807706
-0.22743 -0.30869299 0.24226031
-0.27204019 -0.3063561 0.26477379
-0.4176487 -0.32358459 0.360677
-0.2411543 -0.31422669 0.2342705
-0.25321439 -0.31946731 0.2372604
-0.17870671 -0.2288913 0.44422081
-0.16870201 -0.30705401 0.40792331
-0.1625305 -0.288064 0.40936029
-0.16317099 -0.2814405 0.41193819
-0.1604178 -0.30053359 0.4030802
-0.16580699 -0.1818521 0.454732
-0.1777239 -0.2291856 0.4385117
-0.1426542 -0.3210068 0.37097341
-0.1560563 -0.29933971 0.40217459
-0.168578 -0.2985613 0.40459049
-0.15810309 -0.2835106 0.40698671
-0.1625549 -0.27350691 0.41382769
-0.1145635 -0.31863081 0.37464941
-0.1159175 -0.3178027 0.35931939
-0.1324365 -0.31803939 0.3687115
-0.13602971 -0.1849291 0.46124461
-0.12940609 -0.25308141 0.43205529
-0.15195329 -0.31901631 0.36470881
-0.1608818 -0.2680954 0.41858941
-0.060905982 -0.31810129 0.3734825
-0.04791661 -0.1456434 0.50725472
-0.047397781 -0.15441141 0.50684023
-0.009190917 -0.1516746 0.64597642
-0.080289207 -0.003628979 0.64806873
-0.080376454 0.003133466 0.64880371
-0.030804951 -0.30115151 0.43355271
-0.02916106 -0.30683821 0.4384141
-0.03093835 -0.27651641 0.44492301
-0.1234657 -0.3210853 0.37598261
-0.1653748 -0.25828949 0.42187929
-0.093919322 -0.31843749 0.37966391
-0.074636698 -0.3183738 0.38453361
-0.1039932 -0.31981289 0.37912679
-0.055451989 -0.31784239 0.38883829
-0.06537953 -0.31930509 0.38834399
-0.04672331 -0.31775439 0.32472801
-0.084799327 -0.320364 0.38465789
-0.041688249 -0.31590301 0.3984502
-0.1384881 -0.18165439 0.46164161
-0.14077041 -0.3204022 0.36029121
-0.03619362 -0.3178356 0.39385241
-0.045782041 -0.31899551 0.3932327
-0.1029445 -0.318896 0.36802059
-0.02403833 -0.31462941 0.39957631
-0.038703091 -0.31921929 0.33195779
-0.065640964 -0.31803831 0.37681371
-0.026029419 -0.3191894 0.39809299
-0.1217497 -0.31914631 0.363702
-0.048973359 -0.31858739 0.40734661
-0.084369473 -0.3186312 0.37260881
-0.067822628 -0.26946649 0.43913299
-0.018779069 -0.3199802 0.2983118
-0.1560965 -0.32124841 0.36202231
-0.13618881 -0.31976151 0.36506891
-0.03956211 -0.3173261 0.31233811
-0.02788581 -0.32121909 0.39605299
-0.01015287 -0.3186487 0.34118801
-0.044972349 -0.3188723 0.31818131
-0.071020983 -0.26559359 0.4384172
-0.058945119 -0.31947431 0.38456279
-0.043549299 -0.3202334 0.3349469
-0.09747842 -0.3186886 0.36552659
-0.057728551 -0.31696239 0.30754471
-0.0078276247 -0.31973341 0.3456926
-0.0078686327 -0.31878239 0.33213529
-0.06064738 -0.31770441 0.31784251
-0.04218971 -0.3174369 0.3223038
-0.067761809 -0.32040361 0.3678323
-0.044322848 -0.3174912 0.41332051
-0.0124125 -0.3186582 0.34942901
-0.041731969 -0.31773329 0.3792575
-0.01468106 -0.31776959 0.42744651
-0.01489023 -0.31649819 0.37160549
-0.046506159 -0.31745979 0.35832629
-0.053850278 -0.31796411 0.33001599
-0.0794653 -0.3192583 0.33639359
-0.060722612 -0.31829351 0.34015271
0.05223887 -0.2069528 0.65881872
0.031016851 -0.1690343 0.65339541
0.059887391 -0.2127348 0.65647751
0.065274701 -0.31222069 0.50686902
0.01272254 -0.32947701 0.76648742
0.025408739 -0.3117815 0.81923121
0.02712182 -0.30648881 0.81043029
0.040727381 -0.32198349 0.76999748
0.065437019 -0.3191213 0.50528717
0.021497641 -0.31062299 0.52609032
0.1115351 -0.31435499 0.51219642
0.089085907 -0.3133598 0.50954199
0.063577048 -0.09240716 0.66143948
0.05240402 -0.079488158 0.65987152
0.065424941 -0.2110516 0.65988529
0.050930489 -0.3223744 0.4900986
0.017526779 -0.33239299 0.82873201
-0.02865779 -0.224227 0.65570652
0.1770304 -0.3157714 0.51590568
0.18458229 -0.33688179 0.46440661
0.1547901 -0.31426829 0.51108158
0.1619311 -0.33773091 0.4661155
0.1468589 0.058602508 0.6712274
0.1505373 0.032315131 0.67732519
0.12908269 -0.1141616 0.66224653
0.1361731 0.047159191 0.67584568
0.1283195 0.057437152 0.67628872
0.1218118 -0.33753669 0.72501802
0.1174583 -0.089444309 0.67270273
0.1090885 -0.099800609 0.66767699
0.098808773 -0.1131729 0.67396408
0.083549641 0.059775621 0.6708408
0.064588338 -0.30856419 0.509408
0.059928861 -0.31186879 0.52991468
0.085639901 -0.087804683 0.66998178
0.086552851 -0.1151777 0.67338449
0.082820103 -0.13198981 0.6614055
0.083274119 -0.157401 0.66190308
0.04572605 -0.2154981 0.67539853
0.055091169 -0.30558449 0.76739103
0.001352824 -0.30451089 0.60923553
-0.001456983 -0.30777159 0.60253781
-0.01510786 -0.3301627 0.43386459
0.2121063 -0.31458989 0.53804952
0.1681674 -0.040705532 0.67545158
0.17326669 -0.30951869 0.57394642
0.1964291 -0.33847949 0.83515012
0.111441 -0.1234808 0.67209101
0.083023377 -0.15204421 0.67016321
0.02955645 -0.14958531 0.6706264
0.2724188 -0.34380591 0.49292281
-0.024535481 -0.34323791 0.67214823
0.1741107 -0.30838299 0.57164961
0.1431549 -0.082537226 0.67656249
0.1114323 -0.3130559 0.50995392
0.12799761 -0.1910198 0.67257297
0.1361614 0.022634851 0.67039478
0.1101695 -0.1010949 0.67130989
0.086569861 -0.32991901 0.78894103
0.084038407 -0.1656585 0.66356993
0.1127998 0.054567128 0.70649558
0.020018861 -0.14732911 0.65637398
-0.01692131 -0.3114979 0.52579409
0.08323741 -0.1949857 0.64020377
0.096552551 -0.069026507 0.62991917
0.0367449 0.076794527 0.66766262
-0.01194621 -0.29111481 0.45524201
-0.03574574 -0.2190385 0.65244758
0.057921551 -0.34287769 0.7829234
-0.0360303 -0.1558755 0.66244888
-0.037042029 -0.16544341 0.65570992
-0.03011735 -0.095210977 0.6623677
-0.0014863909 -0.32325321 0.48765931
-0.03727157 -0.14287239 0.65667862
-0.036874209 -0.13366979 0.6548177
-0.037297972 -0.1107154 0.65673238
-0.037452381 -0.096062019 0.65483892
-0.01658771 -0.32197079 0.3778778
-0.02447463 0.026000651 0.66841727
-0.019514101 -0.32555759 0.37507701
-0.030912369 -0.31031409 0.44397441
-0.02234753 -0.32475391 0.3862628
-0.024295351 -0.32514319 0.39256731
-0.028085271 -0.32397071 0.4043428
-0.029003249 -0.1583242 0.51296461
0.2542294 -0.3136059 0.53696108
0.027266979 -0.31433341 0.827492
0.041719928 -0.3145048 0.53356057
0.01759921 -0.32945311 0.81800628
0.02166743 -0.31352961 0.53081107
0.054731179 0.088576071 0.67369348
0.024673 -0.31882769 0.83557469
0.01141701 -0.3283436 0.8145631
0.0130549 -0.33081189 0.76778352
0.19205379 -0.32819009 0.83097082
0.1241599 -0.33005199 0.74419659
0.1288932 -0.1147915 0.66141629
0.1109634 -0.1207569 0.65658963
0.1032446 -0.1056763 0.65853733
0.084040992 -0.1992061 0.6525631
0.117431 -0.088745542 0.66029948
0.060436461 -0.21372481 0.65798038
0.05159045 -0.20270289 0.64261419
0.095087953 -0.1078169 0.63357669
0.05427023 -0.094224848 0.64959079
0.088876337 -0.1163882 0.67888433
0.083017938 -0.1321715 0.6561355
0.086602069 -0.088120893 0.66641641
0.065249413 -0.2069477 0.64513981
0.03106166 -0.16836061 0.64792383
0.050454538 -0.31894779 0.48374599
0.046489701 -0.2078134 0.64621907
0.016349381 -0.16901191 0.65192068
0.051453538 -0.078862809 0.65282261
0.038281851 -0.067404591 0.65881151
-0.01043744 -0.15456191 0.65394372
0.090605408 -0.1136242 0.6663326
0.19081371 -0.32809591 0.80886889
0.12795129 -0.1136157 0.65424621
0.1027694 -0.1045635 0.65215242
0.086835943 -0.3035433 0.49229801
0.083051518 -0.1471463 0.64505547
0.08271575 -0.1950618 0.63875771
0.058671601 -0.208267 0.64078069
0.051368441 -0.2023335 0.64110672
0.083323181 -0.1309288 0.65128589
0.081820533 -0.1536388 0.64086533
0.040062461 -0.31535879 0.75249159
0.026664751 -0.29567489 0.78935462
0.064015523 -0.20464671 0.6371237
0.04966918 -0.31182259 0.47289941
0.04660124 -0.206517 0.64434159
0.024099 -0.30727851 0.80670059
0.04842395 -0.306449 0.47829339
0.1079647 -0.30366561 0.49324861
0.188841 -0.32321581 0.8168872
0.1607741 -0.091852017 0.65851653
0.08604449 -0.086352147 0.65976369
0.031603578 -0.1668777 0.64509088
0.16599169 -0.04013731 0.6555469
0.13071071 -0.02210501 0.66029263
0.004715174 -0.31831869 0.67791551
0.0031468321 -0.2986365 0.59591001
0.01240203 -0.3297247 0.76327503
-0.0030347081 -0.312574 0.4686074
0.1218722 0.067437857 0.6737631
0.0089777932 -0.3174417 0.78259611
0.055353429 -0.33092421 0.7568332
-0.00081755221 -0.30947059 0.4658083
0.1130023 0.05092169 0.67230451
0.189285 -0.30153471 0.58049542
-0.046761598 -0.151246 0.49484581
-0.1649193 -0.1771165 0.44171321
-0.021806329 0.024918851 0.64418101
-0.035089221 -0.1149339 0.63779509
-0.036324721 -0.093268357 0.63707697
-0.059038091 -0.06412176 0.63531369
-0.047742501 -0.1425906 0.49675399
-0.050400879 -0.3141889 0.40265921
-0.080622479 -0.066078618 0.63572598
-0.080179572 -0.053830922 0.63431072
-0.068656951 -0.26339221 0.4291178
-0.06600669 -0.3126322 0.37946951
-0.078889221 -0.051669952 0.63446009
-0.119993 -0.0082521699 0.62747133
-0.091012947 -0.064986303 0.63283902
-0.1539288 -0.12054 0.63470608
-0.1059921 -0.31342581 0.34954739
-0.204568 -0.01206974 0.62447798
-0.1841055 -0.079626687 0.63443148
-0.15930229 -0.29231659 0.39197931
-0.07966046 -0.0041717808 0.6377399
-0.079555623 -0.01220366 0.64270657
-0.079896197 0.0021152869 0.63471347
-0.1038382 -0.314486 0.37199661
-0.1126836 -0.31169799 0.36591679
-0.04133673 -0.100572 0.63747299
-0.26764989 0.027597049 0.62611872
-0.2728622 0.025184181 0.6188854
-0.28290921 0.087466277 0.63231581
-0.2844159 0.05539646 0.62900382
-0.27268019 0.086954311 0.61669528
-0.21375079 -0.0058031902 0.62896842
-0.1778277 -0.1310869 0.6228568
-0.2165868 -0.2943621 0.39106831
-0.1555848 -0.29193169 0.38967329
-0.16505051 -0.2931709 0.38871309
-0.07443814 -0.31233421 0.37680721
-0.1230147 -0.31452879 0.36679661
-0.070458718 -0.3121281 0.34948909
-0.081542857 -0.1823138 0.46900839
-0.1913811 -0.2274414 0.37497339
-0.063469723 -0.3145209 0.3241168
-0.2454104 -0.31229329 0.33247879
-0.2320026 -0.31311801 0.32590431
-0.035004228 -0.1292205 0.63643008
-0.065874718 -0.31047961 0.31127799
-0.081276231 -0.31229311 0.35211781
-0.067526966 -0.31222671 0.33650491
-0.1027864 -0.31064111 0.35791051
-0.27876139 0.01576574 0.63506049
-0.1905909 -0.088831827 0.63332278
-0.27037299 -0.227056 0.4132196
-0.26901251 -0.2243892 0.41477311
-0.30187371 -0.21708611 0.3865138
-0.24868201 -0.2378581 0.3835763
-0.31548059 -0.1448461 0.42152491
-0.2771042 -0.31645709 0.3295595
-0.26910189 -0.31315011 0.3440814
-0.2846815 -0.31213751 0.320144
-0.26522809 -0.31176871 0.32496461
-0.188214 -0.31149259 0.34634739
-0.16951521 -0.3119345 0.35181719
-0.15045381 -0.3119677 0.35664341
-0.2259033 -0.25615051 0.39035419
-0.14101569 -0.31153411 0.3578558
-0.1316043 -0.3113479 0.36054021
-0.1609733 -0.2817705 0.39911291
-0.155431 -0.26982719 0.42743641
-0.20256419 -0.2379404 0.3910892
-0.1844963 -0.1148335 0.62918139
-0.20336279 0.00279016 0.63000977
-0.187249 -0.082659356 0.63565361
-0.21289711 -0.02019074 0.62583917
-0.079290539 -0.019033531 0.63533312
-0.079144247 -0.3117021 0.3066313
-0.2634443 -0.31082979 0.30274519
-0.1571102 -0.31070861 0.34283221
-0.139212 -0.31134039 0.34890851
-0.2487659 -0.31128621 0.32171851
-0.269306 -0.31276599 0.31763989
-0.195243 -0.31182641 0.33416069
-0.1769686 -0.3119075 0.33845761
-0.2492366 -0.3099471 0.2863802
-0.2136039 -0.31250659 0.33016539
-0.27868399 -0.3130042 0.34756339
-0.08682397 -0.31173569 0.3530139
-0.2772972 -0.31278229 0.29002491
-0.2293606 -0.3083981 0.25271329
-0.30112001 -0.2243927 0.38942629
-0.18796851 -0.2237777 0.39600611
-0.1666739 -0.2650483 0.37738961
-0.1559976 -0.2911579 0.381652
-0.1510514 -0.273882 0.38315529
-0.28832269 -0.2891022 0.34218109
-0.2842277 -0.28830841 0.3437542
-0.2208738 -0.30174771 0.25980169
-0.2396059 -0.31178391 0.32814229
-0.2871173 -0.279805 0.3375074
-0.2009518 -0.3084802 0.3331719
-0.2593447 -0.30632949 0.32990739
-0.25575089 -0.30714509 0.31698209
-0.1346655 -0.30908751 0.3511337
-0.1125924 -0.30809259 0.27489549
-0.116808 -0.31079361 0.35788959
-0.1262394 -0.2670252 0.40375251
-0.062323801 -0.2627266 0.4228355
-0.065906323 -0.2607581 0.424858
-0.074899197 -0.1808008 0.46094909
-0.072483636 -0.1777702 0.46377429
-0.058738079 -0.30793661 0.28836
-0.043844521 -0.3086797 0.3882367
-0.040295441 -0.14866801 0.4836303
-0.19555169 -0.01295329 0.6204446
-0.1956441 -0.05829354 0.62119132
-0.1955726 0.00201208 0.62215799
-0.023166331 -0.2947616 0.41409871
-0.04333191 -0.3078157 0.3067573
-0.027028831 -0.27880961 0.4220258
-0.044157699 -0.30823931 0.29365829
-0.019269491 -0.3050167 0.38011211
-0.019299939 -0.089359671 0.62328839
-0.031858891 -0.30877209 0.3753264
-0.1452492 -0.13153841 0.62104309
-0.1106292 -0.1818949 0.4565272
-0.071204737 -0.063286111 0.62549132
-0.01710874 -0.1280922 0.62618083
-0.021427739 -0.30893061 0.37779051
-0.03678951 -0.30789909 0.29548579
-0.1584916 -0.13762259 0.61600822
-0.1966126 -0.05113057 0.62607503
-0.026217921 -0.29327691 0.4154121
0.004864715 -0.1636218 0.62342721
-0.01551359 -0.3062543 0.29345459
-0.027648481 -0.092906259 0.62785071
-0.016804229 -0.30912951 0.28066549
-0.1013094 -0.062324319 0.62505698
-0.110534 -0.061203819 0.62186801
-0.16405571 -0.067342862 0.6205464
-0.0072604469 -0.30885321 0.32325181
0.0086023426 -0.1559905 0.62252551
-0.027382139 -0.3076168 0.2767567
-0.019084601 -0.3073898 0.290892
-0.02385758 -0.3126992 0.3775759
-0.071358956 -0.003414104 0.62162179
-0.03534748 -0.132217 0.4923988
-0.01739681 0.029085839 0.62804151
0.039757062 -0.3081966 0.79922497
0.039305579 -0.1618233 0.62101698
-0.00286801 -0.30851719 0.30418611
-0.025024651 -0.3144196 0.36821461
-0.1714915 0.004073014 0.63322312
-0.0098576304 -0.30904159 0.2861377
-0.0049509951 -0.3089802 0.31366739
-0.0070781391 -0.30728751 0.3355684
-0.054682709 -0.30764109 0.29085469
0.040226359 -0.29608899 0.7679013
-0.00052756071 -0.1475502 0.62236702
-0.144345 -0.1191806 0.61964142
-0.030797951 -0.30914721 0.29023689
-0.0093373638 -0.3093448 0.3314327
-0.03954456 -0.30818531 0.39389169
-0.060816981 -0.3087379 0.3367779
-0.035361111 -0.30914849 0.30179599
-0.039222259 -0.3085447 0.30586421
-0.068774387 -0.30586231 0.34701911
0.072913982 -0.2013558 0.62527639
0.091221988 -0.19054461 0.62142807
-0.12873609 -0.1857788 0.43816051
-0.1159255 -0.17203151 0.45127699
0.062750913 -0.076531157 0.62577718
0.045395821 -0.063252658 0.62708873
0.05817442 -0.15105671 0.62443888
0.055865102 -0.30621111 0.45758939
-0.036430322 -0.30674899 0.3800323
-0.040603299 -0.13376421 0.49370119
-0.1438462 -0.1786498 0.4420889
-0.01182508 -0.30832931 0.3408331
0.045761019 0.01453557 0.63357168
-0.01503785 -0.3094205 0.34532401
-0.04652347 -0.30827659 0.30342269
0.093563981 -0.29858211 0.47776601
-0.04451526 -0.31051269 0.3538788
-0.045696191 -0.30307391 0.3122465
-0.04063746 -0.3083916 0.33328539
-0.042635169 -0.30935761 0.34180361
-0.037662569 -0.3101413 0.36262539
-0.069883853 -0.3097637 0.36731949
-0.03547271 -0.3099727 0.31515229
-0.03632113 -0.30900839 0.28043759
-0.039704509 -0.310781 0.35242319
-0.19642299 -0.020930819 0.62368232
-0.0113899 -0.30906999 0.3555018
-0.01379452 -0.31010231 0.34941199
-0.1809486 -0.097362377 0.61923599
-0.0073109102 -0.196346 0.61684918
0.2000213 -0.3142477 0.78855419
0.023006471 -0.29522491 0.72222018
-0.02660978 -0.1056842 0.62353498
0.073049203 -0.17415451 0.62745649
0.05726311 0.01838004 0.63517177
-0.064738236 -0.26508251 0.41543171
-0.040823199 -0.3096104 0.37423879
-0.034996029 -0.30882269 0.29092881
0.1034981 -0.31301111 0.74451238
0.069424771 -0.32693261 0.73869652
0.088994473 -0.1247405 0.62210989
0.13350961 -0.1081732 0.62682378
-0.050396141 -0.30817321 0.3123534
0.1220282 -0.1131552 0.63739002
0.1339909 -0.061228689 0.63198793
-0.05080149 -0.3096199 0.340426
0.01586085 -0.31232071 0.65656072
0.134376 -0.05444314 0.63429081
0.1144598 -0.17140681 0.63954091
0.02767374 -0.1637111 0.62847209
0.061460841 -0.089667603 0.62457103
0.00097497372 -0.308155 0.28732309
-0.01805249 -0.30961221 0.3661685
0.1375151 -0.29138991 0.53240472
0.069220081 -0.3011815 0.46904731
-0.17498989 -0.1141589 0.61815429
-0.18002521 -0.082618713 0.62552732
-0.071479529 -0.041668151 0.62605292
0.089677751 -0.1923894 0.62707198
-0.05405939 -0.30976629 0.36599371
0.0069458601 -0.1405451 0.62350172
-0.053453621 -0.30947861 0.30946621
0.1062787 0.07493224 0.63612598
0.16748419 -0.017498961 0.64424348
0.035146419 0.03052976 0.6329295
0.045235321 0.085926197 0.6466316
0.1071835 0.05957948 0.6376211
-0.14624099 -0.26181021 0.39869109
-0.032177702 -0.30786431 0.31679389
-0.13497061 -0.25544211 0.40689799
-0.1424602 -0.1917671 0.4364813
-0.1252149 -0.2317889 0.42096981
-0.1364048 -0.2112651 0.4271518
-0.1241559 -0.2019435 0.43468311
-0.1423787 -0.24979991 0.41167709
-0.1404058 -0.227653 0.41952789
0.0075824652 -0.30496269 0.4546355
-0.0038369349 -0.27721351 0.42947581
-0.007465696 -0.27139571 0.42802849
0.0072286092 -0.30514699 0.45357281
-0.25288281 0.076086901 0.59841669
-0.2489545 0.025602769 0.5886125
-0.2481668 0.03034394 0.60484809
-0.2522091 0.086605139 0.59855223
-0.2038018 -0.24576069 0.40820581
-0.192744 -0.26283091 0.38538271
-0.246464 -0.2366145 0.39021161
-0.24487109 -0.245325 0.39299491
-0.2434202 -0.26402649 0.38548839
-0.2588951 -0.31858969 0.3196376
-0.1569518 -0.2962819 0.39455891
-0.1867376 -0.2430239 0.40565211
-0.3085562 -0.31165159 0.32967791
-0.31836149 -0.31212389 0.32153961
-0.4052788 -0.3264052 0.366786
-0.1744308 -0.113537 0.62918532
-0.1057607 -0.30352589 0.3510035
-0.1735532 -0.1127632 0.62398243
-0.17372499 -0.1128042 0.62378538
-0.25527409 0.023495769 0.60007632
-0.25913981 0.01345006 0.60309398
-0.1485631 -0.2946887 0.39546561
-0.1503972 -0.28327769 0.40216041
-0.1517958 -0.27557981 0.3888002
-0.1494578 -0.2851814 0.38038039
-0.1693224 -0.30439991 0.27379981
-0.1998383 -0.30515379 0.33051899
-0.1935125 -0.31296441 0.34430981
-0.15487351 -0.3117176 0.3519617
-0.14307439 -0.3039411 0.34240869
-0.13567729 -0.3117097 0.3564682
-0.1746131 -0.3125723 0.3486765
-0.2588385 -0.219717 0.40591499
-0.25200111 -0.2251288 0.40172771
-0.2391063 -0.26094499 0.36911571
-0.24982519 -0.2470036 0.3950299
-0.2466711 -0.24628 0.3947542
-0.1869704 -0.2327548 0.3819024
-0.1621718 -0.2692306 0.38348871
-0.17349041 -0.1125414 0.6216228
-0.26950231 -0.31151649 0.3240808
-0.075806707 -0.308002 0.2864258
-0.1734284 -0.1123422 0.62141228
-0.073786259 -0.30971909 0.28060439
-0.26946771 -0.3108685 0.32312629
-0.2921629 -0.3064045 0.26766029
-0.2901969 -0.30784801 0.2556712
-0.30859259 -0.30833891 0.32669151
-0.2495487 -0.31314299 0.3167761
-0.2530416 -0.32056159 0.25935441
-0.2899676 -0.32396489 0.34355009
-0.2475578 -0.31107929 0.2311894
-0.28612551 -0.32348061 0.32653409
-0.1636447 -0.25578141 0.4065623
-0.1569736 -0.28551111 0.4109233
-0.157428 -0.27879709 0.41301769
-0.2299865 -0.3211827 0.31246209
-0.2482668 -0.32270759 0.35106391
-0.24357121 -0.31943801 0.2845917
-0.034735281 -0.3172597 0.3047125
-0.036251631 -0.3118335 0.3061761
-0.040410738 -0.3185536 0.33725631
-0.03997859 -0.31810471 0.39225569
-0.04243958 -0.31485501 0.3201493
-0.01184837 -0.20948599 0.48672
-0.026162609 -0.2923103 0.41841021
-0.034464169 -0.31677321 0.40367809
-0.03838535 -0.31816089 0.30696791
-0.02266879 -0.29702359 0.4219037
-0.0075376481 -0.21371099 0.62882322
-0.038296551 -0.1479319 0.4845686
-0.038332459 -0.1328783 0.48991391
0.098215982 -0.1984006 0.6513055
0.15078039 -0.32268679 0.87708122
0.067021944 -0.077401973 0.63471758
0.073868386 -0.21011341 0.65074629
0.063798428 -0.2016741 0.6351611
0.059979409 -0.3186731 0.48280659
0.055138461 -0.20097131 0.61711133
0.021604721 -0.32612249 0.80355042
-0.081216767 -0.063759133 0.66171128
-0.26515529 0.026468299 0.63686973
0.090015352 -0.3256349 0.78373897
0.062208451 0.018424209 0.64650929
0.054407671 -0.3106041 0.73397082
-0.001741458 -0.29118419 0.4452078
-0.01183423 -0.31575811 0.35583279
-0.0099554285 -0.3131811 0.4200322
0.030000741 -0.31851539 0.69025838
0.0086103603 -0.31973159 0.4831619
0.177357 -0.01785088 0.66494
0.1467638 -0.02071885 0.64261478
0.13790549 -0.32033509 0.71227509
0.1379956 -0.31984341 0.70627022
-0.01976854 -0.63992143 0.25822571
-0.1173016 -0.89671773 0.6216597
-0.025305031 -0.80849862 0.53192681
-0.54712892 -0.53481811 0.50746667
-0.72692972 -0.99837518 0.27491021
-0.70495123 -0.89836133 0.34011379
-0.67880648 -0.52866828 0.3165544
-0.65363652 -0.51814097 0.33654189
-0.66697252 -0.52878058 0.39038011
-0.54593539 -0.5211637 0.31456459
-0.67506659 -0.52541518 0.31816781
-0.66565162 -0.5146172 0.41600049
