# .PCD v0.7 - Point Cloud Data file format
VERSION 0.7
FIELDS x y z normal_x normal_y normal_z curvature
SIZE 4 4 4 4 4 4 4
TYPE F F F F F F F
COUNT 1 1 1 1 1 1 1
WIDTH 314
HEIGHT 1
VIEWPOINT 0 0 0 1 0 0 0
POINTS 314
DATA ascii
0.020295231 0 0.2069042 -0 1 -0 0
0.1143679 0 0.20679639 -0 1 -0 0
0.14395329 0 0.2072987 -0 1 -0 0
0.1737569 0 0.20659649 -0 1 -0 0
0.18502571 0 0.20590509 -0 1 -0 0
0.20507711 0 0.2063535 -0 1 -0 0
0.020532319 0 0.2183606 -0 1 -0 0
0.09158209 0 0.215471 -0 1 -0 0
0.1245752 0 0.217195 -0 1 -0 0
0.17515489 0 0.21521381 -0 1 -0 0
0.18353492 0 0.21500497 -0 1 -0 0
0.19296806 0 0.21143129 -0 1 -0 0
0.2070435 0 0.21504426 -0 1 -0 0
0.21538723 0 0.21685113 -0 1 -0 0
0.226888 0 0.2166964 -0 1 -0 0
0.1737216 0 0.2292738 -0 1 -0 0
0.18688543 0 0.22844975 -0 1 -0 0
0.1933154 0 0.2231888 -0 1 -0 0
0.207967 0 0.22961891 -0 1 -0 0
0.2143895 0 0.2285631 -0 1 -0 0
0.22566393 0 0.22324567 -0 1 -0 0
0.1290544 0 0.2312517 -0 1 -0 0
0.1428051 0 0.23801661 -0 1 -0 0
0.1652817 0 0.23049089 -0 1 -0 0
0.1848767 0 0.2388059 -0 1 -0 0
0.2264713 0 0.2363313 -0 1 -0 0
0.233867 0 0.23645492 -0 1 -0 0
0.020546131 0 0.2429947 -0 1 -0 0
0.1997298 0 0.2424795 -0 1 -0 0
0.21367599 0 0.24467218 -0 1 -0 0
0.044745419 0 0.25483379 -0 1 -0 0
0.139632 0 0.25448951 -0 1 -0 0
0.1402916 0 0.25042221 -0 1 -0 0
0.17572534 0 0.25673044 -0 1 -0 0
0.1865453 0 0.2517204 -0 1 -0 0
0.20210411 0 0.2539787 -0 1 -0 0
0.2190143 0 0.25019729 -0 1 -0 0
0.22249921 0 0.25951451 -0 1 -0 0
0.1372885 0 0.26645079 -0 1 -0 0
0.1807135 0 0.2649895 -0 1 -0 0
0.19488533 0 0.26668593 -0 1 -0 0
0.2027 0 0.26391879 -0 1 -0 0
0.2312835 0 0.26799119 -0 1 -0 0
0.1668566 0 0.27234989 -0 1 -0 0
0.1833401 0 0.27540079 -0 1 -0 0
0.19179291 0 0.27783269 -0 1 -0 0
0.16899499 0 0.28458869 -0 1 -0 0
0.17560397 0 0.28239331 -0 1 -0 0
0.1812405 0 0.2850661 -0 1 -0 0
0.199036 0 0.28770959 -0 1 -0 0
0.1460713 0 0.29329959 -0 1 -0 0
0.15148711 0 0.29653165 -0 1 -0 0
0.1693331 0 0.29103819 -0 1 -0 0
0.17165411 0 0.2920202 -0 1 -0 0
0.1464238 0 0.3048372 -0 1 -0 0
0.18716779 0 0.31843829 -0 1 -0 0
0.1995879 0 0.31161839 -0 1 -0 0
0.39972341 0 0.3162156 -0 1 -0 0
0.155561 0 0.3298569 -0 1 -0 0
0.1734584 0 0.32174891 -0 1 -0 0
0.18725391 0 0.32742241 -0 1 -0 0
0.15336046 0 0.33600375 -0 1 -0 0
0.406611 0 0.33458439 -0 1 -0 0
0.15534256 0 0.34409818 -0 1 -0 0
0.16898289 0 0.34204981 -0 1 -0 0
0.3937515 0 0.34469461 -0 1 -0 0
0.1602831 0 0.3565588 -0 1 -0 0
0.1798691 0 0.35303691 -0 1 -0 0
0.2113293 0 0.35586479 -0 1 -0 0
0.1580462 0 0.36000341 -0 1 -0 0
0.17980599 0 0.3672168 -0 1 -0 0
0.18390945 0 0.38351309 -0 1 -0 0
0.19813091 0 0.3834582 -0 1 -0 0
0.21990129 0 0.38521591 -0 1 -0 0
0.36313021 0 0.3850995 -0 1 -0 0
0.1586545 0 0.40878209 -0 1 -0 0
0.18619449 0 0.40512589 -0 1 -0 0
0.2176953 0 0.4000816 -0 1 -0 0
0.2282521 0 0.4024832 -0 1 -0 0
0.20712879 0 0.41854391 -0 1 -0 0
0.37696961 0 0.4134579 -0 1 -0 0
0.1569953 0 0.4267807 -0 1 -0 0
0.22120249 0 0.4280102 -0 1 -0 0
0.35680479 0 0.42708251 -0 1 -0 0
0.37782979 0 0.42824101 -0 1 -0 0
0.20773651 0 0.43577179 -0 1 -0 0
0.23358619 0 0.43479419 -0 1 -0 0
0.29939419 0 0.43255839 -0 1 -0 0
0.3688778 0 0.4391897 -0 1 -0 0
0.62636852 0 0.4344207 -0 1 -0 0
0.1824559 0 0.44598705 -0 1 -0 0
0.261951 0 0.4401674 -0 1 -0 0
0.64536828 0 0.44473439 -0 1 -0 0
0.18603089 0 0.4557035 -0 1 -0 0
0.2097002 0 0.45862171 -0 1 -0 0
0.225852 0 0.45911601 -0 1 -0 0
0.61376029 0 0.45477429 -0 1 -0 0
0.67110652 0 0.4556703 -0 1 -0 0
0.6809544 0 0.45562899 -0 1 -0 0
0.170709 0 0.46006241 -0 1 -0 0
0.18773951 0 0.46470109 -0 1 -0 0
0.1998698 0 0.46389881 -0 1 -0 0
0.20604789 0 0.46410239 -0 1 -0 0
0.2123677 0 0.46752977 -0 1 -0 0
0.2290625 0 0.46315309 -0 1 -0 0
0.3871924 0 0.46455559 -0 1 -0 0
0.6099965 0 0.46224269 -0 1 -0 0
0.1635085 0 0.47524181 -0 1 -0 0
0.18790255 0 0.4769114 -0 1 -0 0
0.21368085 0 0.47794485 -0 1 -0 0
0.61904001 0 0.47030371 -0 1 -0 0
0.65575588 0 0.47939819 -0 1 -0 0
0.68929988 0 0.47548169 -0 1 -0 0
0.18730479 0 0.4854373 -0 1 -0 0
-0.0030204579 0 0.49945056 -0 1 -0 0
0.1680938 0 0.4940615 -0 1 -0 0
0.19409689 0 0.49392581 -0 1 -0 0
0.64174652 0 0.49547961 -0 1 -0 0
-0.005447255 0 0.50762868 -0 1 -0 0
0.65462208 0 0.50316769 -0 1 -0 0
0.0076677157 0 0.51302767 -0 1 -0 0
0.0043018679 0 0.5212701 -0 1 -0 0
0.01064844 0 0.52140808 -0 1 -0 0
0.1735466 0 0.52521843 -0 1 -0 0
0.000136897 0 0.53790832 -0 1 -0 0
-0.01559164 0 0.54661697 -0 1 -0 0
0.0028421129 0 0.5619303 -0 1 -0 0
0.2454717 0 0.69763368 -0 1 -0 0
0.2479853 0 0.70604658 -0 1 -0 0
0.2431765 0 0.71541798 -0 1 -0 0
0.2486605 0 0.72676069 -0 1 -0 0
0.25487831 0 0.73200852 -0 1 -0 0
0.2370301 0 0.74875158 -0 1 -0 0
0.2435753 0 0.76379091 -0 1 -0 0
0.25630829 0 0.78267658 -0 1 -0 0
0.45291716 0 0.80443752 -0 1 -0 0
0.44580451 0 0.81519008 -0 1 -0 0
0.45364171 0 0.8237316 -0 1 -0 0
0.43318641 0 0.83266562 -0 1 -0 0
0.44773391 0 0.83644569 -0 1 -0 0
0.45889691 0 0.83948481 -0 1 -0 0
0.45065469 0 0.84683949 -0 1 -0 0
0.45024231 0 0.85568362 -0 1 -0 0
0.18603089 -0.98812228 0.4557035 nan nan nan nan
0.1635085 -0.96303552 0.47524181 nan nan nan nan
0.15886042 -0.51865119 0.35940966 -0.82784981 -0.46644732 0.31159517 0.064390451
0.23745282 -0.50674576 0.43792793 -0.065711915 -0.99536651 -0.070195951 0.0084842537
0.21498421 -0.50716382 0.46799588 -0.12866466 -0.98040301 -0.14918256 0.0047892327
0.22224057 -0.53283596 0.23509751 -0.4856528 -0.84479582 -0.2246362 0.054919798
0.2174513 -0.52775902 0.23508425 -0.45391661 -0.86421645 -0.21700169 0.056169316
0.21991876 -0.5206672 0.22575735 -0.41442278 -0.8873288 -0.20224045 0.06236732
0.18838833 -0.53021967 0.27505079 -0.47237527 -0.85977423 -0.19403553 0.041956518
0.20232567 -0.52901202 0.22364984 -0.36173704 -0.9131735 -0.18777764 0.055370055
0.16156916 -0.51423919 0.3556692 -0.84067369 -0.46679252 0.27454063 0.067669079
0.18610726 -0.53059036 0.22016606 -0.30451584 -0.93973124 -0.1554841 0.052240297
0.18815888 -0.51071781 0.48711857 -0.11283876 -0.97545362 -0.18909672 0.006020661
0.16520554 -0.51309782 0.23012468 -0.26050764 -0.96163142 -0.08602757 0.040472824
0.18241538 -0.51651049 0.26559892 -0.41793895 -0.89174712 -0.17353418 0.046150345
0.22473815 -0.56274146 0.26204932 -0.56899822 -0.75644535 -0.32253891 0.044306997
0.19180737 -0.54689193 0.22688562 -0.33160684 -0.92726099 -0.17385054 0.053176679
0.17917155 -0.53066856 0.28605124 -0.51614088 -0.83880955 -0.17319658 0.043666705
0.20687239 -0.53830135 0.23190726 -0.38703874 -0.90100574 -0.19593291 0.055448238
0.16907771 -0.51982713 0.29080269 -0.5542255 -0.81820589 -0.15288278 0.043269377
0.22420236 -0.53408754 0.24007946 -0.48572966 -0.84473169 -0.22471094 0.054964315
0.22002973 -0.54553938 0.24435069 -0.50296652 -0.82498842 -0.25771844 0.05328314
0.18581931 -0.55626017 0.31789798 -0.79050756 -0.57327324 -0.21553549 0.039101884
0.21196099 -0.5305602 0.22746293 -0.38703874 -0.90100574 -0.19593291 0.055448238
0.20887788 -0.5304454 0.2424468 -0.39562285 -0.88722831 -0.23729424 0.053312723
0.17976381 -0.56654054 0.35297701 -0.82388079 -0.53170109 0.19625078 0.072406381
0.21623001 -0.54975605 0.25602961 -0.510171 -0.80465901 -0.30372572 0.043962274
0.1909339 -0.54219627 0.28454545 -0.52203363 -0.82266611 -0.22516975 0.037775517
0.18781404 -0.56012636 0.32776958 -0.76775092 -0.6319589 -0.10576603 0.052779261
0.19966811 -0.54512352 0.27208555 -0.45938361 -0.84287733 -0.28022224 0.04086826
0.19842695 -0.56276667 0.31142741 -0.73189622 -0.6165632 -0.29013383 0.019755647
0.19382304 -0.51643884 0.49354681 -0.11283876 -0.97545362 -0.18909672 0.006020661
0.20589231 -0.50411248 0.46538228 -0.12866466 -0.98040301 -0.14918256 0.0047892327
0.16836272 -0.51540262 0.28377426 -0.46583015 -0.87571508 -0.12698527 0.044763133
0.18444821 -0.51264554 0.21883979 -0.30452779 -0.93972147 -0.15551965 0.052256051
0.44603893 -0.75440502 0.83624595 0.93290168 0.35873294 -0.031702738 0.0069520017
0.45180753 -0.76008314 0.8073678 0.93290168 0.35873294 -0.031702738 0.0069520017
0.1157454 -0.34061241 0.38203979 -0.98067701 0.18668054 0.058506217 0
0.2435282 -0.41073045 0.71535122 0.98321676 0.17626496 0.047068935 0.0084611615
0.24531281 -0.42514396 0.69766384 0.98321676 0.17626496 0.047068935 0.0084611615
0.18218125 -0.49941033 0.44608447 -0.013223376 -0.99827856 -0.057139773 0.0077936803
0.18033302 -0.50708729 0.38302499 -0.51265359 -0.77270597 0.37431508 0.070118606
0.18723358 -0.50360572 0.46284363 -0.098576814 -0.98915219 -0.10890634 0.0070937262
0.22732152 -0.50616485 0.4622553 -0.12852374 -0.98043042 -0.14912339 0.0047786692
0.21093225 -0.50465053 0.46871328 -0.12866466 -0.98040301 -0.14918256 0.0047892327
0.20765461 -0.50190204 0.43566182 -0.050949041 -0.99714458 -0.055739868 0.0081604719
0.22731051 -0.50311744 0.40228686 -0.082834907 -0.99644059 -0.015636832 0.0060863118
0.36790416 -0.52078289 0.43886638 -0.52588004 -0.84429836 -0.10300685 0.00066394225
0.37753394 -0.52381343 0.42821082 -0.52588004 -0.84429836 -0.10300685 0.00066394225
0.20001456 -0.50360417 0.46270794 -0.091186479 -0.99136645 -0.094221033 0.0069447663
0.22079284 -0.52169311 0.21498986 -0.42546439 -0.87791514 -0.21964765 0.072392918
0.20401365 -0.51548415 0.21749514 -0.33202025 -0.92640758 -0.17757134 0.05705864
0.21178468 -0.51684046 0.21430402 -0.4121837 -0.88864809 -0.20102049 0.067019969
0.1571167 -0.50090694 0.32956111 -0.795066 -0.60326076 0.062821507 0.073149286
0.16714047 -0.51529121 0.28670728 -0.51497996 -0.84604388 -0.13785958 0.042682793
0.17863621 -0.5114004 0.21666116 -0.27938229 -0.95068997 -0.13466293 0.047247056
0.1565731 -0.50476766 0.33355856 -0.82594025 -0.56162763 0.048960578 0.074565761
0.18870768 -0.51586425 0.26397312 -0.41361222 -0.89142418 -0.18516998 0.047528517
0.18556611 -0.51530027 0.25148246 -0.37551993 -0.89946419 -0.2234928 0.046896789
0.22416826 -0.50630617 0.45839232 -0.11144305 -0.98662668 -0.11894631 0.0059523988
0.21002221 -0.50486767 0.45921329 -0.091190837 -0.99136728 -0.094208449 0.0069687185
0.19800603 -0.51901364 0.25188652 -0.40408492 -0.88320404 -0.23804606 0.045415368
0.18605089 -0.51383334 0.22875801 -0.31841746 -0.93897486 -0.13014024 0.047290009
0.21987985 -0.50026304 0.42776525 -0.050949041 -0.99714458 -0.055739868 0.0081604719
0.18021752 -0.51386952 0.2177573 -0.30452779 -0.93972147 -0.15551965 0.052256051
0.20684649 -0.50144416 0.41811389 0.022912603 -0.99972415 -0.005171326 0.012500135
0.14674801 -0.50834721 0.29275993 -0.49820137 -0.86351979 -0.078287698 0.057172913
0.17593996 -0.5176124 0.28105637 -0.48625994 -0.85979134 -0.15591702 0.044684298
0.19645831 -0.52040142 0.26067948 -0.41138536 -0.87457579 -0.25666961 0.044138536
0.19788203 -0.51318967 0.21974578 -0.33154106 -0.927293 -0.17380495 0.053123839
0.18484926 -0.51768792 0.27153701 -0.4643828 -0.87232047 -0.15298894 0.049622748
0.17841242 -0.51273483 0.25842428 -0.39578289 -0.90095431 -0.17786869 0.048194278
0.14034195 -0.51075792 0.25028291 -0.21903311 -0.97419655 -0.054456513 0.037658986
0.19133341 -0.51270366 0.21386933 -0.30337006 -0.93935364 -0.15994142 0.053721197
0.19194052 -0.50563258 0.21842428 -0.30452779 -0.93972147 -0.15551965 0.052256051
0.17326216 -0.51012766 0.21710049 -0.27938229 -0.95068997 -0.13466293 0.047247056
0.17127725 -0.51295471 0.21729414 -0.25213256 -0.96138299 -0.11032633 0.044398975
0.20756677 -0.51753825 0.21580942 -0.35652271 -0.91254103 -0.20040095 0.058858007
0.1511163 -0.50889117 0.29928398 -0.58451015 -0.80880213 -0.064708047 0.059170872
0.18481804 -0.51485783 0.21439317 -0.30452779 -0.93972147 -0.15551965 0.052256051
0.17389533 -0.51283371 0.25445762 -0.35590088 -0.91713059 -0.17946036 0.049351972
0.18437308 -0.51229221 0.23842786 -0.31989247 -0.93947351 -0.12271194 0.045598641
0.18678577 -0.51439637 0.22024362 -0.30452779 -0.93972147 -0.15551965 0.052256051
0.16669485 -0.5121128 0.27224991 -0.43262103 -0.89158189 -0.13386846 0.048542753
0.17031674 -0.48270446 0.34101492 -0.36771026 -0.91130954 0.18521355 0.064345449
0.17596237 -0.5043658 0.36952731 -0.77478236 -0.48323852 0.40766749 0.05613767
0.36313021 -0.51051289 0.3850995 -0.32047409 -0.91637886 -0.23988786 0.0051717516
0.43782267 -0.74781638 0.77190888 0.932338 0.36057162 -0.027090212 0.0083804121
0.44545582 -0.74815845 0.83419567 0.93290168 0.35873294 -0.031702738 0.0069520017
0.35671332 -0.51067376 0.42707318 -0.52588004 -0.84429836 -0.10300685 0.00066394225
0.23201661 -0.50416219 0.43326333 -0.065711915 -0.99536651 -0.070195951 0.0084842537
0.21322314 -0.50846303 0.47344673 -0.12866466 -0.98040301 -0.14918256 0.0047892327
0.19823717 -0.50212198 0.38348725 -0.16531689 -0.9710663 0.17233849 0.060025215
0.18798678 -0.51156884 0.22927925 -0.31841746 -0.93897486 -0.13014024 0.047290009
0.18827881 -0.50380641 0.38400099 -0.42822748 -0.84813887 0.31190002 0.067525826
0.17524488 -0.516608 0.28158543 -0.49055105 -0.8583498 -0.15031727 0.042600278
0.17367792 -0.51224774 0.22929874 -0.31989247 -0.93947351 -0.12271194 0.045598641
0.14320432 -0.51106137 0.23691112 -0.20516576 -0.97679967 -0.061396569 0.035337381
0.09158209 -0.50932372 0.215471 -0.057698518 -0.99832648 -0.0039037019 0.0013194286
0.20829451 -0.52054721 0.23925729 -0.35778505 -0.91443974 -0.18918204 0.053193558
0.37728581 -0.5223996 0.41350311 -0.52588004 -0.84429836 -0.10300685 0.00066394225
0.21802934 -0.49827108 0.39986295 -0.034472641 -0.99938631 -0.0062112845 0.017488806
0.20843954 -0.51942897 0.24377282 -0.36938068 -0.91421854 -0.16662063 0.046977114
0.19613893 -0.51503974 0.26487103 -0.43720895 -0.8732028 -0.21532564 0.046506599
0.18886164 -0.49695623 0.40260798 0.068452388 -0.99760485 -0.0099484976 0.011111344
0.17078881 -0.49999666 0.46015859 -0.027927747 -0.99652725 -0.078443974 0.0097587807
0.1755657 -0.50945991 0.21904108 -0.28459966 -0.95028186 -0.12636203 0.0455736
0.12466301 -0.50986779 0.21710502 -0.12840003 -0.99167657 0.0095401155 0.038552169
0.14389397 -0.50949621 0.20739128 -0.16581424 -0.98612106 -0.0084217871 0.036494952
0.17237003 -0.51468259 0.27939144 -0.43728098 -0.89062643 -0.12477921 0.046669517
0.4475019 -0.75581884 0.80084789 0.93290168 0.35873294 -0.031702738 0.0069520017
0.18173979 -0.51709372 0.2743189 -0.4649756 -0.872495 -0.15016776 0.04719821
0.45176926 -0.7640577 0.85547537 0.9479475 0.31766215 0.022049461 0.0043274728
0.15682265 -0.51057923 0.34030369 -0.83573973 -0.53948689 0.10243452 0.067788102
0.13056463 -0.51044369 0.23100567 -0.15432324 -0.98774266 -0.023425341 0.02969896
0.45344651 -0.77062446 0.82370859 0.93290168 0.35873294 -0.031702738 0.0069520017
0.45367631 -0.78235763 0.83952284 0.93290168 0.35873294 -0.031702738 0.0069520017
0.44759357 -0.75988805 0.84698433 0.93290168 0.35873294 -0.031702738 0.0069520017
0.261951 -0.51292253 0.4401674 -0.15773894 -0.98150992 -0.10842841 0.0021350482
0.15438206 -0.5121159 0.34345007 -0.8356154 -0.53621036 0.11926959 0.066746786
0.61671978 -0.65653348 0.46865511 -0.16584721 -0.89510256 0.41386732 0.01440339
0.61275369 -0.65291911 0.46478701 -0.16584721 -0.89510256 0.41386732 0.01440339
0.64174652 -0.63940501 0.49547961 -0.16584721 -0.89510256 0.41386732 0.01440339
0.6728189 -0.67314267 0.45332536 -0.16584721 -0.89510256 0.41386732 0.01440339
0.6809544 -0.6716066 0.45562899 -0.16584721 -0.89510256 0.41386732 0.01440339
0.62564582 -0.6628291 0.43390718 -0.16584721 -0.89510256 0.41386732 0.01440339
0.64241105 -0.66121644 0.4427768 -0.16584721 -0.89510256 0.41386732 0.01440339
0.68874419 -0.65557241 0.47616857 -0.16584721 -0.89510256 0.41386732 0.01440339
0.21927896 -0.52121603 0.2278215 -0.41832244 -0.88675165 -0.19666696 0.060019553
0.22085539 -0.52682298 0.22384493 -0.47895366 -0.84641767 -0.23276715 0.063018858
0.406611 -0.50614482 0.33458439 nan nan nan nan
0.22337893 -0.52479875 0.22336653 -0.47896937 -0.84640318 -0.23278752 0.063008599
0.21314999 -0.5238272 0.22787148 -0.38703933 -0.90099984 -0.19595881 0.05544354
0.21065661 -0.5214718 0.22404157 -0.38716593 -0.9009214 -0.19606927 0.055500686
0.45624962 -0.77613819 0.81683791 0.93290168 0.35873294 -0.031702738 0.0069520017
0.2435753 -0.43287539 0.76379091 0.98321676 0.17626496 0.047068935 0.0084611615
0.25041077 -0.43573612 0.7317549 0.98321676 0.17626496 0.047068935 0.0084611615
0.1154744 -0.34370369 0.38744891 -0.98067701 0.18668054 0.058506217 0
0.24822025 -0.41777223 0.72684419 0.98321676 0.17626496 0.047068935 0.0084611615
0.24805717 -0.42838648 0.70603293 0.98321676 0.17626496 0.047068935 0.0084611615
0.44738865 -0.75606942 0.80373472 0.93290168 0.35873294 -0.031702738 0.0069520017
0.18766412 -0.50673652 0.47704524 -0.096511103 -0.9816612 -0.16439888 0.0056199795
0.15749753 -0.50766557 0.33683461 -0.8324427 -0.54794836 0.082412906 0.070626281
0.18738118 -0.50632519 0.47546169 -0.096511103 -0.9816612 -0.16439888 0.0056199795
0.4473291 -0.75601244 0.80415934 0.93290168 0.35873294 -0.031702738 0.0069520017
0.15520255 -0.51679868 0.34866419 -0.87409073 -0.46894222 0.12672271 0.063107803
0.11321 -0.35570759 0.38771981 -0.98067701 0.18668054 0.058506217 0
0.22310752 -0.53642309 0.24207149 -0.50303942 -0.82492477 -0.25777987 0.053326011
0.21681027 -0.54923087 0.25400409 -0.50796628 -0.81468749 -0.27974007 0.050599776
0.21936458 -0.52052343 0.22690266 -0.41832244 -0.88675165 -0.19666696 0.060019553
0.18383378 -0.49869803 0.44676471 -0.050949041 -0.99714458 -0.055739868 0.0081604719
0.21118921 -0.51796591 0.21807723 -0.39693874 -0.89483738 -0.20421959 0.060862608
0.19530912 -0.52387702 0.22954202 -0.33153909 -0.92729974 -0.17377326 0.053127974
0.21048985 -0.53155231 0.24491975 -0.3956944 -0.88715416 -0.23745207 0.053375497
0.18412951 -0.53403932 0.22574756 -0.30451584 -0.93973124 -0.1554841 0.052240297
0.17258355 -0.54546517 0.3209708 -0.77754575 -0.62189269 -0.093122885 0.062169764
0.1507086 -0.50938016 0.2953271 -0.55508751 -0.82853293 -0.073559761 0.060191136
0.16135611 -0.51456738 0.3077783 -0.6706441 -0.73720348 -0.082264394 0.063589104
-0.036541469 -0.42990029 0.21450271 -0.03671483 -0.4455753 -0.89449131 0
-0.04990305 -0.41471961 0.2074881 -0.03671483 -0.4455753 -0.89449131 0
0.13959087 -0.51206762 0.25435084 -0.22929755 -0.97298765 -0.026788497 0.037377451
0.13732482 -0.50890738 0.26640397 -0.2375716 -0.97107148 -0.024082283 0.034570113
0.11450791 -0.50773174 0.20746675 -0.08540713 -0.9963311 -0.0054789656 0.030720318
0.0097055659 -0.30701771 0.51019049 nan nan nan nan
-0.046251211 -0.40603071 0.20301171 -0.03671483 -0.4455753 -0.89449131 0
-0.24236456 -0.57122952 0.21815757 -0.15961738 -0.23942606 -0.95770425 0
-0.24230763 -0.57120299 0.21812449 -0.15961738 -0.23942606 -0.95770425 0
-0.24257062 -0.57130855 0.21827111 -0.15961738 -0.23942606 -0.95770425 0
-0.2420844 -0.57129198 0.2180655 -0.15961738 -0.23942606 -0.95770425 0
-0.24221168 -0.57138062 0.21815023 -0.15961738 -0.23942606 -0.95770425 0
-0.2423058 -0.57127297 0.21814941 -0.15961738 -0.23942606 -0.95770425 0
