# .PCD v0.7 - Point Cloud Data file format
VERSION 0.7
FIELDS x y z
SIZE 4 4 4
TYPE F F F
COUNT 1 1 1
WIDTH 249
HEIGHT 1
VIEWPOINT 0 0 0 1 0 0 0
POINTS 249
DATA ascii
-0.1658486 -0.90011519 0.6238876
0.1769589 -0.74511892 1.174806
0.083729267 -0.32616711 0.97835189
0.38784209 -0.7032091 1.379284
0.091770127 -0.32651311 1.0084029
0.061428029 -0.30600181 0.95654821
0.134864 -0.30442801 1.053773
0.34790841 -0.55158907 1.376168
0.056434069 -0.52747011 1.188506
0.32550469 -0.82655632 1.261871
0.1569953 -0.98258108 0.4267807
0.1680938 -0.95305753 0.4940615
0.18603089 -0.98812228 0.4557035
0.2130055 -0.98516148 0.47779769
0.064895973 -0.92224759 0.49584609
0.000136897 -0.8555668 0.53790832
0.1064832 -0.93060488 0.45083681
0.093988307 -0.93081921 0.52725148
-0.0050135851 -0.87840652 0.49927139
0.0028421129 -0.85105872 0.5619303
-0.01559164 -0.91581339 0.54661697
0.03055786 -0.97804719 0.406279
0.048492759 -0.94728822 0.41812059
0.1635085 -0.96303552 0.47524181
0.2591534 -0.9897123 0.50790972
0.25630829 -0.44425449 0.78267658
0.2014619 -0.77004272 1.3693891
0.2370301 -0.57105112 0.74875158
0.21990129 -0.5524652 0.38521591
0.1580462 -0.51784402 0.36000341
0.23485699 -0.51849008 0.4362627
0.2137984 -0.51706392 0.46636349
0.23852061 -0.52890152 0.2381072
0.2254235 -0.52416748 0.2375025
0.2203255 -0.52334517 0.22128621
0.199036 -0.52791911 0.28770959
0.2048769 -0.53274572 0.2138036
0.1602831 -0.51343292 0.3565588
0.18502571 -0.53469437 0.20590509
0.18730479 -0.51475358 0.4854373
0.1652817 -0.51957762 0.23049089
0.1807135 -0.51895928 0.2649895
0.2312835 -0.55701399 0.26799119
0.1933154 -0.54878658 0.2231888
0.1738285 -0.53495789 0.28118941
0.207967 -0.53955549 0.22961891
0.1693331 -0.51954359 0.29103819
0.2302635 -0.53845811 0.23416319
0.22751909 -0.55533129 0.2351601
0.18716779 -0.55429512 0.31843829
0.2164008 -0.53543711 0.2165986
0.1997298 -0.54392618 0.2424795
0.1798691 -0.56642818 0.35303691
0.2190143 -0.56114727 0.25019729
0.18043 -0.54764408 0.28162679
0.18725391 -0.5607667 0.32742241
0.1961482 -0.54714441 0.2686474
0.1995879 -0.56115448 0.31161839
0.1735466 -0.53742713 0.52521843
0.19409689 -0.51579303 0.49392581
0.20604789 -0.50904697 0.46410239
0.16899499 -0.51392663 0.28458869
0.18385831 -0.51389748 0.212589
0.44773391 -0.75378531 0.83644569
0.4549574 -0.75891852 0.80786473
0.29939419 -0.52596039 0.43255839
0.30400869 -0.51269227 0.42275611
0.1157454 -0.34061241 0.38203979
0.2431765 -0.41085589 0.71541798
0.2454717 -0.4250873 0.69763368
0.181751 -0.50282693 0.44568589
0.18175291 -0.51002091 0.38285649
0.18773951 -0.4960371 0.46470109
0.2290625 -0.49330351 0.46315309
0.21093699 -0.50471991 0.46869609
0.20773651 -0.50055152 0.43577179
0.2282521 -0.4998962 0.4024832
0.3688778 -0.51956922 0.4391897
0.37782979 -0.52334201 0.42824101
0.1998698 -0.49901289 0.46389881
0.226888 -0.51230812 0.2166964
0.2093721 -0.50793868 0.2030932
0.2162115 -0.5056352 0.2162841
0.155561 -0.50036943 0.3298569
0.17165411 -0.51132143 0.2920202
0.1784537 -0.51071471 0.20748749
0.1512036 -0.50292969 0.33455691
0.1901834 -0.51192898 0.2650919
0.1865453 -0.51263231 0.2517204
0.225852 -0.4996728 0.45911601
0.2097002 -0.50817549 0.45862171
0.20210411 -0.51268262 0.2539787
0.18672191 -0.51201439 0.22863241
0.22120249 -0.49621531 0.4280102
0.1804678 -0.50664443 0.2176933
0.20712879 -0.49728629 0.41854391
0.1460713 -0.51126552 0.29329959
0.1792542 -0.51419479 0.28483129
0.2027 -0.51242632 0.26391879
0.20078211 -0.51142102 0.2096138
0.19179291 -0.51176172 0.27783269
0.1776174 -0.50473893 0.25910759
0.1402916 -0.51290268 0.25042221
0.19331381 -0.50166661 0.2126926
0.1926223 -0.50527829 0.21017
0.17276441 -0.50963682 0.2088225
0.1700526 -0.51201588 0.2034795
0.2092101 -0.51252919 0.2162849
0.15134031 -0.50628418 0.29899439
0.1852396 -0.51024479 0.21344291
0.1738333 -0.51494461 0.25435331
0.1848767 -0.5078401 0.2388059
0.1877179 -0.5091691 0.21983621
0.1668566 -0.51047683 0.27234989
0.16898289 -0.48193821 0.34204981
0.35009381 -0.52739292 0.3679564
0.17980599 -0.50711799 0.3672168
0.36313021 -0.51051289 0.3850995
0.43782279 -0.74781311 0.77190948
0.43318641 -0.75069338 0.83266562
0.35680479 -0.51052803 0.42708251
0.24604499 -0.53723639 0.64994037
0.23231541 -0.50314391 0.43332571
0.2143562 -0.50165337 0.47809201
0.19813091 -0.50155562 0.3834582
0.1892287 -0.50202042 0.2291773
0.186066 -0.49775949 0.3841697
0.182051 -0.50932097 0.28850541
0.1737216 -0.51164567 0.2292738
0.1428051 -0.50016451 0.23801661
0.1739762 -0.72536188 1.1451
0.2116349 -0.52899837 0.63884842
0.09158209 -0.50932372 0.215471
0.21228319 -0.51415449 0.2409468
0.39972341 -0.48865661 0.3162156
0.57731903 -0.75881833 0.83010191
0.3937515 -0.52682853 0.34469461
0.3871924 -0.5443601 0.46455559
0.37696961 -0.52289188 0.4134579
0.39440101 -0.61128038 0.4766109
0.4130666 -0.77339607 1.060865
0.2592743 -0.52200252 0.58145088
0.2176953 -0.49429041 0.4000816
0.21475831 -0.50936347 0.24571849
0.1983244 -0.50622177 0.26631841
0.18619449 -0.5053128 0.40512589
0.2113293 -0.53302872 0.35586479
0.170709 -0.50048977 0.46006241
0.17515489 -0.49737409 0.21521381
0.1586545 -0.4774715 0.40878209
0.18276709 -0.72258139 1.072817
0.1245752 -0.50744301 0.217195
0.14395329 -0.51121432 0.2072987
0.1737292 -0.51150221 0.28115919
0.45271221 -0.753438 0.80125898
0.1833401 -0.51600409 0.27540079
0.45024231 -0.76513278 0.85568362
0.15564559 -0.51013458 0.34076631
0.1290544 -0.51981992 0.2312517
0.45364171 -0.77055311 0.8237316
0.45889691 -0.78170878 0.83948481
0.45065469 -0.75836313 0.84683949
0.48684779 -0.77590328 0.75128412
0.261951 -0.51292253 0.4401674
0.15440109 -0.51212811 0.34343609
0.61376029 -0.62093347 0.45477429
0.65575588 -0.623523 0.47939819
0.61904001 -0.66234308 0.47030371
0.6099965 -0.65339023 0.46224269
0.65462208 -0.65608573 0.50316769
0.64174652 -0.63940501 0.49547961
0.74638432 -0.676458 0.55863249
0.67110652 -0.67436379 0.4556703
0.6809544 -0.6716066 0.45562899
0.62636852 -0.6646387 0.4344207
0.70951402 -0.65599883 0.49407661
0.64536828 -0.65008003 0.44473439
0.7269789 -0.66848868 0.54946858
0.48743209 -0.55654991 0.32056221
0.49091601 -0.54730773 0.31240219
0.68929988 -0.65516841 0.47548169
0.55944908 -0.71320689 0.65018022
0.18139499 -0.77529007 1.192461
0.4101181 -0.76019442 1.042789
0.4170849 -0.74698222 1.024632
0.2266023 -0.51942801 0.2225689
0.2284603 -0.52186018 0.2260678
0.406611 -0.50614482 0.33458439
0.22420821 -0.52329189 0.2243149
0.2143895 -0.52122778 0.2285631
0.21350139 -0.52426457 0.2154493
0.44580451 -0.78000009 0.81519008
0.2435753 -0.43287539 0.76379091
0.25487831 -0.43426591 0.73200852
0.1154744 -0.34370369 0.38744891
0.1471588 -0.53314573 0.75989932
0.2486605 -0.41761521 0.72676069
0.134197 -0.5179348 0.67371821
0.2479853 -0.42841211 0.70604658
0.4518221 -0.75404352 0.80408448
0.1880016 -0.50425428 0.47762969
0.1555173 -0.50684029 0.33745059
0.18780351 -0.50321883 0.4761931
0.45217699 -0.75379717 0.80454183
0.155981 -0.51729929 0.34809211
0.11321 -0.35570759 0.38771981
0.044745419 -0.50481677 0.25483379
0.020532319 -0.47955951 0.2183606
0.020546131 -0.39702839 0.2429947
0.35779431 -0.6572144 0.70892972
0.2328169 -0.53995359 0.2370944
0.22249921 -0.54651278 0.25951451
0.2287233 -0.51923031 0.2219906
0.1831608 -0.50158691 0.4462882
0.21543521 -0.50877643 0.21907251
0.1847057 -0.53988218 0.22753949
0.2139865 -0.52863598 0.2473512
0.180391 -0.54220229 0.21146341
0.1734584 -0.54415518 0.32174891
0.14008801 -0.47868299 0.65293318
0.020295231 -0.47093299 0.2069042
0.1516339 -0.4978855 0.2940689
0.1464238 -0.52421212 0.3048372
-0.036541469 -0.42990029 0.21450271
-0.04990305 -0.41471961 0.2074881
0.139632 -0.51358348 0.25448951
0.1372885 -0.50925452 0.26645079
0.1143679 -0.50943333 0.20679639
0.0097055659 -0.30701771 0.51019049
0.005629865 -0.38055491 0.51586479
0.0043018679 -0.232071 0.5212701
0.060364991 -0.46151289 0.27440631
0.01064844 -0.33906981 0.52140808
-0.005447255 -0.2377378 0.50762868
-0.001027331 -0.28213999 0.49962971
-0.093806677 -0.1747008 0.4474844
-0.046251211 -0.40603071 0.20301171
-0.26015571 -0.39326531 0.30767059
-0.34446299 -0.51220697 0.2244959
-0.2912176 -0.52611852 0.2399407
-0.2439751 -0.52270752 0.2208274
-0.2423535 -0.57121962 0.2181845
-0.2423027 -0.57119858 0.2181365
-0.2425774 -0.57131457 0.2182546
-0.2420945 -0.57130098 0.2180409
-0.2422 -0.57137018 0.2181787
-0.2423166 -0.57128263 0.21812309
-0.35016629 -0.56475008 0.22873829
-0.28387779 -0.5717659 0.2335802
