# .PCD v0.7 - Point Cloud Data file format
VERSION 0.7
FIELDS x y z normal_x normal_y normal_z curvature
SIZE 4 4 4 4 4 4 4
TYPE F F F F F F F
COUNT 1 1 1 1 1 1 1
WIDTH 688
HEIGHT 1
VIEWPOINT 0 0 0 1 0 0 0
POINTS 688
DATA ascii
0.1902574 0 0.30960551 -0 1 -0 0
0.21479779 0 0.30065569 -0 1 -0 0
0.2251047 0 0.30986229 -0 1 -0 0
0.1759041 0 0.3131263 -0 1 -0 0
0.18306673 0 0.31574678 -0 1 -0 0
0.27846491 0 0.31753209 -0 1 -0 0
0.28567457 0 0.3135291 -0 1 -0 0
0.34480238 0 0.31456694 -0 1 -0 0
-0.085872859 0 0.32586324 -0 1 -0 0
-0.01166852 0 0.3297292 -0 1 -0 0
0.17193639 0 0.32991451 -0 1 -0 0
0.18101791 0 0.3279815 -0 1 -0 0
0.19407684 0 0.32803378 -0 1 -0 0
0.2001327 0 0.32652879 -0 1 -0 0
0.222681 0 0.32223701 -0 1 -0 0
0.2326162 0 0.32762671 -0 1 -0 0
0.24545451 0 0.32564461 -0 1 -0 0
0.26888111 0 0.32069349 -0 1 -0 0
0.29548913 0 0.32658765 -0 1 -0 0
0.3274999 0 0.3229399 -0 1 -0 0
0.03103539 0 0.33938259 -0 1 -0 0
0.073812909 0 0.33397099 -0 1 -0 0
0.13375311 0 0.33364189 -0 1 -0 0
0.1597192 0 0.33810821 -0 1 -0 0
0.17763253 0 0.33123168 -0 1 -0 0
0.1873185 0 0.3376731 -0 1 -0 0
0.1919141 0 0.33263731 -0 1 -0 0
0.24248791 0 0.3385115 -0 1 -0 0
0.2634365 0 0.3372077 -0 1 -0 0
0.29282609 0 0.3300685 -0 1 -0 0
0.35525554 0 0.33563393 -0 1 -0 0
-0.088452883 0 0.34741449 -0 1 -0 0
-0.061900169 0 0.3427076 -0 1 -0 0
0.0075431801 0 0.34756529 -0 1 -0 0
0.018268719 0 0.34598631 -0 1 -0 0
0.02224192 0 0.34898481 -0 1 -0 0
0.032087043 0 0.34797865 -0 1 -0 0
0.052254733 0 0.34261671 -0 1 -0 0
0.064450599 0 0.345406 -0 1 -0 0
0.074868232 0 0.34799385 -0 1 -0 0
0.0804011 0 0.3494359 -0 1 -0 0
0.1366373 0 0.34838599 -0 1 -0 0
0.1650611 0 0.34186211 -0 1 -0 0
0.2013915 0 0.34131941 -0 1 -0 0
0.21833681 0 0.34283391 -0 1 -0 0
0.2465006 0 0.34564 -0 1 -0 0
0.2845504 0 0.3443903 -0 1 -0 0
0.30967781 0 0.34770569 -0 1 -0 0
0.32186711 0 0.34370881 -0 1 -0 0
0.018964009 0 0.3566823 -0 1 -0 0
0.021564839 0 0.3588416 -0 1 -0 0
0.031287778 0 0.35019621 -0 1 -0 0
0.055670861 0 0.35442579 -0 1 -0 0
0.070296489 0 0.35939729 -0 1 -0 0
0.08765018 0 0.35612789 -0 1 -0 0
0.13124719 0 0.35341799 -0 1 -0 0
0.1442745 0 0.35364819 -0 1 -0 0
0.1560744 0 0.35358685 -0 1 -0 0
0.1629176 0 0.3584708 -0 1 -0 0
0.1745315 0 0.35350439 -0 1 -0 0
0.18796641 0 0.35210609 -0 1 -0 0
0.21329445 0 0.35760349 -0 1 -0 0
0.228534 0 0.35337031 -0 1 -0 0
0.2419792 0 0.3567749 -0 1 -0 0
0.2601825 0 0.35890701 -0 1 -0 0
0.27815899 0 0.35922369 -0 1 -0 0
0.28886229 0 0.35154209 -0 1 -0 0
-0.065212309 0 0.3638778 -0 1 -0 0
0.022078371 0 0.36092469 -0 1 -0 0
0.051784232 0 0.36433852 -0 1 -0 0
0.064444616 0 0.3645615 -0 1 -0 0
0.074640423 0 0.36387292 -0 1 -0 0
0.081475072 0 0.36091936 -0 1 -0 0
0.1565374 0 0.36123511 -0 1 -0 0
0.16623357 0 0.36380187 -0 1 -0 0
0.2066045 0 0.3663075 -0 1 -0 0
0.24454598 0 0.36298698 -0 1 -0 0
-0.068736479 0 0.37450701 -0 1 -0 0
0.0045390129 0 0.3705669 -0 1 -0 0
0.01161737 0 0.3733969 -0 1 -0 0
0.047975771 0 0.3732551 -0 1 -0 0
0.065807842 0 0.3773424 -0 1 -0 0
0.083533503 0 0.37526241 -0 1 -0 0
0.1299589 0 0.3763577 -0 1 -0 0
0.13028391 0 0.3723453 -0 1 -0 0
0.1797713 0 0.37383759 -0 1 -0 0
0.20327595 0 0.37551218 -0 1 -0 0
0.2248089 0 0.37795949 -0 1 -0 0
0.26630029 0 0.37120369 -0 1 -0 0
0.27941981 0 0.3749482 -0 1 -0 0
0.2857511 0 0.37065569 -0 1 -0 0
0.304582 0 0.372996 -0 1 -0 0
0.025808269 0 0.38653439 -0 1 -0 0
0.04744076 0 0.38225129 -0 1 -0 0
0.0616992 0 0.38991871 -0 1 -0 0
0.080442064 0 0.38590199 -0 1 -0 0
0.1028732 0 0.38932639 -0 1 -0 0
0.1426297 0 0.3860997 -0 1 -0 0
0.150361 0 0.38000321 -0 1 -0 0
0.1700065 0 0.384996 -0 1 -0 0
0.20080251 0 0.38699731 -0 1 -0 0
0.2195895 0 0.38592219 -0 1 -0 0
0.2364329 0 0.38760969 -0 1 -0 0
0.25768471 0 0.38219091 -0 1 -0 0
0.27988091 0 0.38137749 -0 1 -0 0
0.28382629 0 0.3884798 -0 1 -0 0
-0.078653887 0 0.39204451 -0 1 -0 0
-0.02635124 0 0.39441219 -0 1 -0 0
0.044260547 0 0.39600575 -0 1 -0 0
0.084299631 0 0.39231771 -0 1 -0 0
0.125366 0 0.39492089 -0 1 -0 0
0.13276775 0 0.39510882 -0 1 -0 0
0.15218601 0 0.396254 -0 1 -0 0
0.16908669 0 0.39177659 -0 1 -0 0
0.1754372 0 0.39681655 -0 1 -0 0
0.22371779 0 0.3952724 -0 1 -0 0
0.0136734 0 0.407673 -0 1 -0 0
0.023368349 0 0.40218711 -0 1 -0 0
0.047152705 0 0.4036867 -0 1 -0 0
0.07566978 0 0.40598148 -0 1 -0 0
0.088482492 0 0.4010762 -0 1 -0 0
0.108983 0 0.40676281 -0 1 -0 0
0.22860099 0 0.40857789 -0 1 -0 0
-0.07182762 0 0.41547021 -0 1 -0 0
-0.058138549 0 0.4133237 -0 1 -0 0
0.035190981 0 0.41825381 -0 1 -0 0
0.04161096 0 0.41485459 -0 1 -0 0
0.059744496 0 0.41963744 -0 1 -0 0
0.061580699 0 0.41874611 -0 1 -0 0
0.071834326 0 0.41342169 -0 1 -0 0
0.091178961 0 0.41263989 -0 1 -0 0
0.14535534 0 0.41576892 -0 1 -0 0
0.16345087 0 0.41307917 -0 1 -0 0
0.21667279 0 0.41255561 -0 1 -0 0
0.017851491 0 0.42729884 -0 1 -0 0
0.026087649 0 0.4293395 -0 1 -0 0
0.042293418 0 0.42138961 -0 1 -0 0
0.05707486 0 0.4240804 -0 1 -0 0
0.062265836 0 0.42474359 -0 1 -0 0
0.07123974 0 0.42029661 -0 1 -0 0
0.1041056 0 0.4257926 -0 1 -0 0
0.1205847 0 0.42486501 -0 1 -0 0
0.1464617 0 0.4230656 -0 1 -0 0
0.024189141 0 0.43511629 -0 1 -0 0
0.063650802 0 0.43515864 -0 1 -0 0
0.093169801 0 0.4307324 -0 1 -0 0
0.02592523 0 0.44685835 -0 1 -0 0
0.06655024 0 0.44096479 -0 1 -0 0
-0.16331629 0 0.45388374 0.0470591 -0.035669208 -0.99825501 0.018656159
0.029518509 0 0.4533087 -0 1 -0 0
0.032348126 0 0.45086536 -0 1 -0 0
-0.12651061 0 0.46962541 -0.067767113 0.076182336 0.99478841 0.093304902
-0.1751896 0 0.4736374 -0.052729316 0.039239611 0.9978376 0.019989187
-0.16497816 0 0.47408009 -0.052401859 0.035606839 0.99799109 0.01568166
-0.15956441 0 0.47754949 -0.11293948 0.036438592 0.99293345 0.017967207
-0.1416447 0 0.47567999 -0.16925839 -0.0051463908 0.98555827 0.021839323
-0.1190202 0 0.47011179 -0.1081503 0.12892644 0.98573905 0.10464541
-0.096506298 0 0.4765197 0.14816999 0.48601526 0.86129832 0.14248578
-0.085391343 0 0.47523069 -0.23499569 -0.46246696 -0.85492772 0.1668389
0.3490988 0 0.47611371 -0 1 -0 0
0.35125029 0 0.47922349 -0 1 -0 0
-0.083346121 0 0.48956621 -0.13099912 0.19077148 0.97285432 0.1552065
0.36489359 0 0.4869751 -0.073525228 0.9966681 -0.035308469 0.014946562
-0.065264903 0 0.4953334 -0.41746998 -0.036546521 0.90795547 0.026852412
0.35713089 0 0.49466071 -0.076106742 0.99696153 -0.016596541 0.0097690271
0.37257969 0 0.4996458 -0.076106742 0.99696153 -0.016596541 0.0097690271
0.57002258 0 0.49806061 -0 1 -0 0
-0.075883053 0 0.50339073 -0.41746998 -0.036546521 0.90795547 0.026852412
0.55467045 0 0.50292027 -0 1 -0 0
0.58190203 0 0.50932348 -0 1 -0 0
0.1081085 0 0.52751809 -0 1 -0 0
0.112676 0 0.53911752 0.012156243 0.999686 -0.021914244 0.00054729503
0.1204605 0 0.53869528 0.025478993 0.99941498 -0.022814486 0.00048557148
0.41496256 0.00064356194 0.54399079 0.79999024 -0.18992865 -0.56915963 0.05574055
0.1123284 0 0.54268074 -0.030029045 0.99873465 -0.040340777 0.020231334
0.41368458 9.1299058e-05 0.54514647 0.79999024 -0.18992865 -0.56915963 0.05574055
0.41828147 -0.00060058851 0.54140109 0.79999024 -0.18992865 -0.56915963 0.05574055
0.12467625 0 0.55038255 0.04332573 0.99371785 -0.10318825 0.059777316
0.14308681 0 0.55936199 0.10156934 0.98886079 -0.10880312 0.049877934
0.33174244 9.2307246e-06 0.55931199 -0.27409685 0.94262874 -0.19058348 0.092631206
0.10377631 0 0.56490374 -0.057839107 0.99619257 -0.065230243 0.047436014
0.1146067 0 0.56168813 -0.018781669 0.99772662 -0.064721599 0.049339652
0.3041963 -1.2212722e-06 0.56980664 0.32685211 -0.066116512 0.94275987 0.012118342
0.32843137 1.5079162e-06 0.56067437 0.48127323 -0.25512496 0.83862233 0.090406716
0.33055001 -1.4717369e-05 0.55980277 0.48104754 -0.2759245 0.83214116 0.094874136
0.39011395 -8.9738514e-06 0.5649116 0.2220591 -0.20079671 0.95413333 0.14136052
0.10530675 0 0.5725944 -0.061536334 0.99279869 -0.10278144 0.077035002
0.1170088 0 0.57656199 -0.028503604 0.99521202 -0.093490846 0.071772069
0.24220586 -0.003543318 0.58767152 0.30851227 -0.15902522 0.93783325 0.071928926
0.26873714 0.00058360375 0.57423085 0.35144043 -0.069841996 0.9336015 0.052380182
0.2737844 -0.0015691327 0.580531 0.35751799 -0.076784715 0.93074435 0.052978914
0.28415874 1.9508601e-05 0.57852262 0.36845452 -0.084864385 0.92576414 0.05893562
0.30343008 -3.2467728e-05 0.5707947 0.32350686 -0.063448183 0.94409621 0.011846324
0.1043211 0 0.58522618 -0.037009172 0.99518746 -0.090732165 0.067469634
0.1119757 0 0.58048773 -0.037015911 0.99518526 -0.090752713 0.067474276
0.22256401 -0.00054668414 0.59578049 0.19365571 -0.3640967 0.9110055 0.12007976
0.22653092 0.00015754085 0.59303474 0.2383721 -0.3394129 0.90993279 0.13848278
0.23277994 0.00019464978 0.59025574 0.27048945 -0.24112593 0.93203741 0.10698155
0.24523899 0.00013469653 0.58843613 0.30032271 -0.2268807 0.92646176 0.10898994
0.27124038 0.0012922117 0.58355266 0.35134691 -0.069990762 0.93362558 0.051257458
0.28141245 -6.661802e-05 0.57913268 0.36263689 -0.081645891 0.92834717 0.056933112
0.17296289 -0.00093356211 0.59588176 0.14553636 0.97815567 -0.14842744 0.041843615
0.20910858 0.00035220792 0.59882325 0.17756853 -0.1679108 0.96967793 0.10558525
0.22084314 6.3509462e-05 0.59773523 0.1895573 -0.38871586 0.90164739 0.12475301
0.22394702 -0.00029494803 0.59810662 0.19365571 -0.3640967 0.9110055 0.12007976
0.23798996 -0.0051570237 0.59633398 0.26840121 -0.23672469 0.93376774 0.097462207
0.24398702 0.00010342883 0.59184355 0.30032271 -0.2268807 0.92646176 0.10898994
0.27425504 0.0019918599 0.59655017 0.3673189 -0.17885004 0.91273737 0.085976906
0.11806837 0.0018641867 0.60722214 -0.04721339 0.9779548 -0.20340906 0.13913499
0.12652145 0.0019906738 0.60983819 0.047767773 0.98305213 -0.17699349 0.12939613
0.13206379 0.0020706432 0.60892171 0.099982493 0.97690332 -0.18884759 0.12226614
0.14643015 -0.00081576686 0.60999602 0.15852106 0.96032447 -0.22945137 0.08227963
0.15915854 -0.00024311902 0.60743845 0.14818202 0.97202617 -0.18222839 0.064408273
0.16338536 -0.00017091277 0.60534358 0.17011566 0.94801384 -0.26894316 0.064371809
0.17289031 0.0012158838 0.60439068 0.13870774 0.97797441 -0.15596876 0.042150315
0.18092148 -2.6426183e-05 0.60724658 0.15737462 0.97771746 -0.13893086 0.05001381
0.19485526 0.0001813609 0.60180014 0.20245464 0.4778823 0.85477519 0.095634185
0.20646404 -0.00021374441 0.60109961 0.16758782 -0.055348996 0.98430222 0.11635369
0.22445382 0.00056790793 0.60410035 0.18949609 -0.38894418 0.9015618 0.12478165
0.24266669 -0.0061710351 0.60353887 0.28193605 -0.23651882 0.92982304 0.10009525
0.01012803 0 0.61454731 0.23927759 -0.15227556 0.95893604 0.060783118
0.02806776 0 0.61505449 0.19340964 -0.050022919 0.97984207 0.040373664
0.10661808 0.0017313207 0.61751479 -0.095108487 0.96895283 -0.22822085 0.12034132
0.11493938 0.0020177502 0.61631894 -0.068488941 0.97602922 -0.20658222 0.14592274
0.12073918 0.0022655618 0.61627704 -0.04721339 0.9779548 -0.20340906 0.13913499
0.13353725 0.0023419107 0.61244631 0.099982493 0.97690332 -0.18884759 0.12226614
0.14647964 0.0003065074 0.61016572 0.15852106 0.96032447 -0.22945137 0.08227963
0.1503769 0.001803362 0.61910242 0.13593212 0.87364334 -0.46719348 0.087830223
0.17658995 -0.00041365996 0.61131644 0.14045118 0.97189236 -0.18894102 0.048073664
0.2010415 -0.00060166238 0.6022073 0.13799161 -0.13561746 0.98110461 0.11295786
0.065383032 0 0.62758297 0.36238089 -0.25000569 0.8978737 0.072772443
0.072023377 0 0.62899101 -0.28844798 0.73222798 -0.61696011 0.076717556
0.082559086 0 0.62522131 0.32103086 -0.57274544 0.75425583 0.081187166
0.09691193 0.00078703271 0.62352329 -0.17600112 0.92521185 -0.33616462 0.074962273
0.10254597 0.002461717 0.62874621 0.20529647 -0.77641392 0.59584796 0.10212131
0.11466244 -9.3676026e-05 0.62023574 -0.08802899 0.95258623 -0.2912567 0.15938988
0.12062363 -0.00010161001 0.61812842 -0.04721339 0.9779548 -0.20340906 0.13913499
0.20070764 -0.003413765 0.62437588 0.12895003 0.92876017 -0.34752911 0.10667269
0.23468077 -0.0087025445 0.62849963 0.091941029 0.9517101 -0.29290736 0.14839774
-0.021389751 -0.0071163783 0.64724082 0.44458035 -0.09199971 0.89100188 0.056195505
0.0081573427 -0.00092085579 0.63847011 0.33348981 -0.16772446 0.92771393 0.045509912
0.013022991 -0.00027086822 0.63964146 0.33348981 -0.16772446 0.92771393 0.045509912
0.026738923 -0.00033039018 0.6344744 0.22973593 -0.096214615 0.96848547 0.045628719
0.031196466 0.00039502044 0.6345607 0.23763363 -0.093752995 0.96681994 0.039877053
0.053327721 0 0.63370395 0.29400626 -0.065366626 0.95356566 0.041211739
0.070502341 0 0.63436693 0.31606513 -0.55445927 0.76985574 0.069124416
0.083719783 0 0.63141161 0.32103086 -0.57274544 0.75425583 0.081187166
0.097523347 0.0028219586 0.63286299 -0.24409002 0.79675424 -0.55281353 0.098694056
0.10696682 0.0013768589 0.62197214 -0.10687975 0.95347893 -0.28187731 0.12445144
0.24179332 -0.0010965555 0.63433963 0.10734069 0.9771862 -0.18326247 0.094613418
-0.044059612 -6.9303191e-05 0.64508468 -0.38557899 0.57724369 -0.71980453 0.056925096
-0.013971408 -0.0028125413 0.65050524 0.44266155 -0.096919447 0.89143556 0.056722499
-0.0053781965 -0.00045857471 0.64671403 0.37894225 -0.15442625 0.91244465 0.051188823
0.007127462 -0.00050605804 0.64363599 0.35687849 -0.12429224 0.92584509 0.046686023
0.011958045 0.00014216825 0.64482754 0.35247752 -0.13029888 0.92670476 0.048039522
0.025169751 0.0010231356 0.6435284 0.26460513 -0.14180546 0.95387381 0.044002417
0.035166781 0.0013682361 0.64171308 0.23813213 -0.098258018 0.96624976 0.041859556
0.071753211 0 0.64195591 0.33514971 -0.38736823 0.85884839 0.06630104
0.17317051 0 0.64886677 0.1358363 0.9750874 -0.17536551 0.055919252
0.4081037 0 0.64418149 -0 1 -0 0
0.4117049 0 0.64939713 -0 1 -0 0
-0.040356781 0.0012124107 0.65945077 0.42636266 -0.31964281 0.84619343 0.070758425
-0.014354114 -0.0003926451 0.65482515 0.4357138 -0.12726341 0.89104289 0.058470767
0.026348351 0.0055002309 0.65454358 0.31094387 -0.13397491 0.94093812 0.043876652
0.030829754 0.0029647993 0.65068352 0.24582629 -0.12953308 0.96061993 0.04702767
0.2094669 0 0.6580745 0.11762848 0.98275506 -0.14267501 0.057303075
0.40768531 0 0.65368152 -0 1 -0 0
0.41560134 0 0.65387547 -0 1 -0 0
-0.047821891 -0.0013207333 0.67033279 0.40828162 -0.46982658 0.78266793 0.057861228
-0.040160757 -0.003662958 0.66632599 0.4415907 -0.24608897 0.86280817 0.057544585
-0.013388414 0.00057517749 0.66456842 0.4357138 -0.12726341 0.89104289 0.058470767
0.033529561 0.0062393616 0.6592871 0.24737065 -0.17154248 0.95361465 0.048497248
0.2510975 0 0.66774237 0.010899046 0.99854165 -0.052875444 0.013370715
0.41601005 0 0.66039538 -0 1 -0 0
0.42724141 0 0.66391551 -0 1 -0 0
-0.048146825 -0.0012832899 0.67706609 0.41943476 -0.46540278 0.77940673 0.061967559
-0.045520686 -7.8938305e-05 0.67512059 0.40828162 -0.46982658 0.78266793 0.057861228
-0.048303176 -0.00083074812 0.68196893 0.41943476 -0.46540278 0.77940673 0.061967559
-0.048257466 0.0022938251 0.67876428 0.41943476 -0.46540278 0.77940673 0.061967559
-0.030577304 0.00248358 0.68219608 0.4274106 -0.28988045 0.85632324 0.063296765
0.25598568 0 0.68428767 0.041515458 0.98500007 -0.16748504 0.012518632
0.26101181 0 0.68842179 0.041515458 0.98500007 -0.16748504 0.012518632
0.29935679 0 0.68902391 -0.0010532896 0.99995309 -0.0096255774 2.9475665e-05
0.33530241 0 0.68489361 -0 1 -0 0
-0.046054613 -3.8793623e-05 0.69767016 0.54591566 -0.35865256 0.75719517 0.061766885
0.26273951 0 0.69493639 0.041515458 0.98500007 -0.16748504 0.012518632
0.29661289 0 0.69687349 -0 1 -0 0
0.30316129 0 0.69867998 -0 1 -0 0
0.26277271 0 0.7062248 0.00099641248 0.99995816 -0.0090972269 2.8404753e-05
0.30419171 0 0.70864654 -0 1 -0 0
0.26333049 0 0.71668142 -0 1 -0 0
0.30166081 0 0.72326738 -0 1 -0 0
0.21962656 -0.22350761 0.33708933 0.043381691 -0.99526858 0.086939678 0.0034615947
0.27882805 -0.21843205 0.37635645 -0.0003933539 -0.99947715 0.032328691 0.001600882
0.22126666 -0.25020045 0.27109355 0.11965501 -0.96998698 0.21167904 0.0088913795
0.28572056 -0.21768193 0.37201795 0.0065865121 -0.99949938 0.030942975 0.001775424
0.224971 -0.2232576 0.30986425 0.061155479 -0.99168384 0.11323991 0.0049257264
0.22984752 -0.21847035 0.40893412 0.015276492 -0.9984988 0.052599952 0.0011989902
0.20148766 -0.2224934 0.34121978 0.032205321 -0.99373627 0.10700956 0.0036228022
0.20099105 -0.21787907 0.37355453 0.025692176 -0.99708474 0.071846709 0.00050491508
0.18463999 -0.22267884 0.31869203 0.045943536 -0.98848367 0.14418519 0.0052424003
0.18733709 -0.22186925 0.33768433 0.041222431 -0.99231708 0.11665129 0.0037453161
0.16854264 -0.22156641 0.34379366 0.031411361 -0.99489969 0.095854178 0.001021494
0.16890661 -0.22106604 0.36088398 0.028457195 -0.99605244 0.084081575 0.00071738026
0.15788227 -0.22153582 0.35235697 0.016400695 -0.99595916 0.088296629 0.00066913373
0.26485321 -0.23302904 0.70724761 0.17794283 0.8537932 0.48925823 0.019506108
0.22941822 -0.01280621 0.60480189 0.27127573 -0.22801284 0.93510401 0.10814651
0.14428316 -0.22181994 0.35357726 0.01164778 -0.99767613 0.067129716 0.0001839638
0.24242961 -0.026993034 0.59415162 0.30914289 -0.16870664 0.93593198 0.086020768
0.14648643 -0.21648863 0.42254484 0.021450894 -0.99692833 0.07532493 9.0237365e-05
0.13128322 -0.22158886 0.3533147 0.0089816246 -0.99793518 0.063597411 0.00019749923
0.23648784 -0.21643656 0.38750538 0.0152137 -0.99788159 0.063252352 0.0010670539
0.15410112 -0.22152618 0.35449931 0.014812883 -0.99650252 0.082239687 0.00054296671
0.26827744 -0.23052384 0.69970459 0.17794283 0.8537932 0.48925823 0.019506108
0.16896401 -0.21796311 0.39155146 0.023448877 -0.99705964 0.072954088 0.00036355251
0.13664144 -0.22203684 0.34834582 0.011500903 -0.99781722 0.065026745 0.00017609305
0.17644195 -0.13403356 0.61066961 0.23637396 0.06763754 0.96930516 0.011817108
0.20223096 -0.029576994 0.6072734 0.16548797 -0.20396316 0.96489 0.082406133
0.15030985 -0.13441052 0.61853218 0.073146313 0.94843352 0.30842105 0.00018652967
0.12335088 -0.13419336 0.62123257 0.075696521 0.94195485 0.32709506 0.00020735142
0.14909323 -0.13254787 0.61074519 0.072917268 0.94871736 0.307601 0.00019204406
0.054025061 -0.2197039 0.42733699 0.042137332 -0.99883753 0.023409359 0.00032673683
0.10658363 -0.2360599 0.57402188 -0.12286416 -0.97771841 -0.17020865 0.00044752995
0.11206776 -0.23753397 0.58061534 -0.12286416 -0.97771841 -0.17020865 0.00044752995
0.031705149 -0.12933676 0.63056022 0.26227933 0.057035912 0.96330494 0.032703158
0.097993806 -0.13141023 0.62044424 0.25587779 0.2884092 0.92268449 0.010055176
0.072424643 -0.21903533 0.40817028 0.031175733 -0.99937379 0.01673824 0.00036063371
0.12511264 -0.23446208 0.55066514 -0.12279266 -0.97773868 -0.17014425 0.00040100492
0.12039685 -0.13405037 0.62158591 0.075696521 0.94195485 0.32709506 0.00020735142
0.12484547 -0.23447095 0.55091643 -0.12279266 -0.97773868 -0.17014425 0.00040100492
0.097797118 -0.13171846 0.62122756 0.25587779 0.2884092 0.92268449 0.010055176
0.071862318 -0.13198605 0.62820047 0.24079767 0.19803634 0.95015693 0.019251168
0.14968778 -0.1329243 0.61225063 0.072917268 0.94871736 0.307601 0.00019204406
0.15967439 -0.13264799 0.60995954 0.21843295 0.32430449 0.92038769 0.022704203
0.077302769 -0.22130145 0.36690778 0.0071076639 -0.99976003 0.02072054 0.00094498461
0.034226909 -0.22023325 0.45157969 0.062659137 -0.99782217 0.020609271 0.00019288607
0.080367155 -0.22152777 0.34946677 0.0022260889 -0.99982977 0.018314566 0.00091270322
0.067723908 -0.22162041 0.3469407 0.0017318923 -0.99990624 0.013586627 0.0011451287
0.02884621 -0.13588907 0.64274693 0.25009161 0.052965783 0.96677238 0.035949275
0.036431443 -0.13628261 0.6423232 0.24845669 0.06187164 0.96666497 0.03418009
0.14796938 -0.13311021 0.61338818 0.072917268 0.94871736 0.307601 0.00019204406
0.036182728 -0.13552186 0.64114213 0.24845669 0.06187164 0.96666497 0.03418009
0.21200506 -0.028563403 0.60273641 0.25751424 -0.15556446 0.95366979 0.072233513
0.2012586 0.085465923 0.62411362 -0.37806654 0.92532367 0.029011717 0.042929877
0.2350338 -0.0301373 0.59132671 0.30035079 -0.12392572 0.94574398 0.058869272
0.16020875 -0.1318036 0.60493791 0.24629603 0.075491801 0.96625018 0.022227548
0.41618016 -0.24543095 0.65990806 0.60348195 -0.48450509 -0.63329643 4.3419943e-05
0.26622546 -0.21810427 0.3715207 0.0045659645 -0.9994266 0.033548795 0.0016091031
0.24784665 -0.21664765 0.36503038 0.019517737 -0.99866486 0.047830753 0.0012674584
0.2837669 -0.22295548 0.38734403 -0.016169049 -0.99975508 0.015112195 0.0011463898
0.024500603 -0.2214516 0.44765425 0.056864191 -0.99829584 0.013107425 0.00018938482
0.018175699 -0.2222714 0.42986202 0.048649248 -0.99870563 0.014839936 0.00029081909
0.030496286 -0.22070497 0.45108908 0.059434529 -0.99809963 0.016271669 0.00022367667
0.082605802 -0.131871 0.6254009 0.24331474 0.20067722 0.94896084 0.018077677
0.032494742 -0.22051197 0.347931 -0.0085358759 -0.99995726 -0.0035528205 0.0018917926
0.022145269 -0.21969977 0.3485834 -0.012450793 -0.99984866 -0.012150929 0.0020340397
0.01941622 -0.22125924 0.35820654 -0.0058705043 -0.9999702 -0.0050038127 0.0017383805
0.030117063 -0.22075795 0.45072547 0.059434529 -0.99809963 0.016271669 0.00022367667
0.0044354601 -0.22294323 0.37050828 0.016052749 -0.99985188 -0.0062091006 0.0013325786
0.042418592 -0.22025514 0.42142731 0.034379467 -0.99932116 0.013245815 0.00047782712
0.046403021 -0.22098012 0.40236908 0.025536317 -0.99964792 0.0072053298 0.001013077
0.030632542 -0.13547824 0.64156252 0.25009161 0.052965783 0.96677238 0.035949275
0.12082406 -0.1323259 0.61628515 0.075696521 0.94195485 0.32709506 0.00020735142
0.11425706 -0.13255185 0.61845267 0.26430079 0.32099581 0.90945405 0.014779302
0.095638901 -0.13192329 0.62213832 0.25828829 0.2789222 0.92492676 0.01049923
0.083591715 -0.13458557 0.63092101 0.24330331 0.20051058 0.94899893 0.018048786
0.070371918 -0.13457049 0.63366598 0.24051043 0.191835 0.95150095 0.023137912
0.037083223 -0.13559765 0.64115226 0.24412751 0.061418626 0.96779615 0.031590968
0.10799421 -0.13080689 0.61602104 0.25018635 0.32674661 0.91139638 0.011337106
0.051203001 -0.1343132 0.63644421 0.2360214 0.10748282 0.96578532 0.026496714
0.11262545 -0.23143329 0.54178911 -0.12279266 -0.97773868 -0.17014425 0.00040100492
0.10418183 -0.2337653 0.56191266 -0.12286416 -0.97771841 -0.17020865 0.00044752995
0.052091468 -0.22162594 0.36354026 0.0064370111 -0.99996257 0.0057839793 0.0014496791
0.047428723 -0.22074504 0.38227129 0.016118975 -0.9998672 0.0024080069 0.0013110087
0.084302753 -0.21954484 0.39232194 0.015592938 -0.99974197 0.016516043 0.00075342448
0.047967341 -0.22069365 0.40504685 0.025536317 -0.99964792 0.0072053298 0.001013077
0.10280699 -0.2190211 0.38924688 0.017953226 -0.99885648 0.044310447 0.00025561138
0.061651599 -0.22031593 0.38977081 0.020979561 -0.99974585 0.0082561206 0.00092937512
0.06575387 -0.22172542 0.36829469 0.012978504 -0.9997977 0.015363002 0.0010348642
0.053062204 -0.2199177 0.34255666 -0.0078561734 -0.99996889 0.00064196938 0.0018121607
0.047971517 -0.22152272 0.37323412 0.014792052 -0.99988753 0.0024651419 0.0013776394
0.043602329 -0.22044352 0.3941887 0.024167817 -0.99968398 0.0069169323 0.0010732034
0.070209719 -0.22159888 0.34702423 0.0048710546 -0.99988008 0.014703697 0.0011138794
0.061439257 -0.22023496 0.34414601 -0.0033861811 -0.99997771 0.0057540028 0.001492349
0.073818088 -0.2209181 0.33392408 -0.0024577028 -0.99998116 0.0056279558 0.0013876684
0.073014766 -0.21838848 0.41695863 0.033368763 -0.999246 0.019848192 0.00033069844
0.14679542 -0.13164391 0.60740972 0.072917268 0.94871736 0.307601 0.00019204406
0.10291458 -0.1359313 0.62960654 0.23401698 0.44807211 0.86282533 0.0092855245
0.070295498 -0.22160448 0.35939619 0.008838444 -0.99977291 0.01939225 0.0010938855
0.091295175 -0.21801472 0.41283751 0.033002071 -0.99897546 0.030965466 0.00026231195
0.16662036 -0.13229936 0.60575664 0.24635294 0.061452914 0.96722996 0.015977461
0.15933038 -0.13110657 0.60166526 0.24629603 0.075491801 0.96625018 0.022227548
0.057802569 -0.13247564 0.63136488 0.24015099 0.19166279 0.95162642 0.024111116
0.17297229 -0.13053961 0.59576708 0.23911335 0.063522629 0.96891165 0.01072818
0.080319911 -0.21992365 0.3857756 0.018414212 -0.99967313 0.017737305 0.00084100157
0.12539662 -0.21816336 0.39486766 0.019510301 -0.99842066 0.052683938 0.00017705518
0.109163 -0.21785648 0.4069905 0.021006508 -0.99862015 0.048131239 0.00020096927
0.18119773 -0.13406007 0.60823214 0.23458624 0.06681481 0.96979642 0.011271297
0.061562188 -0.219523 0.41873261 0.036081169 -0.99919802 0.017361227 0.00036325178
0.26079941 -0.22941224 0.69718039 0.17794283 0.8537932 0.48925823 0.019506108
0.26099971 -0.22656919 0.68953085 0.17794283 0.8537932 0.48925823 0.019506108
0.17290583 -0.22145845 0.33086345 0.04152403 -0.99142987 0.1238654 0.0020030569
0.13418466 -0.13138069 0.61022705 0.076476887 0.94181556 0.32731441 0.00021762772
0.065838352 -0.22153288 0.37735873 0.016938001 -0.99979252 0.011312823 0.0010036993
0.075603902 -0.22145139 0.36367437 0.008043522 -0.99976027 0.020364199 0.00097892946
0.1799853 -0.22130509 0.3310149 0.036908258 -0.99140906 0.12548266 0.0044411262
0.13392079 -0.21812186 0.39469007 0.020490812 -0.99800903 0.059650667 0.00013514198
0.070728809 -0.21897091 0.41005406 0.031175733 -0.99937379 0.01673824 0.00036063371
0.23812674 -0.033259798 0.59347993 0.3132551 -0.11981937 0.9420799 0.056909509
0.17623238 -0.22406322 0.31139714 0.050100945 -0.98635203 0.15684223 0.0065215989
0.20050685 -0.2325995 0.28694001 0.10305354 -0.97883677 0.17680131 0.0069277948
0.18247719 -0.22377788 0.3127861 0.046299294 -0.98694891 0.15423474 0.0061378949
0.19214973 -0.22328608 0.32869413 0.039794162 -0.99147034 0.12410861 0.0042613707
0.088527896 -0.21912883 0.4012031 0.026855709 -0.99935687 0.023761364 0.00032369173
0.20994057 -0.027359679 0.60446507 0.24987659 -0.16228499 0.9545812 0.07380002
0.042884044 -0.22060128 0.41101164 0.025308933 -0.9996565 0.0068175062 0.0010794153
0.061833538 -0.21884783 0.43459782 0.047290057 -0.99846083 0.028976921 0.00026583797
0.22617675 -0.011679224 0.59365565 0.27126965 -0.22801545 0.9351052 0.10814639
0.20661473 -0.21917085 0.36647433 0.02883888 -0.99638873 0.079860732 0.00073594734
0.10415138 -0.21572804 0.42611668 0.031331923 -0.99881256 0.037306182 0.00018250098
0.14584777 -0.21692161 0.4159022 0.023229202 -0.99695408 0.074450344 9.6063552e-05
0.22246532 -0.0079405615 0.5982545 0.23326579 -0.23608612 0.94331878 0.10020374
0.30296832 -0.23354527 0.69845319 0.17783765 0.85371971 0.48942459 0.019493083
0.30143005 -0.23782167 0.70471972 0.17783765 0.85371971 0.48942459 0.019493083
0.16288224 -0.22108719 0.35841039 0.024840571 -0.99611664 0.084466241 0.00061291055
0.17011067 -0.21838309 0.38522527 0.02586781 -0.99684596 0.075026698 0.00042028041
0.23231313 -0.22050914 0.32751951 0.043143276 -0.99545002 0.084958531 0.0042198589
0.14075379 -0.13243067 0.61214387 0.076494165 0.94178683 0.32739314 0.00023998643
0.30971643 -0.21894814 0.34763208 0.038410012 -0.99923664 0.0071274866 0.002661105
0.27352199 -0.21841981 0.28637809 0.10334653 -0.98887557 0.10697951 0.011067255
0.36521548 -0.23816383 0.48676196 0.64514464 0.63354164 -0.4270986 0
0.2341508 -0.237222 0.21457779 0.17323835 -0.95096403 0.25623414 0.02769747
0.36074725 -0.22989364 0.49226612 0.64514464 0.63354164 -0.4270986 0
0.41145197 -0.23796919 0.64972234 0.60348195 -0.48450509 -0.63329643 4.3419943e-05
0.20656517 -0.23234506 0.28659511 0.10075009 -0.9802714 0.17005132 0.0067934045
0.2239943 -0.21608876 0.39449775 0.021705678 -0.9974733 0.06764476 0.00094028929
0.24214137 -0.028026715 0.58807033 0.28982931 -0.10709879 0.95106715 0.04604036
0.19025937 -0.22360055 0.30981266 0.05092632 -0.98657095 0.15519105 0.0054977909
0.19159348 -0.22285561 0.33268017 0.039794162 -0.99147034 0.12410861 0.0042613707
0.26027822 -0.22750795 0.69204956 0.17794283 0.8537932 0.48925823 0.019506108
0.19891603 -0.23066337 0.29048246 0.0953549 -0.98068023 0.17080338 0.0068030097
0.1989128 -0.029888356 0.60821432 0.072184406 -0.26528755 0.96146345 0.096573591
0.17230135 -0.2176373 0.39393327 0.025895961 -0.99701244 0.072769955 0.00037531706
0.17221434 -0.24230492 0.26261482 0.069777675 -0.97012174 0.23236805 0.011534031
0.26070392 -0.23218848 0.70460814 0.17794283 0.8537932 0.48925823 0.019506108
0.1503865 -0.21965665 0.38018 0.019683447 -0.99719411 0.072225474 0.00015823125
0.17315884 -0.13276839 0.60607183 0.23529261 0.069359913 0.9694466 0.011452585
0.30166081 -0.26665229 0.72326738 0.18234289 0.81525898 0.54963976 0.018147554
0.13026702 -0.22025238 0.37246972 0.012726462 -0.99792117 0.063177362 0.00015557904
0.1341159 -0.1320177 0.6122455 0.076476887 0.94181556 0.32731441 0.00021762772
0.11524124 -0.13551223 0.62702483 0.074575141 0.94143993 0.32883045 0.00019392306
0.14281903 -0.23778106 0.55902237 -0.12286416 -0.97771841 -0.17020865 0.00044752995
0.10788359 -0.22762935 0.52741396 -0.12279266 -0.97773868 -0.17014425 0.00040100492
0.12688446 -0.13120651 0.61151439 0.075696521 0.94195485 0.32709506 0.00020735142
0.21458358 -0.02718631 0.60102767 0.26399356 -0.14992537 0.95280099 0.070594177
0.22726312 -0.0016290479 0.58816344 0.28100923 -0.16040853 0.94620448 0.077386945
0.12058739 -0.21774286 0.42484605 0.025996938 -0.99792743 0.05886383 0.00015837142
0.14489546 -0.2169432 0.41572431 0.021674553 -0.99704909 0.073642798 9.0193149e-05
0.17186953 -0.22146444 0.32995024 0.040963523 -0.99148953 0.12357371 0.0020484577
0.22159342 -0.21619067 0.39082783 0.021737531 -0.99751985 0.066943809 0.00084265257
0.14264449 -0.21944542 0.38570964 0.018640466 -0.9975481 0.067456283 0.00013296846
0.064574234 -0.21838389 0.42778969 0.043705255 -0.99867171 0.027286159 0.00027660883
0.070858769 -0.22159684 0.36094859 0.008838444 -0.99977291 0.01939225 0.0010938855
0.17858355 -0.21664587 0.39989033 0.028858796 -0.99682945 0.074150056 0.00037979975
0.092818387 -0.21670939 0.43043819 0.035723083 -0.9988969 0.030474769 0.0001982192
0.025163179 -0.22155091 0.4291513 0.048678152 -0.99868178 0.016278598 0.00034894556
0.022021737 -0.22156072 0.36113009 -0.0020585163 -0.99999702 -0.0012860072 0.0017706781
0.11715135 -0.23758949 0.57676083 -0.12286416 -0.97771841 -0.17020865 0.00044752995
0.02822624 -0.083296925 0.62198424 0.28414392 0.073296271 0.95597583 0.038348272
0.013620868 -0.066352494 0.64640081 0.26076058 -0.0054995781 0.96538782 0.025834385
0.0075378362 -0.21826486 0.34685522 0.003610166 -0.99965876 -0.025872031 0.0017031381
-0.012272866 -0.21441975 0.33059675 0.058967479 -0.99765223 0.034826778 0.0034625723
0.025431616 -0.13164786 0.6356523 0.25008768 0.052963413 0.96677351 0.035950135
0.11263861 -0.23102173 0.53906882 -0.12279266 -0.97773868 -0.17014425 0.00040100492
0.11281362 -0.13210057 0.6174224 0.26240849 0.31653458 0.91156328 0.013329286
0.11133379 -0.13810211 0.63295114 0.072444916 0.94107747 0.33034042 0.0001876028
0.10418767 -0.23477258 0.57122612 -0.12286416 -0.97771841 -0.17020865 0.00044752995
0.098031916 -0.13717631 0.63397348 0.25892469 0.27798536 0.92503089 0.01130851
0.062162608 -0.074788637 0.62784809 0.19371761 -0.0092768762 0.98101348 0.012700317
0.071721375 -0.13919352 0.64178854 0.2405059 0.19180931 0.95150727 0.023125896
0.021558853 -0.05959091 0.63420385 0.24022898 -0.020397585 0.97050196 0.024662726
0.030608155 -0.14073962 0.6499579 0.24823673 0.04438483 0.96768206 0.039499205
0.015718026 -0.057964027 0.64346743 0.28527483 -0.024192458 0.95814037 0.028238669
0.01013743 -0.12152869 0.61457181 0.2909286 0.056774084 0.95505875 0.042815529
-0.01446281 0.07421153 0.654567 0.39638284 -0.099419355 0.91268641 0.041307565
-0.0074455608 -0.013003497 0.63956946 0.4076474 -0.074877091 0.91006428 0.052219044
-0.014917237 -0.080791362 0.66184831 0.38868135 0.057454336 0.91957915 0.026195161
0.025781913 -0.13465044 0.64116037 0.25009161 0.052965783 0.96677238 0.035949275
0.015042904 -0.063628212 0.64389032 0.26076058 -0.0054995781 0.96538782 0.025834385
0.0078204591 -0.13006657 0.63775283 0.28860462 0.056500386 0.95577979 0.03856926
-0.04710079 0.047186203 0.68788207 0.69815826 -0.077284813 0.71175987 0.045292929
-0.042855293 0.020240404 0.67634404 0.39305094 -0.174458 0.90281528 0.054318752
-0.047253467 0.027094593 0.68215275 0.51619369 -0.15191016 0.84289235 0.049844325
-0.040555205 -0.082386084 0.65994674 0.42213863 0.010126228 0.90647471 0.038725391
-0.047893059 0.00058312132 0.67906249 0.41943476 -0.46540278 0.77940673 0.061967559
-0.046427388 -0.082713149 0.66055959 0.34849259 -0.017621329 0.93714595 0.034545973
-0.01109739 -0.073996417 0.65019917 0.36710167 0.022142023 0.92991734 0.018432325
-0.052710377 -0.015832309 0.68066126 0.56859356 -0.078342065 0.81887972 0.048941847
-0.054830883 -0.034440603 0.67549491 0.61480129 -0.047915556 0.78722513 0.058947839
-0.025502009 -0.034234188 0.64281678 0.43637046 -0.060457595 0.89773369 0.052408282
-0.044061299 -0.042189341 0.64508361 0.55061364 -0.0037449466 0.83475184 0.048509207
-0.086402133 -0.054839224 0.47974682 -0.24539655 0.02340395 0.96914023 0.022528481
-0.08143612 -0.076706886 0.48798135 -0.40109634 0.023568945 0.91573256 0.024953218
-0.097491115 -0.063803539 0.47818863 -0.24175556 0.006041748 0.97031838 0.020019226
-0.070464998 -0.054271214 0.49889496 -0.40654716 0.027604841 0.91321272 0.022559797
-0.03336611 0.083899565 0.68247318 0.70865893 -0.046841942 0.70399457 0.064974949
-0.12653042 -0.06392891 0.47368473 -0.22643988 -0.0028239226 0.97402102 0.022272138
-0.14152482 -0.068210132 0.47497666 -0.23331082 -0.041739177 0.971506 0.023904698
-0.11903436 -0.096113846 0.47047392 -0.15925071 -0.43871841 0.8844012 0.018454455
-0.16006808 -0.069716312 0.47126508 -0.13268399 -0.066012576 0.9889577 0.023091991
-0.16321471 -0.065269686 0.4761124 -0.12026462 -0.05214633 0.99137139 0.022516657
-0.16365582 -0.066112928 0.47568268 -0.12026462 -0.05214633 0.99137139 0.022516657
-0.16406366 -0.07573586 0.46668777 -0.14407144 -0.084860615 0.98592198 0.026083624
-0.16283745 -0.085134961 0.45977914 0.054388456 0.45065594 -0.89103931 0.013072207
-0.16775863 -0.10111873 0.45031634 -0.15860072 -0.48976588 0.85730696 0.016349012
-0.17619334 -0.061090708 0.47575355 -0.13864936 -0.065823011 0.98815161 0.028050633
-0.1629097 -0.08299651 0.46141243 0.054388456 0.45065594 -0.89103931 0.013072207
0.22770572 -0.0053401804 0.59380376 0.27119893 -0.27083948 0.92363262 0.11384904
0.22250827 -0.0074048671 0.59832591 0.23326579 -0.23608612 0.94331878 0.10020374
0.033790559 -0.072677076 0.63911122 0.25176597 0.026129376 0.9674353 0.017360343
0.12052251 -0.23195186 0.53877598 -0.12279266 -0.97773868 -0.17014425 0.00040100492
0.065347113 -0.2189921 0.43566188 0.048371535 -0.99833387 0.031458944 0.00024590676
0.040602751 -0.22046769 0.4187865 0.028934333 -0.99950933 0.011994677 0.00060329068
0.051620159 -0.22032939 0.34275627 -0.0067482544 -0.99997723 0.00028515549 0.0019364747
0.051477425 -0.22168106 0.36517027 0.008372264 -0.99995255 0.0049680616 0.0014959704
0.024113258 -0.22147526 0.43512246 0.04864737 -0.9987058 0.014839872 0.00029089078
0.1718954 -0.13146584 0.60040873 0.23529261 0.069359913 0.9694466 0.011452585
0.05203696 -0.22035915 0.34308615 -0.0072019077 -0.99997103 0.0024754 0.0018231013
0.029341107 -0.22098725 0.44817337 0.058976177 -0.99807703 0.019080808 0.00026774014
0.024978366 -0.13236561 0.63709509 0.25008768 0.052963413 0.96677351 0.035950135
-0.0368766 0.081255034 0.69144392 0.65919119 0.031591389 0.75131148 0.050953016
0.033972509 -0.14912735 0.6627543 0.18334025 0.28496978 0.94083923 0.046256598
-0.040525764 0.08557868 0.68594658 0.70865893 -0.046841942 0.70399457 0.064974949
-0.064945571 -0.22358577 0.363828 0.078558668 -0.99548072 0.053355645 0.016272319
-0.054767609 0.091155551 0.66987455 -0.70865893 0.046841942 -0.70399457 0.064974949
0.11819262 -0.12912227 0.60726786 0.075696521 0.94195485 0.32709506 0.00020735142
0.059092265 -0.22083613 0.3530758 -0.0013996201 -0.99996752 0.0079397326 0.0014377421
0.071328714 -0.2182931 0.42057973 0.035741311 -0.99907196 0.024034984 0.00029749839
0.031285256 -0.22069363 0.35034838 -0.0063763801 -0.9999755 -0.0028758191 0.0018590774
0.030927805 -0.21232273 0.33449832 -0.01911944 -0.99934435 -0.030746745 0.002268644
0.018639345 -0.21929313 0.34791759 -0.019587537 -0.99953854 -0.023217479 0.001916828
-0.070736066 -0.066955328 0.49987322 -0.40109792 0.023569481 0.91573197 0.02495303
-0.066868201 -0.22519572 0.37487084 0.091269411 -0.9927358 0.078392938 0.014944028
-0.075207025 -0.23658772 0.39227661 0.42632586 -0.90393966 0.033754304 0.03312489
-0.067351118 -0.22212783 0.41440797 -0.65471792 0.75162423 -0.080034032 0.043736279
-0.076215677 -0.23516373 0.29140669 0.18400048 -0.98283482 0.013400306 0.025836488
-0.077840075 -0.23565798 0.3054733 0.18585084 -0.98255897 0.0061112405 0.018370923
-0.06223537 -0.22183901 0.34273741 0.078548402 -0.99548048 0.053373892 0.016261889
-0.084087446 -0.23032887 0.32888967 0.20963377 -0.97699511 -0.039169006 0.01816798
-0.07182762 -0.207084 0.41547021 -0.65471792 0.75162423 -0.080034032 0.043736279
-0.088677131 -0.23153672 0.34743443 -0.040992539 -0.99564224 0.083761998 0.025972275
-0.069473684 -0.22661328 0.37396926 0.11742982 -0.98977613 0.08095298 0.019377835
-0.089429222 -0.22770245 0.32220867 0.20963377 -0.97699511 -0.039169006 0.01816798
-0.090150267 -0.05748691 0.47550216 -0.26613647 0.010841844 0.9638744 0.018728785
-0.090717919 -0.21818884 0.2896792 0.047319103 -0.99810272 0.039393205 0.041882537
-0.08283408 -0.22870015 0.30952638 0.18585084 -0.98255897 0.0061112405 0.018370923
0.22152366 -0.0064613284 0.59913492 0.22371694 -0.26311201 0.93846834 0.10592395
0.18112834 -0.22122279 0.3279832 0.042051181 -0.99011189 0.13382845 0.0048709246
0.26283488 -0.22786584 0.69304067 0.17794283 0.8537932 0.48925823 0.019506108
0.17578776 -0.2235827 0.31543472 0.048276018 -0.98796928 0.14692226 0.0058628214
0.17457563 -0.22077617 0.35353687 0.029794788 -0.99530506 0.092087612 0.0010724736
0.17956688 -0.21890727 0.37349603 0.027231501 -0.99689192 0.073925793 0.00044110656
0.1614971 -0.22186871 0.34062332 0.018748099 -0.99540192 0.093933865 0.0010922574
0.16952577 -0.22095086 0.36103201 0.028457195 -0.99605244 0.084081575 0.00071738026
0.18245 -0.22307374 0.31655696 0.046781369 -0.98835975 0.1447636 0.0053722705
0.18805942 -0.21973623 0.35216984 0.030977074 -0.99538368 0.090838939 0.0010563293
0.33529982 -0.2417222 0.68489194 0.18728349 0.80726701 0.55968291 0.019020712
0.16370644 -0.21658394 0.41704354 0.024195135 -0.99706227 0.07267344 0.0001911857
0.28637624 -0.057526693 0.57592028 0.3072136 -0.062992744 0.94955337 0.013989402
0.28078601 -0.087984711 0.57453001 0.25319374 -0.070153207 0.96486861 0.0036497316
0.27003652 -0.11026412 0.57455391 0.24547909 -0.062773585 0.96736729 0.004579776
0.27060294 -0.046631277 0.5822137 0.34080353 -0.098554268 0.93495458 0.033199742
0.30371487 -0.023930069 0.57110649 0.32237887 -0.047196623 0.94543338 0.0097984085
0.28078938 -0.038656242 0.57719761 0.34641525 -0.10350548 0.93235344 0.035448644
0.24344343 -0.007846971 0.59016055 0.29741663 -0.23689157 0.92489225 0.10215819
0.26922402 -0.066133022 0.57441205 0.30962408 -0.083777726 0.94716108 0.020778891
0.27176076 -0.045699526 0.58454275 0.34335861 -0.09971118 0.93389642 0.033168886
0.22236589 -0.074974649 0.58758688 0.31197253 -0.096377812 0.94519013 0.023369482
0.16036305 -0.220039 0.36987805 0.018427983 -0.99707836 0.074129663 0.00029052229
0.15650912 -0.22119117 0.36115205 0.018217674 -0.99707615 0.074211508 0.00024973758
0.22115785 -0.086874463 0.59384221 0.31201473 -0.12359127 0.94200426 0.012452721
0.26333681 -0.23649086 0.71653056 0.17794283 0.8537932 0.48925823 0.019506108
0.33113471 -0.08168181 0.56625521 0.22297871 -0.074935168 0.97193891 0.0028242462
0.19934154 -0.22329114 0.32726192 0.042447407 -0.99207348 0.11827258 0.0045515494
0.24918613 -0.11091249 0.58262634 0.28259608 -0.073470935 0.95642126 0.0086593674
0.30424687 -0.24036634 0.70325166 0.17783765 0.85371971 0.48942459 0.019493083
0.24412632 -0.028395817 0.58890051 0.28982931 -0.10709879 0.95106715 0.04604036
0.23325759 -0.1020495 0.5887441 0.31562927 -0.092998542 0.94431424 0.0046435189
0.41191646 0.01517256 0.54431015 0.79999024 -0.18992865 -0.56915963 0.05574055
0.29553428 -0.21821986 0.26956028 0.071603455 -0.99317366 0.092081577 0.01197332
0.27745551 -0.21920714 0.29212818 0.10587948 -0.9880271 0.11221443 0.0093999347
0.28457132 -0.21945198 0.31647256 0.050201442 -0.99863034 0.014739444 0.0024918444
0.27362719 -0.21908948 0.29733792 0.10257176 -0.98968261 0.10003674 0.0089718401
0.27892935 -0.21887901 0.31725305 0.053584233 -0.99833405 0.021397561 0.0030170213
0.37017411 -0.2334469 0.50123864 0.64514464 0.63354164 -0.4270986 0
0.28817499 -0.21853523 0.35174969 0.032636575 -0.99907047 0.028159337 0.0022030901
0.27940735 -0.21811 0.27823505 0.10650811 -0.98873502 0.10516217 0.012984819
0.35143572 -0.2292881 0.4791007 0.64514464 0.63354164 -0.4270986 0
0.28026623 -0.2182904 0.34051675 0.037315719 -0.99876356 0.032846134 0.0020072893
0.26874119 -0.21840775 0.32091415 0.07147377 -0.99549466 0.062304884 0.0063454267
0.2713733 -0.21741126 0.27762601 0.10993836 -0.98714733 0.11598978 0.010622922
0.24993797 -0.21881013 0.293264 0.068987451 -0.99053025 0.11870392 0.0068394509
0.28613159 -0.21986613 0.31078109 0.057961702 -0.99703133 0.050684031 0.0060552303
0.29206949 -0.21828826 0.33105424 0.048611522 -0.99869597 0.015598941 0.0025755111
0.40721196 -0.23722184 0.64511883 0.60348195 -0.48450509 -0.63329643 4.3419943e-05
0.26365247 -0.21711506 0.33758417 0.030367827 -0.99869293 0.041112762 0.0018481326
0.28018367 -0.21962543 0.38031739 3.2387943e-05 -0.99940878 0.034382183 0.0016595562
0.23833908 -0.22254924 0.29591781 0.073451757 -0.98846674 0.1324324 0.0065034763
0.28837332 -0.2183893 0.34836456 0.037578676 -0.99899083 0.024600185 0.0023681968
0.26013383 -0.21711513 0.35839191 0.020279381 -0.99892604 0.041660231 0.001532061
0.3473807 -0.22640273 0.47725135 0.64514464 0.63354164 -0.4270986 0
0.24333091 -0.22058733 0.33915323 0.037200492 -0.99672049 0.071864188 0.0042183353
0.24186766 -0.21549079 0.36404625 0.020004297 -0.99842268 0.052459441 0.0010934282
0.21499167 -0.2237789 0.30114335 0.079322003 -0.98775172 0.13436744 0.0054633492
0.21060829 -0.21890019 0.35862291 0.028496098 -0.99632782 0.080739103 0.0013737601
0.29658079 -0.22994359 0.69584501 0.17783765 0.85371971 0.48942459 0.019493083
0.3530128 -0.21440542 0.33860886 0.10048842 -0.99468517 -0.022439176 0.0035041133
0.28819031 -0.2412591 0.2395561 0.15988922 -0.95668608 0.24328406 0.026387312
0.41538617 0.065860525 0.54858673 0.63578945 0.01873403 0.77163517 0.0085101482
0.28806838 -0.22253391 0.27254298 0.10331528 -0.98919314 0.10403305 0.015730144
0.23693334 -0.23604892 0.25018108 0.15050502 -0.96537799 0.21305788 0.011536197
0.38985375 0.0034304976 0.56460106 0.2220591 -0.20079671 0.95413333 0.14136052
0.2420633 -0.21700409 0.35684091 0.022961264 -0.99860978 0.047447979 0.0011036125
0.20542975 -0.21737008 0.37714165 0.02230412 -0.99728709 0.070149913 0.00068617612
0.30905122 -0.21973258 0.27087155 0.07112962 -0.99256271 0.098791599 0.011762416
0.29890287 -0.21979472 0.27591726 0.07318414 -0.99368274 0.085080452 0.011677541
0.25024462 -0.21896018 0.29511651 0.065196559 -0.99120003 0.11520322 0.006796015
0.24666162 -0.21640523 0.34571075 0.035265464 -0.99775374 0.05695508 0.002151238
0.24611369 -0.21960746 0.32594252 0.04270938 -0.99629289 0.074675374 0.0044716578
0.55173951 -0.1287632 0.50135875 0.1779553 -0.88733399 0.42540601 0.00013785489
0.33142826 -0.11653744 0.5610823 0.21175659 -0.12097731 0.96980596 0.0011308354
0.31050351 -0.21745968 0.29002908 0.058379695 -0.99594223 0.068490349 0.0087933075
0.58203644 -0.1187037 0.5096451 0.1779553 -0.88733399 0.42540601 0.00013785489
0.56994623 -0.1267802 0.49787802 0.1779553 -0.88733399 0.42540601 0.00013785489
0.27065858 -0.10895211 0.5745458 0.24547909 -0.062773585 0.96736729 0.004579776
0.27013338 -0.061067145 0.5758611 0.29969683 -0.075163595 0.95106906 0.019216672
0.26810604 -0.048329681 0.58042449 0.3372114 -0.10005728 0.93609667 0.034729701
0.26935494 -0.046023853 0.58173996 0.34080353 -0.098554268 0.93495458 0.033199742
0.2529389 -0.2224225 0.68598151 0.1343724 0.84061718 0.52469689 0.024364872
0.22195971 -0.085321374 0.59270358 0.30835119 -0.12188996 0.9434312 0.01275083
0.20086507 -0.21687466 0.38712028 0.026024161 -0.99706542 0.071994126 0.00051692891
0.22144307 -0.0053165187 0.59742683 0.21133976 -0.30226836 0.92949951 0.10838875
0.22885974 -0.21855982 0.35367325 0.028724333 -0.99714839 0.069784835 0.0017359885
0.18007588 -0.22129585 0.33186263 0.035980895 -0.99155045 0.12463195 0.0043761632
0.24047662 -0.11935847 0.58567649 0.2839089 -0.032788116 0.95829052 0.0057037864
0.23434862 -0.026603891 0.59206414 0.30035079 -0.12392572 0.94574398 0.058869272
0.16369602 -0.21671803 0.41276288 0.024162645 -0.99702746 0.073159762 0.00018507169
0.21111073 -0.028854223 0.60471922 0.24987659 -0.16228499 0.9545812 0.07380002
0.15695743 -0.13094637 0.60126591 0.2489914 0.072418891 0.96579438 0.020021982
0.14391762 -0.13024637 0.60205352 0.074963406 0.94758248 0.31059274 0.00018718613
0.17460924 -0.13254395 0.60442495 0.23637396 0.06763754 0.96930516 0.011817108
0.19450291 0.086264633 0.60060221 -0.37806654 0.92532367 0.029011717 0.042929877
0.13291819 -0.13085279 0.60893834 0.076487504 0.94180375 0.32734585 0.00021886604
0.24574724 -0.21630956 0.36163077 0.021425691 -0.99863315 0.047674973 0.0011587208
0.30474761 -0.021403236 0.57126176 0.32237887 -0.047196623 0.94543338 0.0097984085
0.15218167 -0.21817325 0.39623699 0.020443955 -0.99742222 0.068782054 0.00020319902
0.13313904 0.026258506 0.6132403 0.010973637 0.96400189 -0.2656686 0.13566409
0.1193836 -0.13081643 0.61214894 0.075696521 0.94195485 0.32709506 0.00020735142
0.1034319 -0.23398198 0.5678677 -0.12286416 -0.97771841 -0.17020865 0.00044752995
0.22098963 -0.029026877 0.59646231 0.29760957 -0.14681795 0.94333082 0.075540937
0.10679118 -0.13125341 0.61729747 0.24291821 0.33409742 0.91069734 0.011107494
0.083578989 -0.22081608 0.37530899 0.011761161 -0.99963737 0.024224732 0.00079930027
0.1982135 -0.2236995 0.32664746 0.044762976 -0.99177486 0.11991205 0.0045685228
0.2205157 -0.071575202 0.59764749 0.31684288 -0.098779999 0.94332027 0.02408159
0.11578781 0.057179749 0.62358654 0.37261495 -0.27086028 0.88757694 0.13453603
0.11713349 0.070803411 0.62419993 0.31192684 -0.049795996 0.94880027 0.020398129
0.066559434 -0.21941867 0.44098368 0.049954046 -0.99833542 0.028828111 0.00026591646
0.11568096 0.02105137 0.62063766 -0.11476642 0.91068381 -0.39684218 0.16477481
0.27298284 0.00077355257 0.58429343 0.35751799 -0.076784715 0.93074435 0.052978914
0.13262863 0.071946144 0.61503088 0.21320327 -0.098788783 0.9720006 0.021336773
0.068225585 -0.13091058 0.62705958 0.24687345 0.19630073 0.94895703 0.022732878
0.079532668 -0.22150317 0.34895641 0.0022940617 -0.99984771 0.017300248 0.00092048675
0.25864375 -0.22475867 0.68243688 0.17794283 0.8537932 0.48925823 0.019506108
0.12995727 -0.22016539 0.37633795 0.012837888 -0.99794751 0.062738016 0.00015511195
0.035643302 -0.22088113 0.41839001 0.031294808 -0.99945652 0.010358908 0.00059121812
0.030433582 -0.22092271 0.44586411 0.056603502 -0.9982295 0.018271109 0.0002572496
0.031678367 -0.22053 0.34814471 -0.0085358759 -0.99995726 -0.0035528205 0.0018917926
0.028496254 -0.13067766 0.63312632 0.256145 0.054926809 0.96507657 0.034213964
0.191594 -0.22082186 0.32902718 0.039794162 -0.99147034 0.12410861 0.0042613707
0.13365597 -0.22091612 0.33361349 0.0056586633 -0.99693352 0.078048944 0.00053275353
0.13297549 0.049063694 0.61163235 0.16186015 -0.52106941 0.83802617 0.1898938
0.087660812 -0.22128677 0.35613373 0.0032773502 -0.99964517 0.026435215 0.00073890144
0.044693738 -0.2211176 0.39751372 0.024167817 -0.99968398 0.0069169323 0.0010732034
0.046861399 -0.077137463 0.63082546 0.25234774 0.040010873 0.96680903 0.022935495
0.023897612 -0.22210285 0.40198261 0.019079566 -0.99980539 0.0050115953 0.0010676394
0.025861306 -0.2214538 0.38663781 0.0057243314 -0.99998343 -0.00069833326 0.0012460661
0.023108989 -0.22200727 0.44426882 0.055773929 -0.9983173 0.015867962 0.0002328204
0.114255 -0.23488942 0.5612095 -0.12286416 -0.97771841 -0.17020865 0.00044752995
