# .PCD v0.7 - Point Cloud Data file format
VERSION 0.7
FIELDS x y z
SIZE 4 4 4
TYPE F F F
COUNT 1 1 1
WIDTH 520
HEIGHT 1
VIEWPOINT 0 0 0 1 0 0 0
POINTS 520
DATA ascii
0.21833681 -0.2451878 0.34283391
0.27941981 -0.2285262 0.3749482
0.2207365 -0.25030291 0.2705017
0.2857511 -0.2314346 0.37065569
0.2251047 -0.2247484 0.30986229
0.22860099 -0.22451 0.40857789
0.2013915 -0.2239694 0.34131941
0.2011641 -0.22161721 0.3739337
0.184774 -0.2247248 0.31893301
0.1873185 -0.22328641 0.3376731
0.1686171 -0.223369 0.34379169
0.1689502 -0.22204889 0.36093259
0.15807889 -0.2282563 0.3527343
0.26486951 -0.2319351 0.70762622
0.227311 -0.0066707898 0.60948032
0.1442745 -0.223147 0.35364819
0.2420056 -0.0298081 0.60451788
0.1464617 -0.2227423 0.4230656
0.13124719 -0.22367761 0.35341799
0.2364329 -0.2224309 0.38760969
0.1540699 -0.2204591 0.35443941
0.26824421 -0.23196781 0.69916552
0.16908669 -0.22066461 0.39177659
0.1366373 -0.22281639 0.34838599
0.1766459 -0.1310053 0.61133212
0.2030312 -0.029354529 0.60898948
0.1503942 -0.1325548 0.61896288
0.1235398 -0.1313493 0.62219572
0.149114 -0.13209081 0.61085129
0.054168239 -0.2215483 0.42744151
0.1066695 -0.2352522 0.57414162
0.1119757 -0.2384478 0.58048773
0.031704161 -0.12934729 0.63055438
0.098153487 -0.1301512 0.62097973
0.072569743 -0.2224443 0.40841749
0.1248394 -0.23666809 0.55029678
0.1204412 -0.13343491 0.62179339
0.1245131 -0.23715439 0.55046833
0.097899787 -0.13090891 0.6215719
0.072023377 -0.1304294 0.62899101
0.1497554 -0.1314366 0.61259592
0.159668 -0.1327963 0.60993528
0.077386782 -0.2251883 0.366954
0.03397451 -0.2183354 0.45151481
0.0804011 -0.2251574 0.3494359
0.067717351 -0.2208797 0.3469449
0.029168321 -0.1333352 0.64411861
0.13502119 -0.2107686 0.79042011
0.03649601 -0.13569219 0.64270449
0.14794441 -0.13365971 0.61326063
0.03621529 -0.13513739 0.641357
0.2079919 -0.029677689 0.59578258
0.2012586 0.085465923 0.62411362
0.23523889 -0.0300991 0.59181172
0.16022719 -0.1313425 0.60503119
0.41544831 -0.2448446 0.66067731
0.26630029 -0.22013991 0.37120369
0.24742991 -0.22217681 0.36487919
0.28382629 -0.2201169 0.3884798
0.0246289 -0.2225543 0.44770989
0.01844918 -0.22473571 0.42986441
0.03042132 -0.2199508 0.4510574
0.082559086 -0.1322536 0.62522131
0.03249459 -0.2211819 0.3478809
0.02224192 -0.21700419 0.34898481
0.018964009 -0.2323395 0.3566823
0.03003695 -0.219952 0.45069161
0.0045390129 -0.22413979 0.3705669
0.042293418 -0.2187175 0.42138961
0.046314988 -0.21968929 0.40231419
0.030854581 -0.13371781 0.64250809
0.1208486 -0.13196941 0.61640668
0.1141254 -0.13437919 0.61783671
0.095630012 -0.1319972 0.62210739
0.083719783 -0.133542 0.63141161
0.070502341 -0.13327619 0.63436693
0.03705908 -0.13581841 0.64100969
0.1079594 -0.1310818 0.61590737
0.051098611 -0.13558359 0.63568252
0.112509 -0.23237351 0.54163212
0.1042968 -0.23283289 0.56206912
0.052091472 -0.2216166 0.36354059
0.04744076 -0.2203044 0.38225129
0.084299631 -0.2194764 0.39231771
0.047990419 -0.22102749 0.40505919
0.1028732 -0.2200637 0.38932639
0.0616992 -0.222578 0.38991871
0.065763019 -0.22260959 0.36829051
0.053090241 -0.2220739 0.34225121
0.047975771 -0.2223447 0.3732551
0.043597449 -0.2221792 0.3942875
0.070216902 -0.2224099 0.34701961
0.061183851 -0.2243655 0.34386709
0.073812909 -0.2198447 0.33397099
0.072901301 -0.2159566 0.4167237
0.1468059 -0.13142499 0.60746121
0.1028582 -0.1363758 0.62941748
0.070296489 -0.2218073 0.35939729
0.091178961 -0.2154613 0.41263989
0.166471 -0.1344948 0.60527313
0.1593204 -0.13135619 0.60161477
0.057820272 -0.1321698 0.63148898
0.17294499 -0.13094489 0.59567839
0.080442064 -0.22249191 0.38590199
0.125366 -0.2189838 0.39492089
0.108983 -0.2148497 0.40676281
0.1809423 -0.13694739 0.60763669
0.061580699 -0.2197887 0.41874611
0.26080379 -0.2304913 0.69677949
0.26101181 -0.2295541 0.68842179
0.1729881 -0.2236409 0.3308219
0.1341626 -0.13168751 0.61012751
0.065807842 -0.2203003 0.3773424
0.075653858 -0.22458529 0.3637026
0.1799545 -0.2209212 0.33101401
0.1339125 -0.21674819 0.39463401
0.070767343 -0.2198763 0.41011971
0.2391212 -0.03289032 0.59682667
0.17608041 -0.22066949 0.31097859
0.2005776 -0.2301791 0.2858507
0.18213651 -0.21834511 0.31203869
0.1921197 -0.22351959 0.32869929
0.088482492 -0.2179295 0.4010762
0.2067754 -0.028427809 0.59853351
0.04285226 -0.2201304 0.41099289
0.061953951 -0.2208332 0.43463999
0.2242261 -0.01202231 0.58928138
0.2066045 -0.2181928 0.3663075
0.1041056 -0.213054 0.4257926
0.145836 -0.21613801 0.4158701
0.2218338 -0.0077592628 0.59727442
0.30316129 -0.232353 0.69867998
0.30226609 -0.23418809 0.70889252
0.1629176 -0.2223724 0.3584708
0.1700065 -0.21623109 0.384996
0.2326162 -0.22237261 0.32762671
0.14066561 -0.134507 0.61160779
0.30967781 -0.21961311 0.34770569
0.27334881 -0.221074 0.28624809
0.36489359 -0.2384796 0.4869751
0.2341508 -0.237222 0.21457779
0.35713089 -0.2334412 0.49466071
0.3748098 -0.2228428 0.67875648
0.40768531 -0.23495141 0.65368152
0.2065655 -0.22914331 0.284576
0.2240162 -0.2148228 0.39444759
0.2375 -0.029758541 0.57249528
0.1902574 -0.2221645 0.30960551
0.1919141 -0.2199768 0.33263731
0.26028359 -0.2288339 0.69155687
0.1988956 -0.23095611 0.29058939
0.20306639 -0.029999159 0.61506832
0.1724612 -0.2201425 0.3941589
0.17191499 -0.2425302 0.26307011
0.26067591 -0.23158181 0.70482337
0.1425042 -0.2383672 0.2445545
0.150361 -0.2180085 0.38000321
0.1731454 -0.13298561 0.60602468
0.30166081 -0.26665229 0.72326738
0.13028391 -0.218863 0.3723453
0.1968852 -0.2430211 0.83733839
0.1341318 -0.1318001 0.61231631
0.1144803 -0.23935109 0.2007318
0.115197 -0.13612621 0.62681788
0.14308681 -0.2354036 0.55936199
0.1081085 -0.2269156 0.52751809
0.1265631 -0.1358932 0.60995138
0.2084607 -0.02888637 0.59041822
0.2276569 0.017517719 0.58969063
0.1205847 -0.2168293 0.42486501
0.14487471 -0.2155614 0.41566771
0.17193639 -0.2233125 0.32991451
0.2216533 -0.2120861 0.39071789
0.1426297 -0.22364169 0.3860997
0.064220317 -0.2110427 0.42737821
0.070880622 -0.22372331 0.36096209
0.1784132 -0.210509 0.3994742
0.093169801 -0.22291601 0.4307324
0.026087649 -0.23377819 0.4293395
0.022078371 -0.2241412 0.36092469
0.17317051 -0.25449151 0.64886677
0.1170088 -0.2389304 0.57656199
0.02806776 -0.077516139 0.61505449
0.01113992 -0.065217003 0.64352769
0.0075431801 -0.2164574 0.34756529
-0.01166852 -0.21387631 0.3297292
0.02498747 -0.1351693 0.63376093
0.112676 -0.2307201 0.53911752
0.1126867 -0.13386209 0.61682862
0.1060543 -0.078803428 0.61971182
0.111232 -0.138951 0.63261539
0.103944 -0.2357655 0.57104719
0.097889461 -0.13821919 0.63353711
0.062491968 -0.077864498 0.62785453
0.071753211 -0.1388911 0.64195591
0.030695129 -0.052238431 0.63867313
0.030926401 -0.13876089 0.65121919
0.021282559 -0.05348593 0.64618951
0.01012803 -0.1215927 0.61454731
-0.01446281 0.07421153 0.654567
-0.005418519 -0.019341219 0.64663231
-0.01448781 -0.083870754 0.66019291
0.025645601 -0.13573121 0.64057988
0.01299346 -0.063392714 0.63961381
0.0080569461 -0.12844171 0.63837618
-0.044710461 0.046750069 0.68879199
-0.045671899 0.020687999 0.67497587
-0.052205581 0.02681209 0.68283832
-0.040396359 -0.086020201 0.65952933
-0.051851802 0.0013301671 0.67886728
-0.0465695 -0.079461858 0.66093302
-0.01048411 -0.078394219 0.64783502
-0.053205371 -0.01564483 0.68066537
-0.058042672 -0.033971589 0.67459428
-0.024109161 -0.033954442 0.63597119
-0.044061299 -0.042189341 0.64508361
-0.084395319 -0.055010539 0.47808161
-0.083346121 -0.076543838 0.48956621
-0.096506298 -0.064105026 0.4765197
-0.075883053 -0.053808689 0.50339073
-0.03066426 0.091371156 0.68241358
-0.12651061 -0.063752443 0.46962541
-0.1416447 -0.068608373 0.47567999
-0.1190202 -0.096073121 0.47011179
-0.15956441 -0.074571513 0.47754949
-0.1636796 -0.05943143 0.47052091
-0.1656822 -0.071231872 0.47995481
-0.1655727 -0.07966435 0.47176459
-0.1613104 -0.081159621 0.45464179
-0.1671515 -0.1013238 0.45038331
-0.1751896 -0.0585551 0.4736374
-0.161487 -0.079292797 0.45662609
0.22652119 -0.0053603202 0.59084868
0.2204584 -0.0068163872 0.59514469
0.02846539 -0.080751359 0.63439029
0.1204605 -0.23245201 0.53869528
0.065347649 -0.21622381 0.43567729
0.04036966 -0.2176044 0.41871631
0.051634628 -0.2224461 0.34254709
0.051476989 -0.22267769 0.36513641
0.024189141 -0.222469 0.43511629
0.019386919 -0.1999397 0.78358132
0.17196541 -0.1304158 0.60064131
0.052039329 -0.2207057 0.34305191
0.02903186 -0.2178804 0.44806859
0.024732079 -0.13431831 0.63604629
-0.018972291 0.070418097 0.64912993
-0.043910019 0.083068907 0.69753933
0.033581261 -0.1515277 0.6612792
-0.040543471 0.085583247 0.6859619
-0.065212309 -0.22302 0.3638778
-0.05482072 0.091442153 0.66998768
0.1182008 -0.12899899 0.60730958
0.059371602 -0.2133747 0.35352191
0.07123974 -0.2154827 0.42029661
0.031287778 -0.2227488 0.35019621
0.03103539 -0.20322961 0.33938259
-0.02635124 -0.24584609 0.39441219
0.018268719 -0.22577059 0.34598631
-0.065264903 -0.067422383 0.4953334
-0.068017863 -0.22283401 0.37504819
-0.078653887 -0.2349572 0.39204451
-0.058138549 -0.2233903 0.4133237
-0.075304031 -0.2344254 0.29153791
-0.078363366 -0.23608179 0.30539799
-0.061900169 -0.2227674 0.3427076
-0.0830933 -0.23551971 0.3295173
-0.07182762 -0.207084 0.41547021
-0.088452883 -0.2321578 0.34741449
-0.069455102 -0.2266527 0.3739658
-0.088652417 -0.22257429 0.32220921
-0.086387374 -0.057808138 0.4723798
-0.091038443 -0.2184633 0.28965309
-0.082966194 -0.2295723 0.30952629
0.2207185 -0.0062301829 0.59788537
0.18101791 -0.2198658 0.3279815
0.26284081 -0.22933049 0.69249648
0.1757278 -0.2222283 0.315274
0.1745315 -0.2201283 0.35350439
0.1797713 -0.22155569 0.37383759
0.1615206 -0.22280151 0.34062389
0.16951691 -0.2207797 0.36102271
0.1822897 -0.2206265 0.31626871
0.18796641 -0.2186375 0.35210609
0.33530241 -0.2417161 0.68489361
0.16386861 -0.2195131 0.41713491
0.28661969 -0.0577491 0.57759678
0.28141731 -0.087801717 0.57884282
0.27154449 -0.1109597 0.5776993
0.27158219 -0.049156331 0.58700442
0.3048954 -0.02377232 0.57435662
0.27441919 0.091135994 0.59668618
0.28226811 -0.039268799 0.58159071
0.24413501 -0.0083043762 0.59232157
0.2699087 -0.065656289 0.57231569
0.27177489 -0.045650579 0.58448827
0.2311309 -0.072781831 0.58845788
0.1602336 -0.2164021 0.3694503
0.1565374 -0.2227354 0.36123511
0.22342061 -0.086004317 0.59662253
0.26333049 -0.2360737 0.71668142
0.33113441 -0.081681818 0.56625521
0.2001327 -0.2143749 0.32652879
0.24986941 -0.111312 0.58488917
0.3061173 -0.2355921 0.70840049
0.244178 -0.02839262 0.58910191
0.2315764 -0.102696 0.58667839
0.41383329 0.01552415 0.54659778
0.29588631 -0.2147947 0.27026671
0.27745989 -0.21915279 0.29213259
0.28482491 -0.2180714 0.3163563
0.27345231 -0.2217371 0.29713431
0.27846491 -0.2218177 0.31753209
0.37257969 -0.2310871 0.4996458
0.28886229 -0.21333051 0.35154209
0.27955481 -0.2165529 0.2783559
0.35125029 -0.22947 0.47922349
0.28040761 -0.2169922 0.34051749
0.26888111 -0.2160611 0.32069349
0.2710866 -0.2212442 0.27714351
0.24992789 -0.21692561 0.29339901
0.28652421 -0.21676309 0.31070191
0.29282609 -0.21338931 0.3300685
0.4081037 -0.2379363 0.64418149
0.2634365 -0.2126011 0.3372077
0.27988091 -0.2149196 0.38137749
0.2380994 -0.22062241 0.2960532
0.28869319 -0.216031 0.34826311
0.2601825 -0.2123283 0.35890701
0.3490988 -0.2247173 0.47611371
0.24248791 -0.21758801 0.3385115
0.24169751 -0.21335851 0.36393279
0.21479779 -0.22033221 0.30065569
0.2608842 -0.2410945 0.47001681
0.21057419 -0.2164378 0.35836649
0.29661289 -0.2266161 0.69687349
0.3531028 -0.2147252 0.33848569
0.28819031 -0.2412591 0.2395561
0.41539139 0.065867826 0.54858577
0.2885038 -0.21896049 0.27182671
0.2423303 -0.2405818 0.25042909
0.2236941 -0.228985 0.2135594
0.39016289 0.003487203 0.56497002
0.2419792 -0.2165553 0.3567749
0.2053878 -0.2163437 0.37709069
0.3087112 -0.2231265 0.2701135
0.29887921 -0.2202317 0.2758919
0.29957771 -0.2433752 0.2274646
0.25023451 -0.2184501 0.29514599
0.2465006 -0.2147529 0.34564
0.24545451 -0.2151951 0.32564461
0.55133528 -0.1267492 0.50039172
0.3314364 -0.1165373 0.56108189
0.3109619 -0.2228474 0.2897757
0.58190203 -0.1180339 0.50932348
0.57002258 -0.1271605 0.49806061
0.26914081 -0.108252 0.57138002
0.2701607 -0.06104812 0.57577741
0.26841429 -0.046827849 0.57787561
0.27008179 -0.043524601 0.57740122
0.2534954 -0.2214043 0.6862061
0.22264551 -0.085057653 0.59354621
0.20080251 -0.2135511 0.38699731
0.21934479 -0.0052641411 0.59383321
0.228534 -0.2154378 0.35337031
0.17995501 -0.219789 0.33185911
0.2405089 -0.1193634 0.58576101
0.23187301 -0.02728728 0.58390749
0.16366769 -0.2162063 0.41274691
0.2245976 0.08736714 0.58302528
0.20902941 -0.029435311 0.60129392
0.1570221 -0.12974741 0.6014877
0.1439773 -0.1289995 0.60234678
0.1746258 -0.1322981 0.60447872
0.19450291 0.086264633 0.60060221
0.1329678 -0.1301689 0.60916042
0.24577899 -0.2201153 0.36169481
0.3032212 -0.021768689 0.56703508
0.15218601 -0.2183944 0.396254
0.1324615 0.02625843 0.61143839
0.1194103 -0.1304296 0.61228091
0.1032558 -0.23469961 0.56773841
0.2228478 -0.029332999 0.60069859
0.1068457 -0.1308312 0.61746788
0.083533503 -0.21943051 0.37526241
0.19866639 -0.2196552 0.32647979
0.2188534 -0.071991071 0.59748232
0.1160361 0.05715932 0.6239574
0.1159965 0.071257733 0.62233508
0.06655024 -0.220035 0.44096479
0.1164607 0.021018511 0.6220898
0.27235511 0.01493675 0.58406281
0.1333245 0.071668088 0.61617219
0.068274103 -0.1304307 0.62731141
0.07951957 -0.2203576 0.34896809
0.25847599 -0.2250656 0.68236917
0.1299589 -0.2203051 0.3763577
0.035190981 -0.21532489 0.41825381
0.029910419 -0.2168397 0.44571641
0.0316795 -0.2214527 0.3480764
0.02859107 -0.12992591 0.63353008
0.1914444 -0.21782731 0.32892221
0.13375311 -0.2195213 0.33364189
0.1312025 0.049209569 0.60898411
0.08765018 -0.2206924 0.35612789
0.044923641 -0.22524209 0.397724
0.051064279 -0.071435153 0.63394028
0.023368349 -0.21515431 0.40218711
0.025808269 -0.2191646 0.38653439
0.022863541 -0.2205897 0.4442108
0.1146067 -0.2320372 0.56168813
0.017253799 -0.223161 0.42473331
0.01280717 -0.1359864 0.64615631
0.2160147 -0.2180157 0.35684049
0.26868829 0.089399353 0.57789838
0.26764211 -0.065974779 0.57168478
0.1650456 -0.22422969 0.34117079
0.1734605 0.019222081 0.60854638
0.078769818 -0.2226868 0.4035455
0.025909729 0.0196304 0.65667289
0.0136734 -0.22367661 0.407673
0.01161737 -0.2210478 0.3733969
0.33102289 -0.1160889 0.56017739
0.2240992 -0.2155647 0.3966158
0.2246518 -0.2158118 0.39686409
0.33139509 -0.1161557 0.56114668
0.22420789 -0.2154486 0.3966172
0.2186905 -0.0047805761 0.59053522
0.32834941 -0.001288757 0.56047517
0.22407059 -0.2152089 0.39623249
0.2186587 -0.0046699489 0.58907479
0.2204352 -0.08150138 0.58181387
0.41225061 0.067116871 0.54155552
0.331761 -0.1160342 0.56007379
0.27934811 -0.085296847 0.57089812
0.1639165 -0.2162623 0.41281679
0.4165718 -0.2446319 0.66011351
0.41127199 0.016486639 0.54147059
0.3052097 -0.21460301 0.373835
0.30465201 -0.2144669 0.3728894
0.16372541 -0.216934 0.4132379
0.4152379 -0.2421352 0.65478313
0.2233343 -0.2145189 0.3948276
0.41135541 0.067577057 0.53977883
0.33128291 -0.11552 0.55810767
0.1637187 -0.2168337 0.41309211
0.41155249 0.067491807 0.53982788
0.3038843 -0.21378221 0.3722637
0.4144893 -0.24152941 0.65358841
0.33119851 -0.115673 0.55807757
0.2214136 -0.081951253 0.58245587
0.16324259 -0.2156266 0.4113059
0.21881969 -0.0048338142 0.58885157
0.223709 -0.2154647 0.39585659
0.55800557 -0.12846901 0.50544888
0.42155579 0.061004989 0.54530889
0.3423934 -0.21081831 0.31111819
0.35740829 -0.2110797 0.33278221
0.3274999 -0.21352769 0.3229399
0.25539261 -0.2099061 0.2720947
0.27111381 -0.220394 0.29607829
0.27535889 -0.21368781 0.27653849
0.2987608 -0.2304527 0.32612601
0.27513799 -0.22266001 0.28883839
0.29221749 -0.2268727 0.32704929
0.41289851 -0.24029221 0.651694
0.41204011 -0.239362 0.64961427
0.1121478 -0.2320057 0.54372942
0.2510975 -0.2173675 0.66774237
0.1141562 -0.1331099 0.61875999
0.1628494 -0.2155634 0.412429
0.42724141 -0.2382521 0.66391551
0.25768471 -0.21171179 0.38219091
0.077600487 -0.24058519 0.29309151
0.09614259 -0.1343151 0.62965262
0.32186711 -0.2258164 0.34370881
0.0095545175 -0.2372642 0.20823079
0.1626181 -0.2156664 0.41186991
0.0062641031 -0.2442922 0.227474
0.25547811 -0.23500989 0.45733669
0.4116202 -0.2392309 0.64969093
0.088182233 -0.2393683 0.28902301
0.1941175 -0.2263106 0.28605381
0.20890211 -0.02969948 0.60197598
0.26152521 -0.2267573 0.69468367
0.34721139 -0.2048866 0.31801569
0.034959719 -0.2251367 0.45019761
0.222681 -0.24235161 0.32223701
0.41145441 -0.2391832 0.64888608
0.27815899 -0.2035999 0.35922369
0.21667279 -0.2157355 0.41255561
0.29935679 -0.22738311 0.68902391
0.2195895 -0.20892569 0.38592219
0.131623 -0.2154824 0.3955836
0.24327751 -0.2186096 0.3614412
0.007072289 -0.1307274 0.64358437
0.02913795 -0.084264047 0.65745062
0.032639101 -0.22094759 0.81187278
-0.01235904 -0.080502152 0.66905862
0.17119589 -0.1312582 0.60247111
0.1043211 -0.23780251 0.58522618
0.029518509 -0.2193436 0.4533087
0.2474189 -0.028359359 0.6327253
0.2374136 -0.0060050301 0.62917322
0.2094669 0.087931119 0.6580745
0.063126206 -0.2172256 0.36083251
0.051970121 -0.2272132 0.35532969
0.021564839 -0.2216229 0.3588416
0.13372201 -0.13134339 0.61301982
0.2248089 -0.2168261 0.37795949
0.41977969 -0.2344787 0.65543652
0.081688426 -0.2204518 0.36097059
0.060311358 -0.21923061 0.42210901
0.081261717 -0.2210445 0.3608681
0.05998148 -0.2186465 0.4207193
0.059669189 -0.21838 0.41997999
0.059833411 -0.21864709 0.4198702
0.023127509 -0.2212996 0.4492695
0.059553951 -0.2180585 0.41897479
0.16004179 -0.2201339 0.3381249
