# .PCD v0.7 - Point Cloud Data file format
VERSION 0.7
FIELDS x y z
SIZE 4 4 4
TYPE F F F
COUNT 1 1 1
WIDTH 1421
HEIGHT 1
VIEWPOINT 0 0 0 1 0 0 0
POINTS 1421
DATA ascii
-0.068736672 -0.1917063 1.196627
-0.094257534 -0.2050501 1.17182
-0.23308019 -0.065065823 0.93589753
-0.25294831 -0.079826042 0.92422563
-0.108889 -0.1275107 1.116312
-0.092044771 -0.2099511 1.173384
-0.1384747 -0.2149173 1.110315
-0.19269571 -0.13364039 1.023087
-0.14811219 -0.27435669 1.123373
-0.1327364 -0.2014572 1.103104
-0.085717984 -0.1983514 1.1717499
-0.0122928 -0.1724513 1.2402101
-0.20798071 -0.1449054 1.008199
-0.28922421 -0.2277784 0.9226113
-0.2527895 -0.1095968 0.90274942
-0.02434719 0.043138761 0.81458271
-0.1439694 -0.27770731 1.110446
-0.19248331 -0.2205897 1.039138
-0.26985511 -0.2799581 0.9530468
-0.1974657 -0.19859269 1.040534
-0.2395225 -0.26896951 0.98982757
-0.2397155 -0.096553937 0.94216979
-0.055077791 -0.1254506 1.073687
-0.1872129 -0.1956989 1.042173
0.062382761 0.0432312 0.91717672
-0.032345239 -0.1017251 1.067067
-0.041010261 -0.076850884 1.197067
-0.069790237 -0.1170145 1.029135
-0.2472185 -0.30498269 0.8418076
-0.1608804 -0.051944569 0.95805478
-0.24115521 -0.031495761 0.93451792
-0.1066656 -0.1240696 1.043128
-0.020559009 -0.05885835 1.051254
-0.0152896 -0.062693372 1.201264
-0.045757771 -0.2032567 1.229319
-0.18622109 -0.1324684 1.024598
-0.097337663 0.01087864 1.106948
-0.1267451 -0.1247503 1.006959
-0.00060290098 -0.1210335 1.233148
-0.13683151 -0.28219119 1.126868
-0.038533691 -0.069500133 1.174035
-0.26466909 -0.2668007 0.95541859
-0.041665789 -0.086476728 1.171178
-0.05496347 -0.28599799 1.227142
-0.02908105 -0.072248593 1.209013
-0.04223514 -0.072271392 1.1861269
-0.095994771 -0.28795749 1.195436
-0.001507223 -0.07427372 1.223737
-0.01951259 -0.1654509 1.22952
-0.2034917 -0.27422109 1.037518
-0.2130271 -0.15655179 1.004923
-0.28922841 -0.2667014 0.89846998
-0.04570001 -0.23348939 1.222883
-0.1316205 -0.2369895 1.119949
-0.1597012 -0.2306986 1.085393
-0.026352519 -0.3022761 1.2692961
-0.13278881 0.022527279 1.066782
-0.2355556 -0.3073208 1.012465
-0.091522992 -0.28330049 1.186769
-0.056271791 -0.2385335 1.219961
-0.01923484 -0.20571721 1.230338
-0.001915991 -0.30716449 1.2781399
-0.0036146641 -0.32564971 1.332069
-0.05336732 -0.2813209 1.228227
-0.090507329 -0.26086369 1.189237
-0.079185493 -0.2646634 1.198603
-0.14316431 -0.2696197 1.103991
-0.1350884 -0.28875151 1.138636
-0.1998152 -0.1978697 1.028823
-0.062506139 -0.14582381 1.183581
-0.26181549 -0.075391129 0.91055679
-0.17476919 -0.2078048 1.072814
-0.25887489 -0.07074672 0.91259551
-0.04028153 -0.1046902 0.99271458
-0.29032159 -0.24490181 0.90605313
-0.15980519 -0.068234459 0.95814931
-0.24128281 -0.30729121 0.84056997
-0.2341764 -0.044342149 0.94837493
-0.098971933 -0.31503531 0.73507261
-0.2743437 -0.17526101 0.9010753
-0.1713455 -0.19070651 1.059736
-0.18608031 -0.304171 0.79663438
-0.060968641 0.01331609 1.161721
-0.1528811 -0.2382918 1.091095
-0.01499772 -0.22668619 1.235386
-0.0044689178 -0.1570396 1.235513
-0.1049683 -0.1228916 0.99697512
-0.03051251 -0.11873 1.2156889
-0.02519518 -0.25432801 1.2465709
0.04003549 0.04116172 0.84235758
-0.070889123 -0.29527381 0.7073189
-0.0177995 -0.1213664 0.71708387
-0.1238722 -0.1165421 1.031124
-0.1028495 -0.30178779 1.161137
-0.1036591 0.037227679 0.88837671
-0.098981559 0.02303909 1.099965
-0.044769529 -0.2751244 1.245873
-0.032646239 -0.18172809 0.69783241
-0.26582471 -0.126279 0.91805297
-0.1841666 -0.20788801 1.045679
-0.29807541 -0.28619471 0.90649521
-0.031661209 -0.115942 1.1893851
-0.25210869 -0.109625 0.90791869
-0.28545049 -0.26253131 0.88685131
-0.29315391 -0.29193649 0.91401953
-0.27125731 -0.1629615 0.89450651
-0.27252939 -0.14746951 0.90523762
-0.2339678 -0.3008087 1.009535
-0.2406279 -0.2970497 0.99882913
-0.247941 -0.2885026 0.98814982
-0.2255117 -0.1558079 0.983693
-0.2328075 -0.005800501 0.89137352
-0.25364691 -0.1366909 0.88497442
-0.069539428 -0.2194542 0.72012538
-0.1386608 -0.13731509 0.78347218
-0.2113224 0.01852813 0.86825848
-0.21006811 -0.25404629 0.83126467
-0.21762601 -0.2085769 0.83617657
-0.1094143 0.020325679 0.80466658
-0.087466687 0.0096777231 0.76546317
-0.061034441 -0.30265969 0.69778591
-0.25869501 -0.27992439 0.8687951
-0.1715398 0.0055604279 0.85040182
-0.2013766 0.01617239 0.87688088
-0.1856427 0.0077402741 0.86080438
-0.087049477 -0.2210805 0.7272374
-0.042995229 -0.1426501 0.70072752
-0.1240088 -0.1240253 0.87037623
-0.24526981 -0.16793381 0.86908549
-0.054944891 -0.2449744 0.70924008
-0.14931209 -0.1400875 0.80079079
0.0104596 -0.093076989 0.73937851
-0.01411739 0.01868628 0.71704459
-0.03957757 -0.27440551 0.67835683
-0.084108323 -0.231648 0.73684102
-0.01717685 -0.124378 0.74892759
-0.1741285 -0.204403 0.80668932
-0.02981603 -0.2789863 0.66359359
-0.2404974 -0.1530235 0.86615849
-0.075380087 -0.1302688 0.7843408
-0.183395 -0.20733739 0.82047141
-0.01128685 -0.1289057 0.81992948
0.018176259 -0.055532109 0.69865751
-0.25402281 -0.31241021 0.85143298
-0.2036624 -0.2176502 0.83815348
-0.04315168 -0.1243272 0.81114262
-0.031485021 0.018574189 0.73222703
-0.1934903 -0.31406689 0.80505693
-0.1216413 -0.2150829 0.77454323
-0.2539691 -0.2275387 0.87357157
-0.066634238 -0.13523661 0.747576
-0.1069791 0.01751785 0.80184478
-0.1320699 -0.26253381 0.77694422
-0.2021163 -0.2244007 0.80862772
-0.21054579 -0.235745 0.83303517
-0.058582369 -0.1310226 0.82984549
-0.1002438 -0.282455 0.72476047
-0.068415701 -0.13445 0.82387131
-0.02716032 -0.30637589 0.65865242
0.0088089705 -0.26369911 0.6576674
-0.2213043 -0.17213871 0.84727007
-0.086178184 -0.13796911 0.78720689
-0.21806601 -0.24442761 0.83112669
0.0029615459 -0.092735723 0.81952709
-0.26732489 -0.2610338 0.87885141
-0.0140422 0.005400985 0.71485949
-0.1341643 -0.1318744 0.86297041
-0.064936072 -0.14321069 0.74745202
-0.1040279 -0.22885551 0.75472939
0.029210901 -0.1040837 0.67857689
-0.073854357 -0.00142248 0.77132869
-0.06621927 -0.2295236 0.72644109
-0.043862939 -0.1245422 0.86658287
0.01085511 -0.024273681 0.73007393
-0.1515812 0.032368992 0.94356281
-0.19230971 -0.02352388 0.88013059
-0.095098317 -0.2340816 0.75527048
-0.01319355 -0.12802149 0.81134999
-0.025097551 -0.064978167 0.88788491
-0.032280412 -0.1272158 0.75469363
-0.061492 -0.1321916 0.77616972
0.0075108111 -0.070906058 0.77354079
0.027128341 -0.079750016 0.77680779
-0.04250196 -0.1644177 0.71215492
-0.0082826316 -0.1616419 0.69025159
0.02667623 -0.1135375 0.67139697
0.01745568 -0.02490567 0.69881189
-0.1020976 -0.31011641 0.73398888
0.01020905 -0.057284851 0.77483737
-0.057621751 -0.1396201 0.7301327
-0.146752 -0.074510172 0.88834822
0.0040744538 0.0055418462 0.70935059
0.02353093 -0.05635028 0.69130492
-0.027725279 -0.127683 0.82314372
0.03032345 -0.14043491 0.66563803
0.01133418 -0.13056789 0.72160959
-0.27750641 -0.1847457 0.91199368
-0.07039839 -0.20810629 0.74092573
-0.089127213 -0.12866481 0.82459491
-0.073949777 -0.1030632 0.89622462
-0.12602361 -0.25796339 0.77435338
-0.25714421 -0.31351361 0.85878879
-0.06135726 -0.063494883 0.90369958
-0.2325784 -0.19294091 0.85942727
-0.18728369 -0.20375779 0.80339289
-0.067526117 0.00031940639 0.77024788
-0.04774249 -0.26588029 0.70661873
-0.1148265 -0.1274623 0.80717713
0.01443218 -0.094265953 0.68510479
0.037272241 -0.092350021 0.68066019
-0.1489564 -0.2130077 0.77825642
-0.05934545 -0.25261959 0.72117728
-0.045614298 -0.1477471 0.72040719
-0.01055602 -0.1010561 0.83974981
-0.0030198989 -0.1062215 0.7983014
0.0023317931 -0.1560808 0.6821171
-0.046829879 0.028200479 0.79849923
0.0003833473 -0.089356847 0.79702228
0.026389441 -0.059734389 0.68876922
-0.095130026 -0.1351269 0.79903817
-0.093965709 -0.086705223 0.89816028
-0.0446718 -0.1683881 0.71661782
0.070634194 -0.1691234 0.65917039
-0.048590422 -0.088769779 0.89771467
-0.1134075 -0.096827827 0.90283412
-0.088255882 -0.2854481 0.7232883
-0.1178886 -0.1403688 0.77900571
-0.087012202 0.027291009 0.80759889
-0.1990778 -0.2138444 0.82876658
-0.1086025 -0.2108375 0.76297069
-0.086911753 -0.077293627 0.90545613
-0.1379506 -0.080743089 0.9048053
0.033441812 -0.1146105 0.67584997
-0.070822269 -0.05910413 0.90560973
-0.1801585 -0.100003 0.88844663
-0.1211423 0.029549699 0.8220405
0.01529446 -0.052661259 0.70313889
0.032285631 -0.06067114 0.67958337
0.01444882 -0.1529945 0.67490017
0.0086425841 -0.17844211 0.67256999
-0.053914521 -0.135837 0.74587423
-0.2154984 -0.2790221 0.83012682
-0.252312 -0.2817167 0.86540413
-0.089190193 -0.20736431 0.74783969
0.0083993971 -0.025224309 0.73237002
0.1146669 0.035644408 0.87183851
-0.053211059 -0.30119669 0.69738442
0.040380869 -0.22225229 0.63880712
0.073697694 -0.3233178 0.63094831
-0.17563009 -0.24881481 0.80842233
0.01991302 -0.071623817 0.74357951
-0.025277119 -0.25618869 0.69415551
0.034319699 -0.09734197 0.6806888
-0.03322744 -0.1277169 0.8481757
-0.26361361 -0.1109865 0.91673368
-0.18496279 -0.3211163 0.79948461
-0.25069821 -0.2129294 0.88357103
-0.16556241 -0.30884141 0.7887944
-0.24148791 -0.2427849 0.86123902
-0.09914124 -0.1220932 0.89791453
0.01320639 -0.083499447 0.7265498
-0.1116971 -0.25394639 0.75690579
0.05270654 -0.086038344 0.67234159
-0.27846211 -0.29959631 0.88412452
-0.095198929 0.01158358 0.79456598
-0.0062634051 -0.1109082 0.7591961
0.001742154 -0.073852323 0.79219651
-0.084624171 -0.2281706 0.73943919
-0.074759871 -0.133102 0.7574451
0.01188791 -0.088793829 0.73521662
-0.27976781 -0.2057226 0.9071703
-0.1143149 -0.1371794 0.85757822
-0.1036991 -0.27132711 0.72896898
-0.172949 -0.31167361 0.79817092
-0.067935802 -0.2551426 0.71763599
-0.1815577 -0.13097499 0.86687171
0.057940722 -0.0075588818 0.68911302
-0.088172168 0.03340584 0.81678993
-0.2331212 -0.25399581 0.8537339
0.044553012 -0.2310012 0.63186252
-0.1785859 -0.1660088 0.82391161
-0.2351056 -0.1910259 0.85923392
0.021787699 -0.25910071 0.65087962
-0.070176959 -0.16325121 0.74009031
0.0045678909 -0.27652571 0.66332728
-0.01135965 -0.26347461 0.6766789
0.02244702 -0.1520983 0.66292942
-0.077355273 -0.20513789 0.73757732
-0.027922479 -0.2437945 0.69429982
0.28256789 -0.32267091 0.88117927
0.063273191 -0.2008224 0.64948052
0.080274433 -0.31016901 0.63748932
0.064084589 -0.19920219 0.65250582
0.071660943 -0.17103469 0.66328722
-0.02814531 -0.0559857 0.88322347
-0.2794798 -0.25693211 0.87258679
-0.1374694 -0.26331189 0.78336132
-0.088902406 -0.26331699 0.74499029
0.02728641 -0.1355217 0.66282558
-0.1083109 -0.26453051 0.76171547
0.0074222982 -0.30380669 0.64154297
0.0088484287 -0.23005991 0.67227781
-0.2288737 -0.27554911 0.82278901
0.0046050549 -0.051854629 0.78877461
-0.079862863 -0.1353247 0.88261831
0.002431273 -0.13535181 0.72947031
-0.192166 -0.1752615 0.83470988
-0.2272276 -0.1523681 0.84473503
0.028920891 -0.1807204 0.65686232
-0.02993625 -0.2152169 0.69717652
-0.062868707 -0.1974462 0.72584063
-0.01561707 -0.1470467 0.68819302
-0.030019069 -0.19750489 0.69688213
-0.045555621 -0.132737 0.73239022
-0.1070067 -0.24627499 0.76104909
0.0031382439 0.030931801 1.134903
-0.1816027 -0.2602708 0.81359547
-0.1626282 -0.1290631 0.80187112
-0.1927503 -0.2651259 0.82885718
0.04128122 -0.075258844 0.68234283
-0.025484029 -0.1682287 0.72099358
-0.1999473 -0.16368841 0.83788478
-0.1076466 -0.211426 0.76087952
0.028756229 -0.20280521 0.64805478
-0.1248011 -0.081006333 0.90158361
-0.067169763 -0.1970924 0.73167819
-0.01596481 0.01518922 0.73570782
0.02375385 -0.27704391 0.65644687
-0.05291843 -0.1271722 0.80223072
-0.023464231 -0.1340992 0.73235232
0.0047512348 -0.1313601 0.74611151
0.05503482 -0.1052712 0.6707899
-0.046291862 -0.28495401 0.70231253
-0.2671569 -0.1950677 0.88806999
-0.101235 -0.1253176 0.85528511
-0.2475097 -0.055983528 0.93319827
-0.24696641 -0.2058817 0.87027782
0.05382359 -0.062623553 0.67795062
-0.1347834 -0.25185579 0.78451341
0.1030147 -0.3111234 0.63998002
-0.1331756 -0.1325804 0.86808687
-0.1358189 -0.1015347 0.89247459
-0.024495721 -0.25940761 0.68552989
0.03790075 -0.14772061 0.64872551
-0.1581969 -0.32499301 0.78422809
-0.2876229 -0.31511211 0.89007503
-0.0071228151 -0.1426176 0.75709188
0.022778541 -0.30278689 0.66166538
0.05927816 -0.28904331 0.6357621
0.059425529 -0.0091363639 0.69176579
0.034488171 -0.2025526 0.65623158
-0.1140715 -0.1806992 0.78621233
-0.12839881 -0.24755231 0.77965182
-0.2244146 -0.1175421 0.89320451
-0.099213719 -0.2119557 0.76168448
0.058257971 -0.2235596 0.64079899
0.070861757 -0.19633611 0.65566659
0.054520428 -0.2196326 0.64973778
0.092891507 -0.1452345 0.67344987
0.044519689 -0.31516871 0.63074392
0.040054619 -0.2270651 0.6431219
0.1870546 -0.3284454 0.70498961
0.045584109 -0.2759029 0.64253563
-0.15094221 -0.263156 0.79123181
-0.1175448 -0.2462265 0.76932329
0.2045363 -0.03698428 0.93528372
0.1955684 -0.071288392 0.9326371
0.214403 -0.056868121 0.93648279
0.19304951 -0.25350961 0.80119199
0.1483365 0.01113726 0.81297147
0.1987341 0.0096278638 0.86894637
0.2422082 -0.1459357 0.88403928
0.164019 -0.027390679 0.93411958
0.077699482 0.01567075 0.72511739
0.068692647 -0.078331508 0.89630878
0.063690133 -0.052320331 0.90440029
0.082736969 0.01610237 0.72340488
0.2536228 -0.2091715 0.8833788
0.2223471 0.002862226 0.90608609
0.2051122 -0.06698975 0.92740178
0.28685829 -0.1513896 0.93202311
0.27406991 -0.1844703 0.92018968
0.27336961 -0.197184 0.92387211
0.1983853 -0.087895267 0.90934533
0.067037463 -0.052829031 0.89887708
0.01056439 0.02772883 0.7957564
0.25974819 0.036385238 0.95987558
0.25477251 0.03189598 0.9658221
0.29818559 -0.2197572 0.91659272
0.082784593 0.003708825 0.72460008
0.067810804 -0.1223806 0.78858382
0.25375089 -0.3059192 0.86047602
0.1079286 -0.1934644 0.70497203
0.2825878 -0.1811455 0.91970521
0.205222 -0.2820541 0.80503649
0.1978198 -0.31420639 0.77749991
0.14087979 0.0051422119 0.78970581
0.1002296 -0.139898 0.74304438
0.2687729 -0.1489201 0.92250758
0.1600448 0.001986787 0.81712967
0.23684409 -0.13912781 0.93531251
0.199535 -0.1704022 0.8209222
0.2393713 -0.1745005 0.87161863
0.1416745 -0.1645042 0.74261302
0.1171261 -0.1400132 0.73922241
0.1683816 -0.13547321 0.85983467
0.18633839 -0.2027324 0.79783392
0.1050802 -0.1437699 0.72838217
0.1138896 -0.1386539 0.80910927
0.1737258 -0.1401594 0.88240331
0.1892612 -0.2039165 0.80116081
0.1703465 -0.1421459 0.81653589
0.15199099 -0.1451512 0.78996301
0.1242427 0.0084286928 0.76956689
0.1649688 -0.13532729 0.86282611
0.2947039 -0.139295 0.9620775
0.1781171 -0.23805159 0.78299731
0.1253995 -0.1485593 0.73085833
0.1051762 0.024043771 0.92352599
0.067138813 -0.17490239 0.6495688
0.2438757 0.01379469 0.92717391
0.213792 0.024261881 0.98785841
0.1160256 0.020803239 0.87059933
0.2467543 -0.20402551 0.87652141
0.1159776 -0.1404663 0.80888718
0.1172489 -0.1452723 0.74578452
0.100818 0.02575673 0.86602342
0.1069889 0.02158338 0.86991131
0.1160065 0.02361582 0.83999282
0.1139462 0.0206438 0.84114981
0.3092998 -0.2082461 0.95686603
0.28896359 -0.32213351 0.87245017
0.138714 0.021809461 0.90911019
0.1213713 0.025636001 0.92471892
0.1124028 0.022417801 0.840886
0.1247289 0.0246098 0.92343909
0.1293221 0.018601861 0.90894562
0.074999548 0.020703459 0.72722071
0.1938159 0.02405104 0.95834869
0.1172555 0.020544229 0.90437871
0.1410857 0.022874709 0.83631122
0.033487082 0.02551591 0.80918711
0.03405368 0.02652842 0.82025808
0.0053930278 0.025419829 0.77484661
0.098517723 0.026419541 0.80923641
0.035244878 0.023813769 0.79285532
0.1407709 0.023699099 0.8278771
0.092002928 0.02786864 0.96309108
0.056406021 0.035301149 0.92155927
0.0462212 0.02031986 0.6879375
-0.082213879 -0.1429857 0.77976978
-0.1050764 0.024434891 0.93373168
0.20952889 0.02959628 0.98985648
-0.01133013 0.027016429 0.86011642
-0.1367342 0.027966291 0.92375219
-0.1151806 0.028784569 0.89859551
-0.02162528 0.020323191 0.84278369
-0.092105873 0.02968243 0.883376
0.049321119 0.02929878 0.88161677
0.037535429 0.029720601 0.78368253
0.2269959 0.028339401 1.014673
0.1756846 0.027237469 0.95615059
-0.048496541 0.021083981 0.81038982
-0.1038765 0.02809641 0.9377743
-0.1032732 0.01410709 0.80186439
0.1056034 0.03044872 1.04291
-0.07765907 0.023890911 0.95231253
-0.090623617 0.0250262 1.043094
-0.18860421 0.019324571 0.98062992
0.042978112 0.02296832 0.72796452
-0.0078803897 0.025732649 1.0505461
-0.056951638 0.02402295 1.0349309
0.1226008 0.0304658 0.89895618
-0.18907809 0.01910672 0.87174708
-0.012609 0.029711541 1.11094
-0.206063 0.02360454 0.91120899
-0.00268048 0.021013711 1.0042109
-0.0021193619 0.02738677 0.99992073
0.07076019 0.029992821 0.80418998
-0.2208997 -0.06699197 0.93569177
-0.158255 0.02069078 0.88975781
-0.01064622 0.02770042 0.94487381
-0.084967762 0.02808262 1.046504
0.13243 0.033118639 1.075821
0.1341414 0.02302289 0.92314768
-0.084513128 0.02806559 1.051491
-0.05346638 0.02423203 1.0393521
-0.0054980521 0.02492745 1.0797909
-0.1913209 0.0075303018 0.96438187
-0.1792163 0.0060060769 0.98763299
-0.094719917 -0.2858403 1.1619101
-0.1018665 0.0076890141 1.088868
-0.1000159 0.0079054981 1.087694
-0.1006253 -0.26955831 1.1715651
-0.095000833 -0.227714 1.152943
-0.2003679 -0.28744629 1.0296201
-0.14893091 -0.30862951 1.0994821
-0.1062486 -0.21624041 1.152422
-0.1922662 -0.2867673 1.036646
-0.19698229 -0.27154741 1.026577
-0.1493611 -0.31515461 1.10656
0.019581741 0.02763903 0.7804302
-0.01443505 0.02503407 1.053246
-0.1010486 -0.28463519 1.168802
-0.01157808 0.023530159 1.077922
-0.20049679 0.020228099 0.95614427
-0.093044162 0.027205911 1.043443
-0.004679203 0.028738741 1.073519
-0.1894075 -0.28564519 1.043889
-0.1159075 -0.0044628079 1.067223
-0.02841532 0.024527309 0.95218468
-0.06796366 0.02641375 1.0525219
-0.0023754239 0.024112269 1.121699
-0.095903687 -0.23831061 1.1566679
-0.002609313 0.02695654 1.086943
-0.035424318 -0.077147223 1.139245
-0.094515443 -0.2665475 1.183715
-0.040808469 0.025537491 0.95163792
-0.076448858 -0.24962211 1.191192
-0.161742 0.02534768 0.9441393
-0.1177484 0.0248778 0.90357518
0.1086566 0.03576231 0.86892331
0.15877239 0.03262439 0.88068998
0.065666318 0.018614979 0.82626879
0.07489562 0.02818528 0.8186636
0.092877328 0.032307971 1.070379
0.22103611 0.034181152 0.97889131
-0.1512727 -0.31105861 1.0942661
-0.034848481 -0.1023984 1.138111
-0.1030943 0.001025498 1.087495
-0.17392761 -0.27423149 1.062893
-0.1632847 -0.31806231 1.092937
-0.1971425 -0.28751439 1.032202
-0.1918716 -0.0025903881 0.97062713
-0.1809666 -0.28957051 1.05563
-0.1994215 -0.25807479 1.033326
0.1602872 0.026711971 0.97942781
-0.16400491 -0.00057381392 1.006832
-0.16702101 0.02430989 0.89075381
-0.111672 -0.2924619 1.1321681
0.1593322 0.02596876 0.87614107
0.072853208 0.022672281 0.88964379
-0.105312 0.02809963 0.9786371
-0.091286182 -0.28963569 1.173035
0.038917959 0.02602285 1.057104
0.099568248 0.028038669 0.89916652
-0.27531359 -0.237431 0.90924013
0.14295 0.028131681 0.80651093
0.13297211 0.032219589 0.91584218
-0.1018766 -0.2408402 1.148595
-0.083898067 -0.22123919 1.169415
-0.067874372 0.02782258 0.94772458
-0.04515278 0.02514549 0.8017422
0.04746538 0.029561739 0.73221678
0.112075 0.031486019 1.035084
-0.29008719 -0.2323757 0.91279608
-0.27991211 -0.2198457 0.92389941
-0.20334379 0.017353211 0.87181002
-0.2863059 -0.2384901 0.91096061
-0.2406442 0.0070655351 0.91858929
-0.2748791 -0.1720829 0.91031867
-0.071985357 -0.1319527 0.78937173
-0.1070153 0.017132759 0.79991257
-0.2486155 -0.1125639 0.89418101
0.01388246 -0.09232226 0.74336082
0.01699895 -0.1192034 0.73626453
-0.17254139 -0.2053476 0.80828321
0.0094806552 0.0089555681 0.72649872
-0.019232091 -0.1462706 0.71276188
-0.062520564 -0.12766489 0.7745828
-0.047291871 -0.27080491 1.26545
-0.2495614 -0.2210588 0.8733238
-0.21590281 -0.1274554 0.86403501
-0.01245886 -0.1270967 0.81668258
-0.2268756 -0.15664659 0.86752123
-0.01456118 -0.1349542 0.70345873
-0.1949614 -0.2380619 0.83199728
-0.213475 -0.015911059 0.8872366
-0.1071783 0.01620144 0.79808939
-0.20009419 0.016744761 0.87355012
-0.07747215 0.001108229 0.7730329
-0.05180401 -0.29961741 0.7070241
-0.2289315 -0.15280791 0.86452019
-0.00066870451 -0.1073329 0.79836082
0.007490098 -0.068927318 0.77541733
-0.1773251 0.0054620798 0.86268592
0.02125686 -0.026365099 0.73946071
-0.2495956 -0.071003817 0.91694099
-0.26107669 -0.1948995 0.8867504
-0.2614072 -0.2587181 0.87933987
-0.03772581 0.02842598 0.79951823
-0.06408304 -0.0087424517 0.77103782
0.003430068 -0.090163708 0.81960583
-0.088989198 -0.23167039 0.75805873
-0.0090397596 -0.03804807 0.84236181
0.0088102221 -0.05539665 0.77502108
-0.069385529 -0.2226374 0.73917788
-0.07613951 -0.28835189 0.73870432
-0.072908521 -0.273601 0.73710561
-0.0035728221 0.001454681 0.72228217
-0.2021109 -0.2434656 0.83330959
-0.091184497 -0.2302115 0.75680459
-0.1673186 -0.1295986 0.85766202
-0.2306007 -0.1613742 0.86789781
-0.2349721 -0.1708411 0.86747903
0.002371907 -0.1302702 0.7612285
-0.235598 0.01087926 0.90389419
-0.1172053 -0.1359743 0.77962339
-0.2428418 -0.27303189 0.85844409
0.0144214 -0.090352707 0.74220008
-0.02466673 0.01929496 0.73692721
-0.096334986 0.0003375411 0.79836887
-0.2283247 -0.1090748 0.88799548
-0.0066859131 -0.28321949 0.6806863
-0.1771832 -0.20456301 0.81627548
-0.1669237 -0.2067484 0.81404102
-0.1149477 -0.12758639 0.87161118
-0.190328 -0.2296228 0.82700652
-0.06713903 -0.099523127 0.9031381
-0.2321479 -0.1124635 0.88985121
-0.01170355 -0.1355606 0.77291381
0.00064426661 -0.065518022 0.7630868
-0.074783623 0.01177165 0.79258662
0.02552944 -0.055714581 0.70378947
0.0048006182 -0.07730037 0.81719172
-0.063736863 -0.1328209 0.75396651
0.004560411 -0.087750763 0.80047822
-0.1295822 -0.13059171 0.86541331
0.0089350343 -0.05735505 0.7878387
0.01448512 -0.049451951 0.74274671
0.01332027 -0.054433849 0.79445392
-0.04740778 -0.1303267 0.79844111
-0.1124983 0.02737795 0.81903487
0.022818919 -0.053332221 0.70917678
-0.1762547 -0.25531891 0.81623381
-0.1181447 0.01279047 0.81566942
-0.01530254 0.00061026221 0.73554701
-0.2373534 -0.01048547 0.90702522
-0.1481712 -0.24481469 0.79900038
-0.087233663 -0.1316209 0.8598628
-0.066697903 -0.22424731 0.72886842
-0.040815111 -0.1239723 0.86903572
0.031578481 -0.1030629 0.68322659
0.028133091 -0.0293363 0.69996089
-0.117486 -0.12816291 0.84837729
-0.02324778 -0.060277998 0.88768548
-0.001153111 -0.1033828 0.84206438
-0.1668164 0.0047851801 0.84898782
-0.041599091 -0.246205 0.71352118
-0.146207 -0.1340095 0.80951989
-0.25419161 -0.087180577 0.9151901
-0.1961658 0.02914509 0.88493133
-0.2193829 -0.01246014 0.88842112
-0.020811619 -0.063267201 0.89015162
-0.059023861 -0.209938 0.74927372
-0.15819129 -0.24844261 0.80066723
-0.25826311 -0.1207596 0.92921102
-0.046378732 -0.30334339 0.69608438
-0.016056299 0.031470459 0.92646432
0.032387439 -0.13744611 0.6703124
-0.1791361 -0.02832675 0.89024168
-0.038763341 -0.162883 0.71728158
-0.1144815 -0.172874 0.78098238
-0.045718431 -0.085474066 0.8996942
-0.1164954 -0.14445589 0.78999031
-0.14402451 -0.1423807 0.80051392
-0.0098451152 -0.1027013 0.83658677
-0.064350776 -0.1331923 0.75071567
-0.070165992 -0.2331004 0.73911488
-0.28954771 -0.2640115 0.90864551
-0.053181529 -0.1092072 0.89777023
0.0129109 -0.076289952 0.79788268
-0.055299342 -0.1434993 0.75292271
-0.1759745 -0.030364349 0.88600779
-0.027892711 -0.12880699 0.8121568
-0.1323842 -0.2444407 0.78445292
-0.096029162 0.031291131 0.88293308
-0.1109887 -0.073241197 0.90688431
0.053231299 -0.15298329 0.65991831
-0.04052287 -0.1666985 0.72119689
-0.1022191 -0.089366972 0.89918262
-0.1030764 0.031614881 0.89368778
-0.2722919 -0.21069109 0.89364338
-0.05571473 -0.063002937 0.90632951
-0.091254532 0.01274464 0.79536098
-0.019212309 -0.2757512 0.69294292
-0.068588138 -0.1311855 0.81736958
-0.2410343 -0.002722621 0.91547972
-0.1860988 -0.077882923 0.88898009
-0.095671892 -0.083613694 0.89354283
-0.086253703 -0.1361317 0.78522658
-0.22463571 -0.25076571 0.84274638
-0.27689061 -0.1756296 0.90554309
0.028973641 0.032393049 0.79276693
-0.2184879 0.0029923019 0.88885927
-0.083959758 0.028801231 0.80383593
-0.047215339 0.032352611 0.95314473
-0.044338461 -0.30648589 1.353651
-0.2077903 -0.007791087 0.88373458
-0.2496033 -0.074207783 0.90543091
-0.056566771 -0.065665133 0.90965968
-0.2975938 -0.2753166 0.90191197
-0.2244239 -0.1085224 0.87982631
-0.2135274 -0.1606414 0.85353261
-0.2848058 -0.2228166 0.92303503
0.084444217 0.031884462 0.86912757
-0.051640868 -0.1407958 0.71962762
-0.01224625 -0.154155 0.72158003
-0.037202001 -0.30753681 0.70994878
-0.046272099 -0.3044121 0.69003057
-0.143369 -0.2430031 0.79384392
-0.060963091 -0.31831199 1.491523
-0.29138491 -0.2659373 0.90631491
-0.2688089 -0.2034823 0.89355552
-0.1939512 0.0001819134 0.87295139
0.025330311 -0.13275941 0.75533217
0.078610003 0.031921219 0.82586491
-0.27114019 -0.2316414 0.95325297
-0.047201451 -0.3125228 1.495015
-0.082334101 -0.12905329 0.83044589
-0.0038356781 0.031646401 0.75390589
-0.01947194 -0.3152315 1.3466671
-0.27836311 -0.25016859 0.90007281
-0.2268606 -0.1896522 0.86071289
-0.1696956 -0.27332649 0.80863857
-0.1234148 -0.079316743 0.90302098
-0.13241211 -0.079419553 0.90900379
0.1162413 0.0337057 0.87363929
-0.1899517 -0.2264598 0.82380217
-0.059387211 -0.1286258 0.79300582
0.0041021109 -0.03028545 0.79340333
-0.2303731 -0.04901126 0.89093047
-0.1990556 0.031896781 0.892726
-0.0078389049 -0.13944191 0.78553498
-0.094184697 -0.228322 0.75514221
-0.07797581 -0.1740272 0.74384987
-0.2190807 -0.0092186034 0.89143687
-0.033309821 0.028267089 0.81360662
-0.1219554 0.0029940009 0.81852013
-0.14969 -0.27342689 0.7964251
-0.2441719 -0.1992438 0.868487
-0.16877919 -0.2255034 0.80850172
-0.1257125 -0.2414403 0.78055668
-0.26171809 -0.104816 0.91142571
-0.1216545 0.03254452 0.92194682
0.01035398 0.03625628 0.93577331
0.20624711 0.028888701 1.037928
-0.055433329 0.026723471 0.77643508
-0.1755749 -0.26803359 0.80710202
-0.01287013 -0.1242073 0.81933028
-0.1024429 0.029702829 0.84749138
0.02387172 0.02919146 0.82161039
-0.2480303 -0.2215742 0.87268811
0.017753061 -0.059622999 0.74854612
-0.038141549 -0.1121579 0.89752871
0.02477568 0.00061127538 0.72103357
-0.27131921 -0.2167275 0.88746792
-0.0599274 -0.27061179 0.72429228
-0.22740211 0.02025689 0.90201211
-0.22749721 0.019638941 0.89600372
-0.044221699 -0.003207549 0.7647872
-0.1159571 -0.1328332 0.77724081
-0.001882136 0.034717981 1.128098
-0.06578137 -0.002633601 0.76613462
-0.01118696 0.016196789 0.72341949
-0.0058435202 0.0143539 0.71718621
0.00039798021 0.0022166669 0.71029788
-0.06556651 -0.0060046609 0.77594721
-0.067199498 -0.058782641 0.89942658
0.022424441 -0.099842548 0.67888319
0.043554779 -0.1202096 0.66920269
0.045919981 -0.21547771 0.6380645
-0.00039288399 -0.17472731 0.67378318
0.028972151 -0.1354343 0.66326898
-0.033042911 -0.2443942 0.69755542
-0.065257668 -0.2261837 0.72665417
-0.07815361 -0.28311831 0.73072708
-0.070536137 -0.1253321 0.77376521
0.024235461 -0.056359831 0.6789847
-0.045787629 -0.16010199 0.71342778
-0.1034698 -0.1249923 0.79732883
-0.01449552 -0.1208214 0.74998641
-0.111423 -0.084861927 0.89090562
-0.039281931 -0.1377715 0.69847882
-0.1361867 -0.1338134 0.77390569
-0.073347941 -0.24610721 0.71448731
-0.14049441 -0.070873953 0.8902418
-0.1315345 -0.060913209 0.89562762
-0.02397332 -0.13361441 0.69746602
-0.1750387 -0.1005683 0.88659191
-0.19651119 -0.22528709 0.82276779
-0.2076674 -0.2316027 0.82817262
-0.1744369 0.01013009 0.84372562
-0.1094931 -0.098781593 0.89140642
-0.2118171 -0.2445906 0.83131552
-0.2188625 -0.27307239 0.83128709
-0.2052101 0.01909907 0.87895453
-0.1895643 -0.02325787 0.88935173
-0.1935252 -0.074758887 0.8894527
-0.1848474 -0.02403827 0.89311647
-0.086162388 -0.134782 0.75859213
-0.242659 -0.1653562 0.8678838
-0.2722365 -0.1898507 0.88773519
-0.060540911 -0.0027190151 0.76918107
-0.060707819 -0.1330649 0.74423808
-0.11714 -0.1347682 0.78299159
0.0065443809 -0.14813089 0.67536408
-0.076369658 -0.1582219 0.74231762
-0.1976946 -0.074277282 0.89106268
-0.2221048 -0.15401261 0.84950608
-0.04130977 -0.1406628 0.70753342
-0.084469043 -0.122844 0.8023777
0.03615946 -0.1033068 0.67963767
-0.02441941 -0.27601409 0.66887772
0.01006584 -0.26294979 0.65819842
-0.05436964 -0.30260599 0.71228927
-0.0064147711 -0.3111726 0.6575864
0.01233684 -0.2675564 0.65570712
0.28345051 -0.31669399 0.88160902
0.0065895622 -0.25872841 0.66596597
-0.033513229 -0.2720544 0.68843591
0.085260577 -0.22610749 0.66592437
0.050457109 -0.23150431 0.64448333
0.0090006143 -0.3029713 0.64725029
0.050141592 -0.1935551 0.64841872
0.01364307 -0.30170691 0.65013158
-0.001867697 -0.27035519 0.66644722
0.02195178 -0.083134472 0.67019522
-0.087517858 -0.31612089 0.72436023
-0.093808807 -0.27986959 0.72931778
0.076553583 -0.30598319 0.6543467
0.2757715 -0.1690226 0.92629409
-0.067532957 0.032045189 0.77804983
0.065847442 -0.20709319 0.65173441
0.084652483 -0.30596271 0.6465621
-0.1096755 0.019463491 0.80336791
-0.25803539 -0.2182745 0.87137282
0.046164408 -0.057360411 0.67829722
0.1791838 -0.1235977 0.85900021
0.26430461 -0.03773278 0.98148489
0.046838719 -0.086297512 0.67561322
0.046967819 -0.098726243 0.6706264
0.0576385 -0.22130699 0.65184242
0.1002998 -0.1772195 0.696401
0.1991117 -0.31036881 0.79269338
0.1939407 -0.26436099 0.80853158
0.1927875 -0.30215529 0.78345722
0.1528834 -0.1752236 0.76388341
0.05011699 -0.24578831 0.64066231
0.12621249 -0.28221059 0.70389313
0.29301769 -0.30261779 0.91359711
0.1403548 -0.1543261 0.75266612
0.2330808 -0.29793221 0.8376739
0.1160446 -0.1358643 0.73995233
0.159374 -0.1399058 0.80293733
-0.1056294 0.016918261 0.81438643
-0.017404091 -0.12657291 0.81376338
0.60471278 -0.312112 1.391113
0.1998903 -0.1241296 0.88125628
0.03737383 -0.066692643 0.6769408
0.2104778 -0.03422977 0.94118541
0.2090843 -0.061135169 0.94526201
0.087972268 0.01378354 0.73352301
0.14501061 -0.12653071 0.86648887
0.1994765 -0.26590651 0.81691372
0.092705533 -0.1131153 0.72059488
0.1484382 -0.3095654 0.72616088
0.1097763 -0.27609631 0.6927104
0.16049901 -0.2362965 0.76318032
0.2406753 -0.1876336 0.87925971
0.1557523 -0.1775562 0.76582903
0.1199588 -0.23093361 0.70783621
-0.08850275 0.03077561 0.82949162
0.21372139 -0.046649691 0.9372822
0.108592 0.01396307 0.76459372
0.082614943 -0.1937785 0.67368162
0.28244969 -0.2406736 0.9228524
0.1914984 -0.067091107 0.9374119
0.1546849 0.01288243 0.822505
0.2093319 -0.079517752 0.9463433
0.2005654 0.0080137998 0.8812871
0.1768913 0.018996829 0.84873903
0.1369615 -0.1002713 0.95772398
0.19288591 -0.1562241 0.8235383
0.25274679 -0.2308224 0.88346618
0.21779349 -0.1621128 0.86163157
0.1714987 -0.1928546 0.78562683
0.16759209 -0.32223979 0.73713988
0.030568199 -0.064871773 0.68813097
0.23717029 -0.18245199 0.87139273
0.071893319 -0.114644 0.69572687
-0.01880594 0.01567884 0.74473202
-0.094496027 -0.080221802 0.90324527
0.1876972 -0.04301019 0.94088322
0.09266521 -0.22169229 0.67985308
0.1656691 -0.022946641 0.89853942
-0.2625998 -0.100233 0.91449982
0.2268067 -0.1405458 0.88798273
-0.14647891 -0.1685686 0.79846388
0.1946611 -0.082290649 0.93343002
0.2292255 -0.22267801 0.86053818
0.1782828 -0.1233232 0.93441987
0.1003441 -0.2848666 0.67660201
-0.1806673 -0.29881221 0.78692019
0.2282587 -0.1248938 0.93016481
-0.082935318 -0.077149987 0.90505081
0.2561686 -0.1295834 0.9118613
-0.026874069 0.0078662187 0.71487981
0.047337901 -0.004466325 0.68661278
0.016097831 -0.092135698 0.68328488
0.082003497 -0.26786649 0.65658921
0.15577 -0.1886072 0.76647788
0.29674059 -0.20038681 0.94500601
0.1158249 -0.17095029 0.72156578
0.24837659 -0.28929251 0.8635633
0.22462779 -0.28053421 0.83470988
0.29142851 -0.30166391 0.91333622
0.1235188 0.044389561 0.75416082
0.29607651 -0.1707928 0.94571149
0.20658991 -0.20972709 0.83359492
0.00165984 -0.1474663 0.71375263
0.1875789 -0.1907475 0.82451183
0.1846582 -0.16719881 0.83425719
0.1139664 -0.29592019 0.68848163
-0.25842479 -0.30127069 0.84677351
-0.055865061 -0.082986347 0.90530038
-0.097788379 -0.27613601 0.73020321
0.001038909 -0.2304226 0.69347233
0.02853577 0.031486422 0.71235138
0.1725748 -0.048047289 0.94534099
0.2288585 -0.02944356 0.94221783
0.1335277 -0.2320296 0.69210601
0.13890371 -0.1735784 0.76556712
0.26838571 0.028391499 1.015805
0.1387755 0.01347463 0.82604277
0.2315391 0.024422539 0.92060518
0.2435582 -0.1501099 0.89729631
0.1046276 -0.1688327 0.71021348
0.16871651 -0.28311789 0.76674032
-0.0047125821 0.03880636 1.0299439
-0.09387137 0.03956522 0.98513108
-0.19789539 0.038153961 0.88199347
0.070666023 -0.080211937 0.69435251
-0.2499229 -0.1118733 0.90563518
-0.1790646 -0.2040059 0.81732398
-0.1441339 -0.2929709 0.78968382
-0.27209309 -0.13288949 0.90826893
-0.070491113 -0.2288067 0.73906678
-0.30896971 -0.29993591 0.89815009
-0.03456096 0.02819282 0.94318062
-0.00157541 -0.068345986 0.78088778
0.01727483 0.034200121 0.91446191
-0.24189121 -0.1576208 0.87001091
0.1916367 -0.25076431 0.8156389
-0.102584 -0.2297513 0.76286268
-0.0041606869 -0.077720053 0.79517817
0.27434301 -0.04947868 0.97177267
-0.1081968 0.0031297209 0.81168753
0.31724229 -0.27265611 0.9603157
0.068595544 -0.1721215 0.66637409
0.1364913 -0.1137308 0.92565042
-0.2904174 -0.2122945 0.91415799
-0.14117309 -0.2095162 0.781093
-0.2304837 -0.001070485 0.89687359
0.1918277 -0.02418776 0.92937422
0.34289601 -0.28751561 0.98853272
0.02291216 -0.2261471 0.67067111
0.022789961 -0.1658424 0.66806197
-0.28271881 -0.124239 0.92273372
0.26065251 -0.16413391 0.92353082
-0.1192337 -0.1349684 0.78754592
-0.1355927 -0.28969109 0.78082287
-0.2718325 -0.1211593 0.93294603
-0.2144504 -0.219043 0.86808729
-0.28940591 -0.1484807 0.92135972
-0.28506511 -0.27522129 0.89205259
-0.28790361 -0.2886993 0.89139688
-0.2810345 -0.24309351 0.89707249
-0.27597389 -0.2275515 0.90978128
0.039425019 0.02640608 0.72112173
-0.25387871 -0.22508121 0.95469803
0.087249279 0.029190419 0.72539133
-0.06570816 0.027283249 0.80411458
-0.24869481 -0.086538173 0.90124738
-0.2405055 -0.038302541 0.90383458
-0.2733914 -0.1861226 0.9076528
-0.24113861 -0.042471021 0.89814752
-0.2507422 -0.093031637 0.90261602
-0.24717019 -0.067027688 0.91061783
-0.24227481 -0.052889138 0.90994322
-0.1775337 -0.140045 0.96189982
-0.2490989 -0.2122898 0.93297309
-0.01526695 0.027440161 0.9899621
-0.1969112 0.01178858 0.96000648
-0.2375783 -0.01248267 0.9039709
-0.23747221 -0.0080179274 0.89935559
-0.186335 0.0078724027 0.98746687
-0.080000423 0.027131829 1.031419
0.02886031 0.030386539 0.91675091
-0.15292379 -0.3080785 1.0917749
-0.23236249 -0.20879769 0.98940009
-0.099620819 -0.27937141 1.163808
-0.152649 -0.30584311 1.0976731
-0.1668328 -0.21245 1.065256
-0.077215247 -0.1304758 1.0205359
-0.096738279 -0.22634821 1.151566
-0.1211227 -0.2426293 1.132501
-0.16581281 -0.31926849 1.087611
-0.2316443 -0.05078065 0.92422521
-0.063585818 -0.137188 1.129336
-0.18611971 -0.1331933 0.95889962
-0.16219179 -0.30182481 1.114207
-0.1064545 -0.13042399 1.112241
-0.2259803 -0.31970811 0.82353801
-0.1450641 -0.2458653 1.085282
-0.1752919 -0.2638942 1.050427
-0.1182335 -0.13547529 1.033533
-0.1123389 -0.140828 1.035234
-0.1364122 -0.13751779 1.036427
-0.12731931 -0.2310811 1.105343
-0.1353828 -0.1424887 1.040351
-0.124962 -0.13436081 1.003884
-0.23243611 -0.03962094 0.92886889
-0.2741392 -0.2261351 0.912229
-0.064983308 0.029665111 0.90451401
-0.1014016 -0.29201329 1.165773
-0.26500711 -0.2785762 0.94512701
-0.2423684 -0.085571937 0.92552292
-0.1980606 -0.2185199 1.024469
-0.2113799 -0.17359801 0.99047643
-0.036467191 -0.1130551 0.98914403
-0.1908384 -0.002392173 0.97244722
-0.0067551141 0.03396612 0.80694699
-0.1665702 0.0031078761 1.0077651
-0.1952997 0.02813494 0.94171178
-0.2352553 0.001422346 0.90807343
-0.26138061 -0.25148389 0.94850522
0.030520801 0.02643338 0.71879357
-0.19813441 0.01410943 0.96091509
-0.091964297 0.02080911 1.107668
-0.096180558 0.00433743 1.091226
-0.02965319 -0.051787999 1.112555
-0.02570462 -0.055302229 1.116607
-0.035635412 -0.1018116 1.141319
0.1219751 0.027799189 1.003628
0.1163214 0.037004892 0.89461583
-0.2126514 -0.1567142 1.005887
-0.2702522 -0.19413 0.90533769
-0.2127649 -0.1594148 1.00151
-0.075061202 -0.1916454 1.192929
-0.2735998 -0.25005281 0.9352926
-0.199966 -0.28323689 1.032599
-0.25426769 -0.2480195 0.94188768
-0.1086385 -0.18351699 1.118327
-0.097818077 -0.2810148 1.159861
-0.1828538 -0.19944251 1.057861
-0.052475989 -0.13569801 1.175891
-0.09534508 -0.23164129 1.14832
-0.05215472 -0.13160691 1.1578799
-0.17466339 -0.2737824 1.060384
-0.1702088 -0.2704868 1.074129
-0.1872752 -0.26802251 1.050928
-0.123274 -0.1428661 1.027036
-0.1206166 -0.1279081 1.061828
-0.18613631 -0.28734839 1.051966
-0.137641 -0.18777511 1.087378
-0.1914759 -0.27572981 1.029642
-0.099767677 -0.31156161 1.175352
-0.19125579 -0.27906221 1.045059
-0.2686213 -0.1859546 0.89534849
-0.0472483 -0.1308454 1.101124
-0.1218399 -0.1326897 0.99841368
-0.2250634 -0.053315852 0.93942219
-0.17959981 -0.2159474 1.057256
-0.1545116 -0.3081961 1.1068
-0.1313161 -0.26013991 1.109751
0.055623531 0.03059298 1.053272
-0.067493737 0.03128716 0.91426182
-0.03925908 -0.1369511 1.104848
-0.2442946 -0.087930232 0.91620362
-0.15317111 -0.12961949 0.97581232
-0.2326981 -0.2038379 0.97654569
-0.27386379 -0.31675041 0.95286763
-0.1336973 0.02756172 0.93149573
-0.26941049 -0.26636329 0.93928951
-0.1949852 -0.23946001 1.027101
0.033446249 0.036535919 0.78481197
-0.1330862 0.003785253 1.050271
-0.090944171 -0.2801353 1.181168
-0.115994 0.0025448501 1.068303
-0.1160999 -0.0047273338 1.06625
-0.2058641 -0.2053981 1.016475
-0.23922171 -0.1066843 0.93492538
0.0074823499 0.02909499 0.77059442
-0.082631893 -0.1625018 1.158898
-0.062640131 0.015670869 1.148752
-7.3730953e-05 0.028666999 1.155735
-0.15728 0.02684206 0.94299608
0.085798956 0.026907589 1.030919
-0.033788919 -0.069814377 1.125177
-0.2300673 -0.074741513 0.93053579
-0.061651591 -0.22611549 1.213433
-0.044182058 -0.1816121 1.215759
-0.1023618 -0.1658652 1.1448179
-0.03308028 -0.1015413 1.136971
-0.1526811 -0.135748 0.96040958
-0.2415366 -0.075048693 0.92379069
-0.1188729 -0.2387675 1.143755
-0.1555488 -0.2396756 1.079868
-0.2211263 -0.079643518 0.94264221
-0.01701987 -0.1125461 1.218454
-0.14354239 -0.066179603 0.94800442
-0.03454512 -0.093487501 1.071244
-0.16836891 -0.28042769 1.063314
-0.1000103 -0.13882139 0.98987442
-0.1557297 -0.1398526 1.056
-0.25890839 -0.186361 0.93461692
-0.1292498 -0.2340766 1.107567
-0.1363658 -0.1359009 1.048376
-0.1996779 -0.2214967 1.025984
-0.091192007 -0.2159922 1.1706491
-0.23083571 -0.31722721 1.008044
-0.064581931 -0.2011794 1.21155
0.075542629 0.032266501 0.91900301
-0.099966697 -0.1393266 1.135812
-0.059687439 -0.12988169 0.9810586
-0.096343763 0.003977329 1.1053751
-0.1918771 -0.1365867 0.95069468
-0.067943871 -0.1190797 1.031505
-0.21751501 -0.032981429 0.94212192
-0.20825779 0.02567154 0.90122968
-0.2187472 -0.077661067 0.92845732
-0.211541 0.0034230649 0.94959211
-0.178002 -0.053555399 0.9431597
-0.2114469 0.02208486 0.95834923
-0.0052538509 0.029234201 1.183664
-0.048082471 -0.2383263 1.221123
-0.040649649 -0.2439831 1.227397
-0.02807891 -0.07624656 1.037971
-0.035448428 -0.1198104 0.98909217
-0.1081344 -0.1325064 1.117131
-0.01481211 -0.1396203 1.226037
-0.1644308 -0.2717869 1.083426
-0.0309512 -0.067614727 1.097375
-0.01529443 -0.058887482 1.204899
-0.026746269 -0.066885047 1.082357
-0.002440393 0.02763617 0.82881999
-0.029620949 -0.09144038 1.068917
-0.2029182 -0.029690331 0.93678939
-0.2473996 -0.083178759 0.91189528
-0.006419837 0.034520179 1.109586
-0.009568274 -0.06097186 1.208164
-0.02454019 -0.015682461 1.195731
-0.2355357 -0.01541179 0.91250849
-0.031894799 -0.0615477 1.126804
-0.01667094 -0.01558325 1.197225
-0.02428716 -0.093899548 1.217738
-0.1204495 0.03011987 0.90487099
-0.056009531 -0.133706 1.069473
-0.15970311 -0.079441883 0.94711667
-0.033108771 -0.1205097 1.000333
-0.04453814 -0.2670193 1.222544
0.03564769 0.034722541 0.81977898
-0.036293749 -0.03274342 1.152478
-0.067220747 0.0041650529 1.135586
-0.2542291 -0.2870408 0.95735753
-0.02656913 -0.1053119 0.99894172
0.031257331 0.02690142 0.8057521
-0.15036391 -0.1273749 0.97744358
0.044895232 0.027849531 1.147934
-0.1472183 -0.27954721 1.1081181
0.30509269 0.01528513 0.97359961
-0.030081149 0.028352261 0.84259808
-0.20022149 0.0059550111 0.95751667
0.1152686 0.03106067 1.000293
-0.003906131 0.031063201 1.18599
-0.1612189 -0.2048991 1.076147
-0.040352169 -0.1247343 0.97893059
-0.17017861 -0.087402023 0.94772708
0.032967571 0.029853079 0.88702887
-0.1661296 0.029542301 0.93870938
-0.099806853 0.025829971 0.93342108
0.053953469 0.02811438 0.80644459
-0.1819286 0.0053581889 0.98822677
-0.22157229 -0.069141328 0.93828988
-0.2310793 -0.058365349 0.93646592
-0.28265709 -0.24767581 0.89730012
-0.2361156 -0.083130628 0.93222427
-0.2339624 -0.05368796 0.92902189
-0.2441432 -0.31659231 0.83787662
-0.1963575 0.0035437939 0.9695093
-0.089889169 -0.31376389 0.72108263
-0.2184246 -0.054834928 0.93989468
-0.1712565 -0.1293617 0.9935379
-0.18030021 -0.27619961 1.0658081
-0.1858792 0.01599416 0.9776969
-0.17224941 -0.098496377 0.95065749
0.15233029 0.02693638 1.075533
0.1033748 0.03268975 1.069764
-0.072186708 -0.1301727 1.016649
-0.052879099 -0.1474013 1.116708
-0.1462054 -0.18656211 1.0755399
-0.16597269 -0.1536465 1.062942
-0.14213701 0.0152854 1.03915
-0.0484454 0.016445961 1.159163
-0.1420687 -0.19102751 1.088104
-0.2329234 -0.2084534 1.000474
-0.25376841 -0.28282851 0.97721881
-0.1193494 -0.119832 1.077973
-0.096228659 0.01555371 1.09724
-0.046813071 0.0090511739 1.1725399
-0.1665809 0.0001402795 1.0088741
-0.18105599 -0.0055436492 0.98680449
-0.1785892 -0.13944291 1.001866
-0.072913773 0.0021085441 1.1333441
-0.05456841 -0.19821469 1.210061
-0.016242679 -0.1774745 1.23822
0.051140551 0.031436231 1.146516
-0.21899889 -0.042487711 0.93160093
-0.17360841 -0.2430117 1.0547611
-0.2319214 0.022363629 0.91340858
-0.04780471 -0.1913555 1.218043
-0.19501761 -0.14201079 1.009987
-0.087949403 0.029433999 0.87780118
0.1448399 0.033881929 0.98341298
-0.055644989 -0.129787 1.0965509
0.01099497 0.032076541 0.95334458
-0.090091109 -0.2145122 1.168947
-0.1627015 -0.204566 1.054412
-0.064876378 -0.2014332 1.2032861
-0.096204221 0.0307771 1.105338
-0.1088772 0.027192259 1.053961
-0.095628679 0.02798653 1.0533839
-0.04096603 -0.063158423 1.173048
-0.0040003061 -0.1758209 1.233508
-0.22801539 0.001424432 0.92742652
-0.026635351 0.03349882 0.97057438
-0.02240688 0.035097629 0.89218628
-0.2208685 -0.20528039 0.98309469
-0.19083589 0.02703339 0.88801312
-0.1073985 0.01354283 1.086229
0.15454461 0.032019559 0.98164511
-0.2793082 -0.23463839 0.90796298
-0.01337153 0.03247771 1.004232
-0.1745138 -0.1354609 0.98128349
-0.1879542 -0.31185159 1.060514
-0.21903931 0.001281351 0.93281591
-0.068487577 -0.12870289 1.027259
-0.18618 0.020328131 0.86772352
-0.2526409 -0.1162382 0.90008831
-0.213111 -0.18175291 0.98391289
-0.1776296 0.01065797 0.99035478
-0.22394329 -0.1128257 0.94163501
-0.066712081 0.032608151 1.0407079
-0.03143942 0.031538639 0.94809818
-0.084115088 -0.2059636 1.170583
-0.26954401 -0.1838904 0.89081842
-0.1746136 0.02751711 0.88814878
-0.088488877 0.03000227 0.95405853
-0.1115035 0.03069723 1.035406
-0.02515972 0.027336029 1.105872
0.1553459 -0.136601 1.071108
0.05733937 -0.1374674 1.128059
0.1388059 -0.17127331 1.106679
-0.004107594 0.0132153 1.176892
0.02415454 0.01074889 1.161849
0.058468461 -0.1509826 1.171718
0.136757 -0.12876999 1.007836
0.1861681 0.03170893 0.97243518
0.14368691 -0.1653319 1.102259
0.085948229 0.01923931 1.112571
0.099143513 -0.2345591 1.149527
0.1023833 -0.20719349 1.142982
0.1900025 -0.130152 1.025948
0.17679299 -0.19517089 1.082353
0.2241057 -0.1350918 1.009115
0.1711106 0.01132026 1.046909
0.1420161 -0.1289866 1.005653
0.15421221 0.029990319 1.0459239
0.07223326 -0.25568739 1.177955
0.25783509 -0.1195263 0.99099618
0.25820851 -0.1196866 0.99354029
0.1171248 -0.068596207 0.97870278
0.1491484 -0.1107188 0.98290187
0.064829953 -0.21716151 1.179288
0.1902716 -0.19933809 1.069118
0.2076091 -0.26064709 1.0687701
0.085796483 -0.1090081 0.97684789
0.2517781 -0.018604159 0.98675042
0.26264161 -0.053068221 0.98250902
0.2482648 -0.060638189 0.99119228
0.18813971 -0.1962975 1.0749151
0.043313149 -0.1199597 1.003893
0.0154599 -0.1204345 1.10983
0.1138701 0.02953786 1.068097
0.054162621 -0.1047313 0.98992473
0.23305421 -0.1613728 1.033168
0.1833913 0.0059272051 1.0367121
0.222664 0.007157445 1.008028
0.2016456 -0.2509836 1.072698
0.059361339 0.0025849941 1.137581
0.1009409 -0.17611089 1.136997
0.15569641 -0.30550119 1.1147259
0.1813287 0.018696669 1.035527
0.1805066 0.01045775 1.038129
0.1846893 0.02883294 0.97997808
0.075655639 0.02958167 1.0619431
0.00189352 0.032494899 0.95912308
0.069814257 -0.0029945369 1.126135
0.087559097 -0.1311764 1.045344
0.07389307 -0.1762158 1.158186
0.016649069 -0.057228651 1.126812
0.15713321 -0.26351991 1.104598
0.26460981 0.01861218 0.95940918
0.13116939 -0.28761429 1.130666
0.09553355 0.02938205 0.84354949
0.053210791 0.031572219 0.91141891
0.051875532 -0.1386788 1.136685
0.01166141 -0.045979261 1.119773
-0.021007361 0.032054599 1.146439
0.037608329 0.02283725 0.67815459
0.28160641 -0.090913333 0.9686867
0.1619028 -0.14115261 1.07783
0.28898329 -0.17164651 0.98765838
0.06414032 -0.1244251 1.003513
0.055451099 -0.09852758 0.9907307
0.087439179 0.02654144 0.88715571
0.066918969 0.030489091 0.95412612
-0.098575123 0.031377699 0.91005349
0.064914882 -0.1262432 1.010538
0.2203292 -0.17640831 1.042814
0.25999111 -0.00084856153 0.97935331
-0.062238399 0.028935339 1.039983
0.09989959 0.034115549 0.99046552
0.2427624 0.029371381 0.95447791
0.1099615 -0.2034284 1.141246
0.1977195 -0.2306933 1.07478
0.040372491 0.02531508 0.67339748
0.2415396 -0.066922337 0.9897182
-0.03556478 0.03546137 0.78274602
0.1852555 0.03056645 0.8681832
0.0099955201 0.03560546 0.92428672
0.096896529 0.028382421 0.90383101
0.1011233 -0.097991019 0.97796619
0.1705981 0.0099083781 1.0491461
0.1879234 -0.18924861 1.071304
0.1039677 0.002955735 1.100415
-0.027194019 0.039989412 0.79685581
0.2830126 -0.085956447 0.96878642
0.053825859 -0.31568059 0.61433589
0.12820961 -0.32108879 0.6967923
0.07808435 -0.1343528 0.70290148
0.157766 -0.2049275 0.76973462
0.1174275 -0.23804639 1.128238
0.23239709 -0.1998045 0.84671623
-0.002686203 0.032081868 0.96600562
0.16564269 0.0065319538 1.051751
0.055844132 -0.12667321 0.99756807
0.206744 0.0052437191 0.8787449
0.26433131 0.01367241 0.95842779
0.1675733 -0.26347709 0.74744499
0.27694851 -0.1662101 0.91004968
0.06502068 -0.1476811 1.0989029
0.002445579 0.01408473 1.050729
0.231701 -0.1553964 0.85617769
0.1017355 -0.001325727 1.1056941
-0.01491129 0.02996516 1.066247
0.21664441 -0.00585711 0.89647913
0.067136288 0.032442272 0.83080101
0.1035003 0.032047991 0.89656109
0.032850441 0.03223962 0.92382783
0.1400557 -0.1872184 0.72918189
0.066157341 -0.01292491 0.68868577
-0.26128799 0.01989284 0.85632813
0.02267826 -0.1322446 1.160385
0.02831018 -0.044027749 1.106753
0.01172602 -0.1263182 1.120193
0.098055422 -0.17517421 1.140758
0.01104283 -0.06145015 1.184373
0.07781291 -0.070807777 0.69718349
0.1951655 -0.2619665 0.78710288
0.26878941 -0.042393271 0.96982712
0.058299541 -0.097003043 0.66258192
0.092811882 -0.2151287 0.66736519
0.1064233 0.031559799 0.88057482
0.21611349 -0.1405786 1.034806
0.1942592 -0.12835 1.027292
0.278597 -0.1142834 0.9761045
0.006351531 -0.095883191 1.160987
0.095796533 0.027288441 0.99812782
0.2445454 -0.04636481 0.98962498
0.051598549 0.03590313 0.94676417
0.25125521 -0.2184694 0.86195111
0.063273728 0.031848129 0.84754962
0.1480784 -0.2245857 0.73067433
0.055024859 -0.068525851 0.6663571
0.2093675 -0.1426663 1.032845
0.1046583 -0.26792279 1.162015
0.17104959 -0.23714259 1.086457
0.084662907 0.002018034 1.1201659
0.031450391 -0.1328048 1.116895
0.092608452 -0.2708073 1.169669
0.2089272 0.029271301 0.96696597
-0.057736341 0.03053483 1.001083
0.056977268 -0.075542659 0.72642142
0.066675067 0.01514094 0.70057273
0.15667871 0.01102486 0.80826032
0.064797878 -0.27578989 0.62783408
0.285115 -0.1546181 0.91760212
0.17976131 0.03076994 0.86003381
0.2783027 -0.059985548 0.94765711
0.23401511 0.02009286 0.90096772
0.1310809 -0.1338713 0.86823791
0.1047024 -0.25065771 0.67947298
0.065547884 -0.086133078 0.87839133
0.17965969 0.01602119 0.83378857
0.28123289 -0.088988073 0.96337062
0.083284967 0.01028252 0.71399641
0.1013497 -0.28627229 0.66659743
0.087873161 0.030593891 0.99134272
0.2488309 -0.1820626 0.88438737
