# .PCD v0.7 - Point Cloud Data file format
VERSION 0.7
FIELDS x y z normal_x normal_y normal_z curvature
SIZE 4 4 4 4 4 4 4
TYPE F F F F F F F
COUNT 1 1 1 1 1 1 1
WIDTH 587
HEIGHT 1
VIEWPOINT 0 0 0 1 0 0 0
POINTS 587
DATA ascii
-0.0085969735 -0.00046790345 1.1715605 -0.078168787 0.53891164 0.83872759 0.11762825
0.10008557 -0.24760285 1.1503857 0.61945426 0.0024796922 0.78502882 0.0016982919
0.14312541 -0.17031065 1.1031189 0.53917539 0.21645367 0.81390274 0.0052308086
0.028990926 -0.15636042 1.1850231 0.55291808 0.41958213 0.71988362 0.0094893193
0.11310139 -0.29955307 1.1327951 0.54700577 -0.54420948 0.63609803 0.028018795
0.03601199 -0.22535825 1.198053 0.50111365 0.11598924 0.85757309 0.0017432328
0.0086248489 -0.24461347 1.2146031 0.29562208 0.01639499 0.95516425 0.0057008239
-0.011078652 -0.0045142411 1.1685944 -0.20441832 0.49667346 0.84352154 0.12578233
0.043963674 -0.27191764 1.1953511 0.54732621 -0.11293461 0.82926458 0.0051413234
0.079771988 -0.17202535 1.1464902 0.60982418 0.30732694 0.73052353 0.0019397063
0.26089951 -0.10542072 0.98128712 0.73892748 0.11131783 0.66452581 0.040739343
0.097645134 -0.097681604 0.98673427 0.096260294 0.31700599 0.94352585 0.0059454357
0.16594143 -0.13845678 1.061456 0.44464451 0.80380952 0.39519793 0.052402679
0.19979206 -0.15950021 1.0504704 0.53192055 0.45087603 0.71677858 0.0039058325
0.23528276 0.014580307 0.97475815 0.8505221 0.33685985 0.40390307 0.11724711
0.14382717 0.01661963 1.054436 0.29218531 0.91152012 0.28941119 0.021739347
0.22107601 -0.080170415 0.98202729 -0.037089832 0.51808465 0.85452473 0.070571125
0.071293153 -0.14139922 1.1323348 0.53795904 0.67410958 0.50613874 0.019050231
0.10614594 -0.13911989 1.1015415 0.36543337 0.72506857 0.58372426 0.015351171
0.099504322 -0.1394386 1.1101487 0.25385794 0.70732659 0.65973115 0.038184952
0.14397842 -0.24105372 1.1140779 0.61500776 0.059001289 0.78631061 0.00060384662
0.27707681 -0.21457763 1.0024722 0.74279159 0.20060883 0.63876188 0.0068812128
0.16212825 -0.1356605 1.0597477 0.41970488 0.84007645 0.34368494 0.052693326
0.1391539 0.010394883 1.0756495 0.31934035 0.84411329 0.43069077 0.0058538797
0.01329642 -0.20329648 1.205285 0.40486187 0.1530405 0.9014796 0.0050308546
0.27703747 -0.16108967 0.98076832 0.81554919 0.27256754 0.51047665 0.019813633
0.14230554 -0.25755233 1.1155007 0.60837513 -0.038700283 0.79270554 0.0016783522
0.0041318382 -0.29258469 1.2148889 0.26397982 -0.3648302 0.89286822 0.051721551
0.025983863 -0.15672871 1.186268 0.53228539 0.43584505 0.72574872 0.010248126
0.0036095823 -0.22265469 1.2151035 0.283061 0.15273927 0.9468618 0.0078450143
0.022640314 -0.16200894 1.1912338 0.50414479 0.31104806 0.80565947 0.0025903122
0.27892792 -0.17021716 0.98305678 0.79291981 0.22490154 0.56630147 0.011157924
0.00048356474 -0.09215717 1.1631422 0.86101067 0.3550351 0.36415762 0.10039274
0.022590948 -0.26821935 1.2062793 0.4644537 -0.045687918 0.88441807 0.0051486641
0.28128722 -0.15641524 0.96910793 0.95317787 0.16423753 0.25392497 0.021232745
0.20231862 -0.1076413 0.99410439 -0.045824084 0.60584098 0.79426497 0.022412006
0.0028035925 -0.17681544 1.2090787 0.29497176 0.14750075 0.94405246 0.016803449
-0.0027080833 -0.11846232 1.1822703 0.66779488 0.06709078 0.7413156 0.08334706
0.072453313 -0.17329724 1.1525522 0.62832719 0.30336112 0.71636367 0.002075352
9.386368e-05 -0.15685178 1.1999784 0.35064378 0.26373273 0.89860672 0.021619001
0.126542 -0.30353844 1.1197228 0.47514626 -0.45014548 0.75604576 0.034950651
0.055867814 -0.15786935 1.1628382 0.62265182 0.41725513 0.66196889 0.0062457849
0.26946974 -0.16984142 0.99296534 0.76295686 0.24062005 0.59999901 0.009311649
0.065630838 -0.26337796 1.1775635 0.64786482 -0.074628256 0.75809085 0.0020032001
0.020433702 -0.011825691 1.1157154 0.29704523 0.13615772 0.94510597 0.14032511
-0.018573314 -0.19240038 1.2115208 -0.098055333 0.087729581 0.99130648 0.021251258
0.10526943 -0.17216547 1.1267687 0.51327318 0.34743923 0.78475261 0.0014471619
0.055900089 -0.099806704 0.98946369 0.21427628 0.67719024 0.70391697 0.018031191
0.077055551 -0.16858634 1.1472363 0.62253582 0.33704913 0.70629114 0.0035847081
0.0039533 -0.21779041 1.2136173 0.27022439 0.18155052 0.94552535 0.010439585
-0.0067472509 -0.17928036 1.206188 -0.02400621 0.087217011 0.99590003 0.025230622
0.29546914 -0.21975915 0.97746307 0.91602921 0.14893 0.37243849 0.010277309
0.036458731 -0.27549174 1.1977681 0.53014094 -0.10772491 0.84103858 0.006785864
0.034579393 -0.11044439 1.0873191 0.20448448 0.91088903 -0.35842341 0.049928252
-0.0090726363 -0.11807965 1.1913389 0.68703192 -0.031810317 0.72593069 0.081515633
0.23275959 -0.17206366 1.0298243 0.5724116 0.29470015 0.76517761 0.0017101268
0.12652116 -0.16336328 1.1106485 0.48673669 0.34365764 0.80311066 0.0018066636
0.008483083 -0.12760009 1.1805383 0.60350209 0.33981243 0.72132713 0.029806459
0.25558117 -0.26200917 1.0283644 0.63574022 -0.16772901 0.75345963 0.0033803785
0.16547945 -0.16191126 1.0830775 0.63107383 0.43232512 0.64408129 0.020030331
0.10756958 -0.14633553 1.1137457 0.4252899 0.50413102 0.75165176 0.013412053
0.1666548 -0.2919848 1.0963811 0.6397379 -0.24909765 0.72710782 0.018052928
0.296083 -0.2146737 0.97220123 0.93569219 0.1835504 0.30131269 0.014016313
0.14248003 -0.29281867 1.111618 0.54684126 -0.29969746 0.78175831 0.02761244
0.23689835 -0.1182345 0.99434066 0.37786621 0.42803258 0.82097822 0.010570537
-0.0026154942 -0.28601372 1.2154779 0.16981442 -0.27962589 0.94497216 0.047710832
-0.0042723808 -0.11137436 1.1823974 0.75643045 0.036263354 0.65306807 0.10127012
0.20521487 -0.11188139 0.99653965 0.10105201 0.69440019 0.71245825 0.022103112
0.038183022 -0.22578777 1.1979531 0.51449233 0.11944391 0.84913534 0.0019144948
-0.26929137 -0.27044058 0.92367041 -0.93548959 -0.097977981 0.33949894 0.013899106
0.28670087 -0.27490816 0.98918444 0.87969679 -0.079605818 0.46882471 0.02219085
0.22470021 -0.20580822 1.0463806 0.61877483 0.23142773 0.7507056 0.0012914194
0.094410524 -0.14784351 1.121343 0.49726185 0.49482262 0.71265775 0.011672569
0.12118665 0.031317599 1.0467998 0.27477875 0.89896441 0.34111524 0.021305446
0.2731604 -0.22295547 1.008637 0.72941887 0.12869146 0.67185313 0.0028875377
0.19427563 -0.29087305 1.0748744 0.58264178 -0.32169244 0.74635285 0.01687493
0.17778167 -0.10281751 0.99018449 -0.035050668 0.58813345 0.80800396 0.008800162
0.28662953 -0.23079714 0.9954707 0.80694371 0.10125428 0.58188438 0.005711602
-0.22236164 -0.028248385 0.91025192 -0.8971678 0.34558859 0.27506074 0.067098007
-0.010508851 -0.031197369 1.1785387 0.97858799 0.038408283 0.2022137 0.096079066
-0.20260711 -0.019584866 0.9411369 -0.7921291 0.06946329 0.60638791 0.020592272
-0.21854459 -0.05382403 0.92248023 -0.62289643 0.072030783 0.77898109 0.087550342
-0.016151696 -0.00158206 1.1684983 -0.28029177 0.5280661 0.80161256 0.1146846
-0.22914618 -0.041634355 0.91334414 -0.71299851 0.22373188 0.66451275 0.083593518
-0.21180087 0.0011714909 0.91136581 -0.82595003 0.55477023 -0.10018277 0.080482714
-0.22063018 -0.067294165 0.91819829 -0.40380904 0.023378799 0.91454458 0.096873835
-0.02476377 -0.23673761 1.2207288 -0.29129228 0.21416885 0.93235213 0.018042544
0.031067559 -0.12555134 1.1533389 0.59259158 0.59657222 0.54123646 0.024638901
0.053936504 -0.24785382 1.1884699 0.63598496 -0.010078292 0.77163565 0.0052779494
0.087677121 -0.22857068 1.1587694 0.61300659 0.062937103 0.78756702 0.0016487774
0.090021558 -0.26914632 1.1564102 0.61538416 -0.098968044 0.78198951 0.0022787033
0.066227712 -0.25938165 1.1767346 0.64946342 -0.052777857 0.75855905 0.0022241524
-0.24310903 -0.12876177 0.91662222 -0.92253423 0.37723234 0.081403062 0.12002563
-0.061977848 -0.1910592 1.1837133 -0.6730988 0.19240752 0.71408504 0.007505089
0.15566881 -0.27616552 1.1045126 0.61708772 -0.095250629 0.7811082 0.004604456
0.16259228 -0.29883179 1.0922663 0.59208024 -0.51811469 0.6172505 0.047080822
0.069076426 -0.1117489 0.99933052 0.11626902 0.78143483 0.61305881 0.023114031
0.16153164 -0.22630961 1.0986233 0.60693663 0.10780526 0.78740454 0.0001107757
0.12133785 -0.30638063 1.118939 0.43192738 -0.59973383 0.67361569 0.051862732
0.13189529 -0.22809345 1.1222824 0.62268209 0.10476109 0.77543026 0.00071741675
0.27719316 -0.2063587 0.99838907 0.72417504 0.24372803 0.64511025 0.006004246
0.018854633 -0.13373606 1.1709033 0.65348291 0.49062124 0.57641214 0.015086666
0.24909383 -0.033686426 0.97132444 0.022656027 0.17173801 0.98488206 0.048987746
0.20113061 -0.30065379 1.0604601 0.61258501 -0.46705186 0.63765359 0.023240915
0.13001382 -0.17925975 1.1137277 0.51223725 0.27796629 0.8126179 0.002110566
0.19267358 -0.24324811 1.0781655 0.60138851 0.0066303536 0.79892915 0.0018323126
-0.020952586 -0.048379581 1.1736019 -0.99948353 0.01768297 0.026831826 0.077048928
0.12439507 -0.23969822 1.1301219 0.63840175 0.058182359 0.76750106 0.00038340056
-0.17260426 -0.12770951 0.98479414 -0.40387934 0.73757589 0.54116827 0.014658076
0.22503054 -0.24037649 1.0533766 0.59658962 0.057213522 0.80050445 0.0026925739
-0.10476851 -0.30101302 1.1404711 -0.68640941 -0.41466114 0.59740961 0.052849423
-0.24884774 -0.11966144 0.90633309 -0.78935432 0.25555146 -0.55822325 0.089645371
0.16578968 -0.00052463514 1.0251888 -0.069010429 0.97509688 -0.21076895 0.079982884
-0.10450651 -0.1432137 1.0871184 -0.6420905 0.68630469 0.34162199 0.0091073643
-0.14683807 -0.14137432 1.025926 -0.45871297 0.82615852 0.32717669 0.01439207
0.26717651 -0.16380936 0.99180734 0.76333493 0.21437253 0.60939658 0.0092331134
0.024760172 -0.19603595 1.1980708 0.41417187 0.1749081 0.89323503 0.0072904401
0.14220524 0.0066502402 1.0807946 0.31984073 0.84418452 0.43017957 0.0074753114
-0.086599886 0.027643489 0.97419441 -0.072461568 0.99611408 0.05006066 0.0014335386
0.16281818 -0.14049 1.0687157 0.53215909 0.69040912 0.49004275 0.034859404
0.060685497 0.012758083 1.1197871 0.42448103 -0.67293757 0.60578126 0.027284358
0.075193942 -0.11560769 1.0207586 -0.057664182 0.95717734 0.28370133 0.01085444
0.089375935 -0.1023199 0.98899281 0.092361785 0.44797117 0.8892644 0.0093377577
-0.0076923482 -0.083254144 1.1974993 0.98885083 0.14881937 -0.0051804744 0.047711913
0.048434068 -0.17088975 1.1740121 0.63094163 0.30448005 0.71358567 0.00080084288
-0.18533088 -0.13503899 0.98243457 -0.46658936 0.66441274 0.58382356 0.012740416
0.033819806 -0.12113612 1.140741 0.44472653 0.83439779 0.32557431 0.021181498
0.16376369 -0.044329122 0.98469222 0.1349085 0.73136449 -0.66851002 0.10639729
0.29953155 -0.26289585 0.97445303 0.9034695 -0.15604304 0.39924109 0.015186992
0.19974911 -0.21275137 1.067131 0.59632874 0.17033519 0.78446025 0
0.21438311 -0.21576242 1.0570718 0.60064828 0.16830111 0.78159857 0.00073612132
0.27905422 -0.13862982 0.95494998 0.98161495 0.18460052 -0.048524402 0.025392298
-0.027706306 -0.17987624 1.2045016 -0.33650613 0.17640404 0.92501086 0.015613013
0.24335489 0.0085463412 0.96398515 0.85784674 0.49710712 0.13032076 0.09540318
0.27392828 -0.1762006 0.98614115 0.77316892 0.25427422 0.58099431 0.0076034134
-0.20886947 -0.030274536 0.93235546 -0.8118403 0.08766076 0.57726151 0.027233019
0.29641742 -0.26520947 0.97956055 0.88160723 -0.18764368 0.43308014 0.019784903
-0.10441113 -0.20849721 1.1396674 -0.79171169 0.18413818 0.5824824 0.0013087717
-0.008898844 -0.1104925 1.1980759 0.76090181 -0.08024966 0.64388537 0.083129071
-0.1147937 -0.16591357 1.1075867 -0.74635881 0.42046288 0.51590639 0.011437278
-0.050972831 0.0049252198 1.1482283 -0.20938227 0.89889312 0.38490283 0.045464873
-0.035114113 -0.052124072 1.124069 0.92965323 0.36831692 -0.0093574794 0.10230623
-0.052049391 -0.12845631 1.1652992 -0.67221695 0.57122678 0.47098234 0.022669639
-0.20346823 -0.24744903 1.0181984 -0.80435604 -0.045316942 0.59241694 0.0042240834
-0.038063437 -0.094142132 1.1365273 -0.82227147 0.52698994 0.21482819 0.068385378
-0.036193166 -0.092318282 1.1331152 -0.82997209 0.51211214 0.22110491 0.059513777
-0.055095062 -0.14506941 1.1767457 -0.69303215 0.54179251 0.47557041 0.022576505
-0.21132274 -0.120868 0.95265394 -0.44036627 0.65085238 0.61844045 0.035216223
-0.1508451 -0.2863279 1.0854905 -0.79798955 -0.17951952 0.57531339 0.024716223
-0.093265481 -0.2646541 1.1614486 -0.77414376 -0.12473108 0.62059945 0.014705554
-0.091931142 -0.28903168 1.1622624 -0.73737943 -0.24234366 0.6305086 0.031148683
-0.089936145 -0.25981712 1.1672455 -0.7764824 -0.098842576 0.62233853 0.0094860801
-0.096255586 -0.27586374 1.1562045 -0.77119613 -0.11768592 0.62562495 0.018052131
-0.1740099 -0.22321673 1.0506089 -0.75860411 0.15450445 0.63296777 0.0027748356
-0.20764551 -0.13083296 0.96389103 -0.50182968 0.5640772 0.65573156 0.031744704
-0.17300668 -0.20675524 1.0486691 -0.73854178 0.2231486 0.63620806 0.0034473224
-0.064877145 0.0081796562 1.1225542 -0.11547566 0.96042722 0.25346574 0.035128873
-0.079724774 -0.15688163 1.1440872 -0.70139843 0.48741022 0.52006882 0.0078706369
-0.02130151 -0.14980321 1.205263 -0.25180662 0.23895851 0.93781251 0.049681429
-0.23806946 -0.073075332 0.91327763 -0.42947945 0.068599544 0.9004674 0.041381072
-0.13122588 -0.21730959 1.106215 -0.79271299 0.16667198 0.58636731 0.0010471041
-0.13977046 -0.13732457 1.0281802 -0.39991724 0.86211967 0.31115246 0.016141945
-0.21470298 -0.17722128 0.98272651 -0.71794164 0.33754653 0.60878742 0.0036888872
-0.15912682 -0.29635182 1.0780922 -0.80297482 -0.25619027 0.53814322 0.031753086
-0.12443259 -0.13917372 1.0601696 -0.38955161 0.88435698 0.25722033 0.009896501
-0.060508601 -0.11348195 1.1080121 -0.66507602 0.73465246 0.13401355 0.046230275
-0.089356139 -0.16191684 1.1352609 -0.74819165 0.42645964 0.50827295 0.004984282
-0.08356633 -0.19225004 1.1614631 -0.74887758 0.29635999 0.59275043 0.0012687024
-0.068279736 -0.19120143 1.1781579 -0.69257849 0.20917121 0.6903494 0.0053677587
-0.22040842 -0.010548876 0.90959054 -0.90182972 0.35943213 -0.23981573 0.067449018
-0.19477706 -0.2661995 1.0274673 -0.81494057 -0.12811826 0.56520575 0.004712245
-0.26500359 -0.16750102 0.90879154 -0.97918838 0.19948307 0.037373718 0.046629291
-0.17789234 -0.15018271 1.0124985 -0.60557282 0.57491249 0.55023366 0.0097185979
-0.062035941 -0.18746638 1.1842259 -0.67038447 0.2082826 0.71218193 0.0064854356
-0.077813208 -0.24191673 1.1813209 -0.68834865 0.077001229 0.72128141 0.0038482484
-0.18502915 -0.11768085 0.9680509 -0.30545315 0.78359926 0.54099041 0.023402616
-0.097213157 -0.21243472 1.1502013 -0.79013485 0.16412576 0.59055036 0.0003400507
-0.1401668 -0.29486898 1.1031418 -0.76181728 -0.26616555 0.59058475 0.053053949
-0.17493734 -0.24719636 1.0535969 -0.8105135 0.026435925 0.585123 0.0028308209
-0.11532212 0.010776731 0.80767399 -0.25488919 0.92113489 -0.29418039 0.0016721347
-0.23587252 -0.070165522 0.90408647 -0.37071431 0.090982333 0.92427975 0.051292639
-0.23906748 -0.10977491 0.90079015 -0.74778724 0.15543778 -0.64548695 0.1179897
-0.082798421 -0.16046622 1.1414973 -0.73711669 0.43446907 0.51758623 0.0066693607
-0.016739085 -0.13033685 1.203921 -0.14848378 0.3357839 0.93016225 0.12037833
-0.21790192 -0.2086612 0.99334729 -0.75544155 0.23245545 0.61259484 0.002054614
-0.14869195 -0.1522699 0.8084017 -0.59524709 0.28771141 -0.75026864 0.038489092
-0.10176048 0.008028781 1.1046896 -0.1950348 0.95703763 0.21457013 0.0045333365
0.0048116269 0.017290611 1.1387916 0.14074528 0.9798246 0.14189632 0.040704112
-0.25976697 -0.19158334 0.89187777 -0.89812785 0.12981784 -0.42013535 0.020224236
-0.243016 -0.1035347 0.90941131 -0.95272017 0.14159046 -0.26884273 0.10405488
-0.027440559 -0.11123577 0.8089422 -0.51047754 0.85860074 -0.047090463 0.014025974
-0.24752563 -0.21292183 0.87495315 -0.76395005 0.10282222 -0.63703048 0.0019978816
-0.19098514 0.011732915 0.88962018 -0.49994987 0.78844804 -0.35832909 0.049201109
0.043014959 0.015454224 0.73548889 0.15279564 0.98643589 -0.059981324 0.1162706
0.012079051 -0.10159496 0.72572219 -0.74346626 0.48101553 -0.46463102 0.032103781
-0.2364306 -0.078849651 0.91275871 -0.45595014 0.089453958 0.88549846 0.035816863
-0.090750404 -0.29490864 0.746786 -0.64163619 -0.19830944 -0.74092937 0.052666429
-0.1605688 -0.29790759 0.80255806 -0.53553599 -0.32437259 -0.77973306 0.069823943
-0.19765027 -0.25732735 0.82470971 -0.60290283 0.010515707 -0.79774535 0.0010082684
-0.049058117 -0.12575173 1.1586761 -0.6979084 0.57423484 0.42799327 0.032341246
-0.17549141 -0.29045489 1.0529224 -0.82176566 -0.22016303 0.52557528 0.017880069
-0.22035325 -0.15010034 0.86900097 -0.53507429 0.41125593 -0.7379458 0.006506349
-0.20941097 -0.13135849 0.87243694 -0.30228105 0.53291816 -0.79033178 0.02094138
-0.031895868 -0.052725155 1.1040808 0.90118259 0.43026593 0.052356411 0.077872321
-0.09452147 0.012700156 1.0994543 -0.19523834 0.95706195 0.21427672 0.0027911514
-0.11573911 -0.14590456 1.0814724 -0.60570502 0.7129612 0.35328129 0.014124067
-0.015632078 -0.045222752 1.1847878 0.99473071 0.000724493 0.10251961 0.052532904
-0.048429705 -0.12581672 0.78345758 -0.35202879 0.89916337 -0.25996351 0.004153613
-0.13030401 -0.20764159 0.78068894 -0.58613974 0.10881156 -0.80287009 0.00028621868
0.0067375773 -0.058955628 0.77024877 0.94948101 0.24971741 0.19007105 0.068247087
-0.17531504 0.005417821 0.86420506 -0.41031215 0.81558383 -0.4080036 0.035225775
-0.10809288 0.01155612 0.80334306 -0.22072667 0.93669283 -0.27182055 0.0016442084
-0.19236842 0.011157718 0.88459557 -0.54870397 0.6882928 -0.47452819 0.0507541
-0.072605759 0.009482882 0.77527368 -0.16897573 0.90853602 -0.38211182 0.0076125185
-0.073390968 0.00521729 0.76641434 -0.16829884 0.89994889 -0.40220347 0.011732115
-0.05344272 -0.18228008 1.1909068 -0.61031622 0.24351269 0.75380081 0.0060677407
-0.21746624 -0.17486604 0.97976243 -0.71657091 0.34442785 0.60654402 0.0035518107
-0.27123806 -0.25204363 0.91757327 -0.9679693 -0.011287529 0.25081474 0.013454923
-0.20594649 -0.20032394 0.83823806 -0.5946508 0.19731063 -0.77939653 0.00060561812
-0.19969371 -0.19515486 1.0114357 -0.75705409 0.27074239 0.59461558 0.0017585249
-0.23755118 -0.080288254 0.90889162 -0.44912934 0.070958234 0.89064455 0.037467223
-0.20301694 -0.1309959 0.96755129 -0.49072587 0.58486634 0.64584792 0.034086335
-0.0061984155 -0.041142028 0.77167559 0.85671169 0.47776222 -0.19439206 0.080045924
-0.012222816 0.0094255619 1.1743644 -0.16629405 0.64758879 0.7436229 0.11815925
-0.26013064 -0.21380915 0.89202219 -0.88920432 0.040145475 -0.45574549 0.013719945
-0.21187326 0.0028508233 0.90345764 -0.78775853 0.4814111 -0.38429147 0.048987281
-0.19963546 -0.22663575 0.82967949 -0.59141403 0.11246845 -0.79848623 0.00026824264
-0.00027075515 0.0086568082 0.74004018 -0.27076566 0.78334981 -0.55950779 0.051660977
0.00022840918 -0.0098890569 0.73778331 -0.55550236 -0.19719057 -0.80779517 0.055815935
-0.12288062 -0.14958042 0.7911827 -0.58043724 0.48954126 -0.65072417 0.046893869
-0.25412279 -0.25812367 0.87739593 -0.77222902 -0.016256526 -0.63513625 0.0046505118
-0.064883962 -0.13389902 0.78190571 -0.28123194 0.90736902 -0.31239402 0.0055224341
-0.07057751 -0.1277944 0.81849283 -0.26947773 0.93936551 -0.21207127 0.0039540478
-0.064098671 -0.12753461 0.80482876 -0.29854986 0.93066698 -0.21148753 0.003051996
-0.20723544 -0.12448724 0.87867987 -0.24477029 0.60117161 -0.76071036 0.01941032
-0.075895965 -0.27812523 0.73405325 -0.64755815 -0.10939118 -0.75412339 0.0050321808
-0.19563948 -0.16479006 0.99616259 -0.67584902 0.47510162 0.56347716 0.0052843238
-0.13472812 -0.25564924 1.109901 -0.81481749 0.035678171 0.57861871 0.00292307
-0.017822031 -0.13378488 1.2030025 -0.20998678 0.33999702 0.91668296 0.081596054
-0.057549141 -0.11160284 1.1072972 -0.66506279 0.73464179 0.13413769 0.046218891
-0.14927255 -0.2000896 1.0731845 -0.77008981 0.31977525 0.55200136 0.0031533504
-0.16849929 0.015671981 0.88524687 -0.16921039 0.9067322 -0.38627014 0.030972997
-0.0064512552 -0.094687946 0.79111236 -0.81101853 0.56801343 -0.140035 0.0076008053
-0.065814994 -0.21558845 0.72918749 -0.62073863 0.18778494 -0.76119673 0.001595088
-0.068994865 -0.11293457 1.0756145 -0.44386825 0.88795668 0.12047384 0.022578273
-0.051722605 -0.13705659 1.1687987 -0.68136704 0.55724657 0.47456849 0.019609913
0.054367915 -0.29101682 0.65060019 0.074026302 -0.29202989 -0.95354015 0.053840563
0.0009536366 -0.079443187 0.81273907 -0.8685869 0.462385 -0.17820473 0.0045067975
-0.056594856 -0.18214723 1.1870502 -0.62824672 0.22232698 0.74557143 0.0045365421
-0.059312966 -0.10912659 1.0295905 -0.41625088 0.90793663 -0.048848357 0.0061240899
-0.26918077 -0.24895035 0.89936346 -0.96162826 0.046201311 -0.27043754 0.027969252
-0.13472837 -0.14593621 0.80492216 -0.55709231 0.55716217 -0.61580712 0.043516301
-0.058168959 -0.10978367 1.0609206 -0.52039355 0.8538053 0.014388378 0.014631348
-0.20305862 -0.16882899 0.84532064 -0.55862629 0.33936629 -0.75681382 0.0023932713
-0.074008323 -0.26295909 0.73044336 -0.65045643 -0.047919929 -0.7580303 0.0031009316
-0.20676072 -0.19590466 1.0003184 -0.74715012 0.29279414 0.59668946 0.0013497974
-0.2579512 -0.27129829 0.94144821 -0.85777181 -0.14488436 0.49318963 0.0086623989
-0.04173338 -0.12025345 1.1538068 -0.68763572 0.63481909 0.35236609 0.010241856
-0.11614337 0.0075983275 1.089375 -0.22473602 0.95247138 0.20565002 0.0033889459
-0.10024112 0.0095610749 1.1027352 -0.19623519 0.95677054 0.21466704 0.0036362885
-0.10200912 -0.26028624 1.1516243 -0.78013307 -0.082403056 0.62016296 0.0085782176
-0.041263115 -0.031514935 1.1135851 -0.85161483 -0.37552851 0.36569181 0.1251443
-0.038952999 -0.030499291 1.1089488 -0.86346519 -0.40615383 0.29911005 0.1644886
-0.18685518 0.010913636 0.96423191 -0.67386895 0.59966975 0.43162119 0.043759119
-0.16560437 -0.2007098 1.0543492 -0.72496027 0.29002529 0.62475425 0.0037182937
-0.26344073 -0.24352571 0.93478072 -0.90783799 0.045064237 0.41689262 0.0063772891
-0.11934375 -0.23237614 1.1257949 -0.79011565 0.12014994 0.60106683 0.00030067595
-0.16643123 -0.26000798 1.068272 -0.81034797 -0.013924736 0.58578336 0.0030169571
-0.14042139 -0.23426439 1.0976087 -0.79831016 0.092807531 0.59505266 0.0010250659
-0.13739921 -0.24125269 1.104355 -0.80444133 0.078469992 0.58882648 0.0020714418
-0.27019978 -0.23294884 0.90862155 -0.99321353 0.11595529 0.0090185525 0.026182897
-0.22981146 -0.035043873 0.90486908 -0.87353271 0.30697098 0.37776896 0.084245726
-0.097959906 -0.14184043 1.1052661 -0.69918603 0.55758023 0.44748539 0.015613987
-0.26740798 -0.22138248 0.91819823 -0.96935171 0.18247679 0.16449788 0.024182811
-0.19402631 0.013603371 0.88437277 -0.50737149 0.74394006 -0.43488777 0.046524175
-0.045319974 -0.12133361 0.80642951 -0.36122146 0.91915107 -0.15710026 0.0023817713
-0.25624579 -0.27561894 0.8788892 -0.79359049 -0.06170439 -0.60531533 0.0081535196
-0.070821531 -0.12487562 0.82723993 -0.2284788 0.92051506 -0.31693751 0.0085100094
0.17678009 0.012509734 0.84581959 0.22531074 0.9727602 -0.054520916 0.017772285
0.13876817 0.011536669 0.7922976 0.25041085 0.92488635 -0.28614622 0.00035022816
0.21225263 -0.059464462 0.96626633 -0.19758847 0.40816578 0.89126849 0.1542031
0.20663077 -0.026335593 0.93543845 0.53057599 -0.63562602 -0.56077498 0.077821694
0.21982461 0.0096571427 0.94009662 0.88829184 0.17529422 -0.42451084 0.096152693
0.17533205 0.01148027 0.84923887 0.21658112 0.97602397 -0.021673862 0.023264943
0.19658235 -0.16103069 0.82409298 0.77069312 0.25590324 -0.58356285 0.00090917666
0.10155242 -0.18472688 0.69521773 0.64246351 0.23327206 -0.7299484 0.0045500095
0.048234694 -0.091467313 0.6975708 -0.49995524 0.33011118 -0.80066937 0.17325859
0.05593602 -0.028386168 0.69932038 -0.27342495 0.31100747 -0.910227 0.059002016
0.051240064 -0.064451769 0.67494905 -0.8902694 -0.15955453 -0.42657092 0.089292161
0.052632164 -0.08820682 0.67249155 -0.48254177 0.0090824338 -0.87582594 0.1426008
0.13568147 -0.1580402 0.74591607 0.71632987 0.34439892 -0.60684502 0.0027615342
0.055915009 -0.22526142 0.65494466 0.14246432 0.16105202 -0.97660953 0.019972585
0.11725055 -0.17502281 0.71546143 0.73280299 0.25303832 -0.63164181 0.00064953859
0.13908502 -0.25349116 0.72495389 0.79158145 0.033867776 -0.61012441 0.00072531326
0.12449564 -0.29023093 0.71123558 0.65438455 -0.38072163 -0.65332365 0.037531968
0.10223521 -0.18265684 0.69687194 0.65052491 0.24905841 -0.71748668 0.0042672963
0.05374663 -0.10890183 0.67737031 0.02971654 0.13365975 -0.99058169 0.14239508
0.19353263 -0.26637629 0.80303901 0.82905376 -0.16003148 -0.5357796 0.0029170027
0.051218361 -0.095497362 0.6731292 -0.21938285 0.14461294 -0.96486175 0.12648726
0.18050851 -0.19914693 0.787992 0.78493458 0.14045401 -0.60344881 0
0.06631539 -0.21607879 0.66102195 0.3514773 0.17151305 -0.92035151 0.011549817
0.084676996 -0.12540109 0.71195221 0.62648624 0.6385448 -0.44696248 0.044555765
0.24578798 -0.14966181 0.89208502 0.71504819 0.42669752 -0.55374676 0.0049325228
0.13751744 -0.083668694 0.97035891 0.090140216 0.3960132 0.91380984 0.0110336
0.24096763 -0.16158681 0.87992841 0.74762785 0.3243255 -0.579539 0.0019975486
0.16170862 -0.19258258 0.76565737 0.77706712 0.18559606 -0.60143226 0
0.27422383 -0.17302516 0.92502874 0.88037026 0.22835235 -0.41569632 0.0031114523
0.077069953 -0.3006869 0.66527361 0.46831402 -0.58263975 -0.66423863 0.074873336
0.11294077 -0.2444905 0.69377095 0.72744501 0.04304396 -0.68481451 0.002095788
0.27537346 -0.17289913 0.92811781 0.88139039 0.23267245 -0.41111365 0.0031671058
0.27995139 -0.16180147 0.94598645 0.94558293 0.19823825 -0.25802028 0.012508426
0.21457238 -0.21490523 0.82967168 0.77993023 0.13222794 -0.61173886 0.00010582327
0.16663688 -0.23886247 0.76095951 0.8134622 0.045839071 -0.57980859 0.00080714014
0.050441347 -0.22602677 0.65464455 0.067975253 0.15613607 -0.98539376 0.017354654
0.11309905 -0.13930491 0.7335608 0.61214668 0.62401563 -0.48567572 0.019984825
0.10572744 -0.17157324 0.70384347 0.68082541 0.27867299 -0.67736119 0.0033806225
0.055104744 -0.25306156 0.65275651 0.16912948 0.017639089 -0.98543596 0.0081238216
0.21765697 -0.1265897 0.88571441 0.61133063 0.61441684 -0.49876523 0.0025308211
0.21127665 -0.2364105 0.82020432 0.8025462 0.023050988 -0.59614444 0.0029615287
0.28597698 -0.17661574 0.94830686 0.94315779 0.25313205 -0.21535429 0.011354388
0.12337046 -0.24004641 0.70485026 0.7582705 0.07785067 -0.64727509 0.0013107604
0.068683811 -0.2258773 0.66027582 0.36377287 0.15439384 -0.91860318 0.011487478
0.084042102 -0.11410684 0.72437936 0.45272338 0.85413563 -0.25591788 0.067439929
0.20851885 -0.069563977 0.91271633 0.93429774 0.34681928 -0.082486585 0.043741427
-0.016862513 -0.28142577 0.68203193 -0.57591301 -0.068584114 -0.81462908 0.0061083669
-0.13154896 -0.15705518 0.80034494 -0.60198724 0.38666329 -0.69864362 0.035624452
-0.024812145 -0.15229891 0.71076781 -0.67058319 0.39040482 -0.630795 0.013575358
-0.18420352 -0.20976245 0.82075018 -0.59520829 0.12234324 -0.79420352 0
-0.050998423 -0.15656172 0.74101013 -0.58620226 0.43460467 -0.68372929 0.015794471
-0.096220136 -0.3093437 0.75384879 -0.54470867 -0.65590703 -0.52256906 0.18076025
-0.050575852 -0.30761096 0.71886796 -0.42471072 -0.75364423 -0.50163859 0.087688811
-0.055987205 -0.12599121 0.80214792 -0.34038901 0.91761202 -0.20523988 0.0025365164
-0.0099414121 -0.30653611 0.68172544 -0.53910053 -0.40523052 -0.73834872 0.069634072
0.015330567 -0.27558786 0.66250306 -0.46281105 -0.063540734 -0.88417673 0.0050027617
0.0060764099 -0.26453981 0.66782129 -0.50321692 -0.016673397 -0.86399925 0.0029106492
-0.25247279 -0.304869 0.87970853 -0.68203682 -0.5298816 -0.50403506 0.070675001
-0.25221416 -0.30412892 0.87537962 -0.71279067 -0.37321478 -0.59383512 0.052773125
-0.17331629 -0.30289248 0.80910027 -0.54014146 -0.32498422 -0.77629411 0.076259173
-0.071808822 -0.093165897 0.89210552 -0.20383945 0.57888788 -0.7895177 0.011170154
-0.027666375 -0.13953181 0.73525095 -0.53997856 0.68323189 -0.49154592 0.012952557
0.013659598 -0.26911238 0.66262168 -0.46711415 -0.053340662 -0.8825866 0.0050756051
0.030738711 -0.10486069 0.6851759 -0.57435298 0.23981993 -0.78269088 0.11120039
-0.013872063 -0.11552646 0.74934852 -0.62355387 0.71422899 -0.31789541 0.0167962
-0.19931906 -0.23018847 0.8289836 -0.59369552 0.10603739 -0.79767269 0.00048146854
-0.13977253 -0.29056826 0.7836892 -0.499744 -0.20343354 -0.84194463 0.027839955
-0.016601495 -0.11922658 0.75145525 -0.57314265 0.7276395 -0.37689292 0.014480617
-0.074529789 -0.13667813 0.78341168 -0.24445577 0.92470849 -0.29181436 0.0059679248
-0.23069143 -0.30437487 0.85225636 -0.61353481 -0.41173431 -0.67383224 0.061818022
-0.080448218 -0.224236 0.739012 -0.63529646 0.15281102 -0.75699884 0.0015636185
0.031784683 -0.12252595 0.67988712 -0.20522098 0.26794469 -0.94132352 0.027074322
-0.03074711 -0.2796768 0.69420767 -0.6476869 -0.059788629 -0.75955707 0.0029284859
-0.028105384 -0.11403141 0.81841487 -0.50984764 0.81937182 -0.26207849 0.014940958
-0.066748559 -0.13626045 0.77927995 -0.26569185 0.90330106 -0.33683097 0.003936179
-0.041968636 -0.14513764 0.7381981 -0.48085865 0.62503314 -0.61490536 0.018789344
-0.10099382 -0.13883328 0.78659683 -0.3487193 0.86211205 -0.36763799 0.018881705
-0.21502927 -0.24895522 0.83755171 -0.62434238 0.027909009 -0.78065211 0.0016648169
-0.061437126 -0.30661085 0.71930534 -0.62361676 -0.33778313 -0.70498562 0.058914352
-0.065478697 -0.26089969 0.72503972 -0.66112304 -0.016288992 -0.75010073 0.0013228623
-0.26317793 -0.19509499 0.89862382 -0.93875146 0.098893508 -0.33009952 0.02109479
-0.10559387 -0.11774724 0.84778106 -0.11185858 0.88030761 -0.46102723 0.0062183985
-0.13436712 -0.12383736 0.84323102 -0.22471797 0.84323603 -0.48831841 0.011065812
-0.11100549 -0.13786295 0.80447191 -0.41057548 0.84105796 -0.35220611 0.022715194
-0.10829197 0.011828152 0.80504191 -0.22270449 0.93693453 -0.26936305 0.0017306906
-0.10557039 0.01151616 0.80200779 -0.22029433 0.9360978 -0.27421021 0.0015029442
-0.0766818 0.0069383467 0.77215493 -0.21834515 0.88455451 -0.41217566 0.0017080308
-0.016293449 0.021051655 1.1069576 0.1602352 0.97591579 0.14803082 0.023856234
-0.18009141 -0.10912341 0.88807839 -0.016305014 0.49820229 -0.86690742 0.026584536
-0.14449516 -0.078818649 0.90822583 -0.096137948 0.83075917 -0.54826701 0.058728047
-0.14337629 -0.15607619 0.81364316 -0.6008243 0.29369211 -0.74347502 0.037371069
-0.11495426 -0.095111869 0.89505959 -0.083899766 0.65763837 -0.74864721 0.011297864
-0.089348823 -0.077619545 0.90314555 -0.18620184 0.44504821 -0.8759343 0.022933472
-0.073326856 -0.057990361 0.9017424 -0.1830564 0.12279147 -0.97540385 0.013234503
-0.20491262 -0.082724698 0.90620738 -0.35728666 -0.050535891 -0.93262655 0.098765723
-0.11541019 -0.089509055 0.89879686 -0.082921475 0.6398744 -0.76399267 0.0098596141
-0.07987725 -0.23257621 0.73745972 -0.64097023 0.1196087 -0.7581892 0.001074729
-0.070323683 0.0051303352 0.76569861 -0.162504 0.89968526 -0.40516526 0.011491976
-0.017579071 -0.11966538 0.75004816 -0.59424067 0.72897488 -0.33981436 0.016279489
-0.079343937 -0.00078941503 0.76071328 -0.21062922 0.88054752 -0.42458376 0.0036068135
-0.034838203 -0.1329845 0.75115401 -0.45783815 0.76730031 -0.44903731 0.0061501358
-0.0078951363 -0.046789378 0.77885514 0.91196686 0.3913351 -0.12317971 0.092462555
-0.047858786 -0.15547107 0.73289323 -0.61344731 0.38866356 -0.68747574 0.012215918
-0.0071473122 0.0074315048 0.73563761 -0.32592508 0.71006274 -0.62416637 0.053093858
-0.002774298 -0.0032058693 0.72994816 -0.53166807 -0.10569341 -0.84033209 0.062322728
-0.050816856 -0.24704915 0.71100855 -0.64124954 0.048900031 -0.76577276 0.00068072812
-0.031703722 -0.2794542 0.69331425 -0.64546049 -0.048979584 -0.76222157 0.0024650183
0.011923071 -0.064938664 0.76978624 0.93110085 0.28169364 0.23173241 0.052262865
-0.041657776 -0.16957948 0.72313774 -0.67312235 0.28006229 -0.68444967 0.0099933101
0.0055237962 -0.016725294 0.73208559 -0.57862812 -0.25083944 -0.77605999 0.053921457
-0.21608594 -0.17356271 0.85434002 -0.60033947 0.27095866 -0.75244534 0.0029074422
-0.056897715 -0.080812901 0.89280415 -0.36265019 0.39857867 -0.84238946 0.016700435
-0.020555336 -0.14944687 0.70937073 -0.66090018 0.40359399 -0.6327107 0.013496258
0.031280577 -0.12284916 0.67833591 -0.19431774 0.26988783 -0.94308066 0.027811319
-0.11097497 0.00512248 0.7930463 -0.24650666 0.92036289 -0.3035894 0.001718558
0.024654886 -0.027205771 0.70826197 -0.75635773 0.11236237 -0.644436 0.059759755
0.0081217187 -0.018899525 0.73099482 -0.69351304 -0.28770849 -0.66050243 0.066126123
-0.14952359 -0.15282406 0.81132722 -0.5858205 0.27824557 -0.76117915 0.04018008
-0.10369613 -0.13744272 0.80010909 -0.35375264 0.88495338 -0.30284745 0.023212729
0.025069991 -0.044944406 0.70381618 -0.96064609 -0.01936264 -0.27709961 0.0650905
-0.18275365 -0.12961066 0.86424536 -0.29699051 0.74638814 -0.59556812 0.014131
0.028444683 -0.14244592 0.67460126 -0.37311822 0.18417336 -0.90932006 0.012463815
-0.11880176 -0.14917681 0.78425574 -0.54967147 0.51473904 -0.65795511 0.056970354
-0.022741761 0.0043616416 0.74559432 -0.26659477 0.84995168 -0.45443296 0.04750026
-0.095941126 -0.30610111 0.75206345 -0.69289798 -0.27185467 -0.66782296 0.13737306
-0.019328285 -0.094655052 0.83471209 -0.75018513 0.55193704 -0.36412609 0.027083805
-0.011005596 -0.30967522 0.68110698 -0.54314446 -0.42752376 -0.72264618 0.066225894
0.045506608 -0.22946531 0.65284294 0.014470916 0.14349338 -0.9895454 0.016678922
-0.00045107267 -0.029607279 0.8103897 0.88184613 0.32045841 0.3459101 0.015334602
0.0065181889 -0.088794395 0.73968697 -0.7324754 0.50308061 -0.45868266 0.063768573
-0.060081828 -0.14888097 0.74230748 -0.56787765 0.54873306 -0.61352015 0.026115034
-0.038890142 -0.1427462 0.73926258 -0.46526784 0.66880816 -0.57984614 0.016724113
-0.20234415 -0.081290573 0.90348428 -0.46008033 -0.24554826 -0.853248 0.090118326
-0.26221982 -0.19101082 0.89730507 -0.92833114 0.11964561 -0.35197467 0.021040007
0.012693238 -0.058384564 0.74048156 -0.95525706 -0.062215313 -0.28915954 0.095322363
-0.01022994 -0.10934366 0.75552267 -0.702802 0.61966228 -0.34941077 0.034636401
-0.11519138 -0.15205991 0.78768474 -0.51032066 0.52037847 -0.68467438 0.062587194
0.047200106 -0.23808314 0.65197778 0.10850496 0.12421854 -0.9863044 0.014231729
-0.055403661 -0.12644383 0.7956717 -0.3373495 0.91426426 -0.2243126 0.0030303828
-0.081338905 -0.22407353 0.73983228 -0.63472444 0.15293556 -0.75745326 0.0013593032
0.069253504 -0.29950184 0.65996134 0.32686728 -0.54455566 -0.77240992 0.10421087
-0.071779862 -0.14521199 0.75828338 -0.53626764 0.68720186 -0.4900721 0.025522614
0.051588763 -0.25579527 0.65217435 0.017202387 -0.0011877716 -0.99985129 0.0087585384
0.0053427615 -0.076170884 0.79333216 -0.95645261 0.22243662 -0.18899848 0.028861143
-0.26395521 -0.25992048 0.88667023 -0.86830997 -0.0081591774 -0.49595481 0.0083288345
-0.12901932 -0.084439397 0.90199143 -0.032846127 0.6604346 -0.75016493 0.016728407
-0.028702987 -0.25339723 0.69271427 -0.62615633 0.036911018 -0.77882344 0.0010986391
-0.2157018 -0.21367379 0.8433516 -0.63070631 0.13508414 -0.76417398 0.00033998617
-0.0025183598 -0.11333898 0.72542399 -0.71256137 0.5899424 -0.37976849 0.018121073
-0.1280957 -0.15485843 0.80049908 -0.56574124 0.47084448 -0.67693597 0.03792249
-0.23699695 -0.060674336 0.9109329 -0.44258818 0.096622474 0.89150429 0.057220284
-0.2698493 -0.21442588 0.90626371 -0.96071637 0.10535375 -0.256758 0.011637116
0.034851801 -0.056815829 0.69218332 -0.87404019 -0.22702877 -0.42954823 0.10811581
-0.25405243 -0.20139191 0.88504022 -0.82195204 0.11612395 -0.55759311 0.007039838
-0.2348752 -0.045239877 0.9087584 -0.57706881 0.18587242 0.79526287 0.11812911
0.050612587 -0.065684967 0.67584008 -0.89456123 -0.15967742 -0.41744855 0.080021232
0.052600648 -0.10353982 0.67524713 -0.10557038 0.15474321 -0.98229808 0.12132569
-0.021498602 -0.28598359 0.68505883 -0.60454416 -0.12460801 -0.78676504 0.010688424
-0.036183752 -0.31063151 0.7149843 -0.24877639 -0.87964308 -0.40538651 0.084443346
-0.08865492 -0.13646463 0.78703517 -0.28320381 0.90416139 -0.31982452 0.012062963
0.047650646 -0.20555547 0.65786761 0.00380053 0.18072477 -0.98352629 0.017915355
-0.074607357 -0.09438552 0.88585001 -0.16289 0.67788583 -0.71689451 0.0089833457
-0.25586879 -0.14224671 0.90645123 -0.93423146 0.26011825 -0.2440287 0.068481699
-0.03279357 -0.21469077 0.70149881 -0.62104517 0.15367788 -0.76856095 0.00036122144
-0.21807368 -0.13120498 0.88660038 -0.4156518 0.43722773 -0.79753715 0.023269713
-0.25155148 -0.21785004 0.87716466 -0.78411764 0.082721956 -0.61507452 0.0020632469
-0.053468794 -0.097762853 0.87269646 -0.35533088 0.74127424 -0.5694319 0.013496775
0.044623218 -0.070202537 0.67875081 -0.87351435 -0.058156781 -0.48331201 0.07893651
0.013841347 -0.30509526 0.66406006 -0.35613251 -0.49308407 -0.79374915 0.065510862
0.035823364 -0.060290471 0.69160962 -0.89299387 -0.19039862 -0.40781161 0.099010788
-0.21900718 -0.27701595 0.84057742 -0.64395964 -0.074555814 -0.76141798 0.0020523698
0.04075383 -0.30706322 0.65293652 -0.061703775 -0.59160292 -0.80386478 0.074570492
0.0065497602 -0.045183975 0.74418461 -0.84345376 -0.24354626 -0.4788225 0.081004471
0.011627773 -0.26728681 0.66439569 -0.4877677 -0.043541428 -0.87188691 0.003524716
0.061046172 -0.21577309 0.65929151 0.23889768 0.18268825 -0.95370483 0.015486545
0.012958389 -0.27705869 0.66226393 -0.46453151 -0.072303556 -0.88260001 0.0045989258
0.10066319 -0.17833678 0.69649631 0.64432174 0.25432184 -0.72122812 0.0041985465
0.08088921 -0.2285247 0.66656196 0.48487413 0.13821596 -0.8635934 0.0071536452
0.1185204 -0.13901998 0.74102145 0.63128895 0.48166925 -0.60783958 0.008387032
-0.13203871 -0.15642907 0.79961491 -0.59928298 0.39255226 -0.69768375 0.037561394
-0.24689007 -0.1146565 0.90705442 -0.79512507 0.12886642 -0.59259564 0.092076018
-0.16716103 -0.29114693 0.79757756 -0.59048277 -0.098616943 -0.80100238 0.018434685
-0.16880527 -0.2480751 0.80374783 -0.58049208 0.014541226 -0.81413603 0.0011527134
0.057154059 0.030253818 0.82186365 -0.020847499 0.99703407 -0.074083686 0.0017924677
-0.063477963 -0.25472569 0.72064698 -0.6661455 0.013521048 -0.74569923 0.0011376803
0.029303787 -0.13808765 0.67697883 -0.34474763 0.18543731 -0.92019677 0.012761872
0.21094567 0.0034314909 0.96197218 -0.36615458 0.91627979 -0.1623641 0.16207556
0.04865589 -0.0924033 0.67178804 -0.33111897 0.12193736 -0.93567705 0.12186852
0.0052384101 -0.26418388 0.66697204 -0.50321692 -0.016673397 -0.86399925 0.0029106492
0.14187443 -0.15576576 0.7550534 0.73654431 0.31771737 -0.59712499 0.0021669501
-0.10290764 0.0064714137 0.78671229 -0.23700306 0.90644795 -0.34954494 0.0024921196
-0.10042167 0.027604546 0.96645147 -0.11593333 0.99261856 0.035606556 0.0022116893
-0.24213021 -0.11277676 0.90115714 -0.74269259 0.16360667 -0.64933848 0.091429591
-0.13951881 -0.28569108 0.78159541 -0.60866773 -0.070550382 -0.79028237 0.0039596362
-0.22743046 -0.15617487 0.86600488 -0.56946707 0.34300721 -0.7470296 0.0050455634
0.21972056 -0.12720768 0.88756222 0.61966217 0.60618335 -0.4985584 0.0025645962
-0.021093458 0.0008831548 0.74511307 -0.5344969 0.47393233 -0.6997866 0.098296806
0.04974509 -0.011633905 0.70510572 -0.22230975 0.33313462 -0.91629672 0.0081468215
-0.14592569 -0.21620564 0.79110307 -0.59738028 0.096521944 -0.79612833 0
0.27358437 -0.074725546 0.96725249 0.45719528 -0.11588537 0.88178396 0.037607491
0.2066178 -0.068076514 0.96507317 0.17926756 0.47175097 0.86331582 0.19626562
0.10887769 -0.13852893 0.7282837 0.63301355 0.61433673 -0.47104579 0.023328668
0.17595227 0.013163199 0.85431021 0.18465513 0.98275018 -0.010229911 0.021202141
0.20745316 -0.052180324 0.96203661 0.59887409 -0.41217846 -0.68662858 0.15606654
0.066025153 -0.0019284056 0.74196857 0.30536479 0.70235342 0.64300227 0.051800825
0.12450892 -0.2861751 0.71197349 0.67838639 -0.29486459 -0.67293894 0.01727305
-0.057191871 -0.24707223 0.71679622 -0.64335132 0.053465202 -0.76370192 0.0010753348
0.13095537 0.014547931 0.7934407 0.19964272 0.94948393 -0.24212168 0.00071872515
0.092361383 -0.11908264 0.73452121 0.67579871 0.64370596 -0.35908023 0.03619526
0.1089599 -0.28020626 0.69253069 0.71669728 -0.16722231 -0.67703897 0.0052528474
0.052145507 -0.22588809 0.65381622 0.08846163 0.15812171 -0.98344904 0.016514499
0.051059108 -0.085110798 0.67632055 -0.40834564 0.0021658482 -0.91282481 0.12782231
0.1881358 -0.26068658 0.79561007 0.82991469 -0.13158308 -0.5421508 0.0034225779
0.047215406 -0.079607233 0.69521457 -0.86210054 0.072304644 -0.50155228 0.12659781
0.1000188 -0.2960436 0.69528067 0.64958179 -0.43199652 -0.62563771 0.044447519
0.10950702 -0.27969015 0.69273269 0.71564746 -0.16273919 -0.67923826 0.0058312812
-0.064360291 -0.30776405 0.72443992 -0.60221988 -0.41484264 -0.68208265 0.086319879
0.25401336 -0.22695218 0.87325817 0.76207876 0.13744546 -0.63272792 0.0011461416
0.24957824 -0.18712874 0.87968904 0.76291126 0.23219225 -0.60336822 0.00065000268
0.055675708 -0.27633369 0.6553266 0.13292561 -0.11033878 -0.98496509 0.025801646
0.12844856 -0.23650458 0.71166283 0.77667397 0.092412882 -0.62308693 0.00082701986
0.092861503 -0.28328043 0.6780259 0.66061032 -0.24192947 -0.71067864 0.018314125
0.19417064 -0.049802262 0.94969153 -0.18885866 0.67764872 0.71072119 0.066955484
0.20908499 -0.035955355 0.94168407 0.52718943 -0.69896305 -0.48324105 0.08248584
0.051046856 -0.030447552 0.69688356 -0.30746093 0.35482058 -0.88293272 0.054823365
0.16884859 -0.24286309 0.76424211 0.81478769 0.03207197 -0.57887161 0.00080220419
0.15811884 -0.27445644 0.75010699 0.81362647 -0.083682939 -0.57533383 0.0017253092
0.1695815 -0.26951912 0.76482046 0.83465469 -0.070263691 -0.54627335 0.0015880488
0.047659997 -0.090660557 0.68248993 -0.38868651 0.10486919 -0.91538256 0.13393742
0.1987408 -0.25670695 0.80975389 0.82863295 -0.13523844 -0.54321086 0.002957131
0.10647146 -0.17257291 0.70441663 0.68082541 0.27867299 -0.67736119 0.0033806225
0.14196037 -0.17451514 0.74634856 0.76080245 0.25254196 -0.59783131 0.00069646555
0.16821079 -0.19599 0.7727381 0.78134042 0.16295011 -0.60245687 0.00053528574
0.19721992 -0.27374375 0.81217986 0.82977742 -0.17563045 -0.52973902 0.003557008
0.0010727516 -0.22562803 0.67423463 -0.54557699 0.13330521 -0.82739079 0.0016028926
0.097517572 -0.18218134 0.69259959 0.62001258 0.2389024 -0.7473352 0.0036288048
0.11922062 -0.24676111 0.69879586 0.73609591 0.056586042 -0.67450786 0.0012916607
0.1545383 -0.19107282 0.75640631 0.77487904 0.20327504 -0.59853297 6.4613298e-05
-0.024905967 -0.28198209 0.69039118 -0.6230548 -0.062863231 -0.77964801 0.0057457103
0.051187593 -0.056448061 0.67720413 -0.62754834 0.26774517 -0.73109198 0.13754295
0.24446538 -0.18834898 0.87300551 0.75152957 0.22614978 -0.61972553 0.00035433995
0.21565621 -0.032987837 0.95743614 0.73680019 -0.62323213 -0.26212063 0.13975371
0.12366267 -0.24544619 0.7036826 0.75590485 0.050557125 -0.65272647 0.0013586651
0.18754308 -0.15561107 0.81439787 0.80346376 0.25537029 -0.53780305 0.00092514214
0.065689526 -0.22310504 0.65869766 0.3280212 0.15281458 -0.93222839 0.015523355
0.050064329 -0.25811103 0.65154576 0.0039875377 -0.025547165 -0.99966568 0.0097984355
0.049847208 -0.2010857 0.65657032 0.023552343 0.18823862 -0.98184091 0.01508292
0.094593734 -0.28529945 0.67692703 0.66061032 -0.24192947 -0.71067864 0.018314125
0.10998571 -0.24162577 0.68930233 0.72009641 0.058397297 -0.69141227 0.0023517206
0.03615455 -0.11261403 0.67953646 -0.21158238 0.22150894 -0.95192784 0.061377745
0.17313445 -0.019584363 0.93761653 0.46019959 0.64294136 0.61224395 0.059521731
0.10332743 -0.24360986 0.68250793 0.68219167 0.045236178 -0.72977269 0.0026177596
0.043051559 -0.270733 0.65166032 -0.14702235 -0.029158743 -0.98870331 0.011993701
0.0042431755 -0.0028468987 0.7279501 -0.500543 -0.098917745 -0.8600418 0.080656782
0.20866053 -0.16764595 0.8363533 0.7655946 0.27432841 -0.58190107 0.00027908265
0.12281276 -0.2456207 0.70320648 0.75315815 0.044219844 -0.65635151 0.0016104302
0.14157806 -0.17344804 0.74637514 0.75804645 0.26266921 -0.59696764 0.00058825512
0.20260637 0.0083013056 0.88392037 0.61296797 -0.64550591 -0.45562312 0.030030247
0.20170674 -0.030679179 0.93250901 -0.35036683 0.74954104 0.56163269 0.098744884
0.17518905 -0.041429359 0.94466221 0.20636354 0.5995307 0.77328968 0.032429904
0.080430195 -0.010176875 0.71396327 0.89041072 -0.44700253 -0.085775957 0.095755063
0.28127378 -0.16176233 0.9495734 0.9750824 0.13867678 -0.1731562 0.011948745
0.059172463 -0.2844924 0.65366334 0.22365761 -0.14937502 -0.9631533 0.035648797
0.010184939 -0.17942002 0.67667723 -0.50261384 0.19342044 -0.84259593 0.0049678222
0.21145144 -0.21302843 0.8260209 0.78074861 0.14362261 -0.60811514 0.00030996589
0.24408385 0.019203186 0.96754479 0.85406828 0.50501812 0.12459561 0.087698922
0.08244022 0.0098534385 0.72598821 0.5062682 0.74628556 0.43214631 0.11334269
0.0042280606 -0.27602801 0.66850626 -0.50731844 -0.059754431 -0.85968441 0.0028865989
0.027959565 -0.30000609 0.6596638 -0.26506984 -0.40942013 -0.87299085 0.073107995
0.038594846 -0.059015155 0.68754452 -0.88039571 -0.13325146 -0.45513457 0.10978173
0.051184528 -0.16726214 0.66562474 -0.034248997 0.15433279 -0.98742515 0.027334694
0.2806423 -0.14628325 0.97301984 0.9540084 0.18376082 0.23685451 0.023045566
0.0079754805 -0.2960473 0.66974765 -0.45245984 -0.2467735 -0.85696143 0.040476985
0.16008127 -0.23428261 0.75247061 0.7957539 0.073020831 -0.60120195 0.00040891866
0.088966653 -0.1210685 0.71809518 0.64132392 0.62664407 -0.4427425 0.032604601
0.019236289 -0.2926434 0.66219878 -0.38856697 -0.22108907 -0.89450282 0.039824434
0.22408716 -0.16279288 0.8595404 0.74496514 0.31706408 -0.58693892 0.0013711508
0.20232381 -0.031915136 0.93809712 -0.30120379 0.7713021 0.56068659 0.080454886
0.0041528433 -0.16888578 0.68426865 -0.56508988 0.20065358 -0.80025721 0.0052366946
0.2756021 -0.11966345 0.96631843 0.88790017 0.16552596 0.42922533 0.049286548
-0.035481814 -0.30639875 0.70698214 -0.36175096 -0.7479369 -0.55653089 0.097864904
-0.0030843941 -0.29106057 0.6725567 -0.52132672 -0.16956961 -0.83634001 0.023001021
-0.055754118 -0.30814794 0.71581036 -0.51430839 -0.55171025 -0.65658408 0.076084606
0.0052493913 -0.2280232 0.67132384 -0.4998948 0.13935959 -0.8548007 0.0027736649
0.010428448 0.00092243368 0.72829139 -0.40254265 0.076590665 -0.91219151 0.0998706
0.052626021 -0.01460724 0.70330983 -0.23723118 0.31536895 -0.91883826 0.0067171915
0.090043597 -0.22579403 0.67338485 0.58904535 0.13009109 -0.79755992 0.0026011718
0.029289719 -0.10058229 0.69093335 -0.63521689 0.34926569 -0.68884903 0.09767767
0.049332779 -0.2249715 0.65414363 0.056695938 0.15836072 -0.98575222 0.019366208
0.043056481 -0.12556477 0.67699456 -0.11897434 0.26957011 -0.955603 0.025157988
-0.068355143 -0.23191214 0.72804117 -0.63443565 0.1208327 -0.76347286 0.0011497998
-0.072699048 -0.28755111 0.73389524 -0.63091415 -0.1814239 -0.75434256 0.028993169
0.055372439 -0.24197985 0.65285617 0.21830621 0.096592627 -0.97108823 0.0087502468
-0.030146886 -0.24339147 0.69488674 -0.6256687 0.073297657 -0.77663773 0.0011162282
-0.070021123 -0.23066735 0.72960311 -0.63449824 0.12847292 -0.76217234 0.00088101998
-0.080519766 -0.29431561 0.74290478 -0.55888736 -0.26204434 -0.78675145 0.07773152
-0.0081374664 -0.28037158 0.67486113 -0.54298866 -0.076138355 -0.83628118 0.0043935711
0.003625843 -0.30708873 0.67706525 -0.43771046 -0.5197289 -0.73368347 0.089137487
0.031191602 -0.2975238 0.65695959 -0.22450528 -0.32063222 -0.92021322 0.061847437
0.057028737 -0.25579718 0.65249979 0.17599376 0.011163137 -0.98432797 0.0085070804
0.023470744 -0.21698083 0.66236061 -0.38185224 0.099974103 -0.91880029 0.0062885867
0.012495681 -0.014375852 0.72096568 -0.70848459 -0.16274482 -0.68670493 0.073617443
0.27895388 -0.14724331 0.97402716 0.93992156 0.2019659 0.27524024 0.021675127
0.034380458 -0.14202687 0.67366916 -0.31676143 0.18749505 -0.92978913 0.013890025
0.014886563 -0.15455852 0.67977792 -0.48815832 0.21942195 -0.84472215 0.0045824144
0.11441097 -0.17335537 0.7126047 0.72669077 0.25687024 -0.63713276 0.00072761765
-0.0046234624 -0.30593082 0.67646509 -0.54810786 -0.37617403 -0.7470414 0.062912412
-0.0043753893 -0.26563868 0.67389596 -0.55443937 0.013657831 -0.83211201 0.0018566755
0.19946656 -0.043751847 0.96326983 0.85180068 -0.32592484 -0.41013244 0.12890311
