# .PCD v0.7 - Point Cloud Data file format
VERSION 0.7
FIELDS x y z
SIZE 4 4 4
TYPE F F F
COUNT 1 1 1
WIDTH 1397
HEIGHT 1
VIEWPOINT 0 0 0 1 0 0 0
POINTS 1397
DATA ascii
0.1583043 -0.25849649 0.41341549
0.20065869 -0.2589578 0.17541111
0.2089203 -0.2585319 0.1449526
0.2057191 -0.24657179 0.2045901
0.1702818 -0.2612814 0.1418245
0.2272808 -0.25850591 0.22971649
0.081858337 -0.1617514 0.37664729
0.069266737 -0.12557469 0.3681041
0.1009511 -0.1102154 0.39828971
0.1001644 -0.041097391 0.39550051
0.01531959 -0.1656557 0.31100541
0.1038087 -0.1919724 0.39709121
0.02929122 0.0066044182 0.33166301
0.1198462 -0.2068961 0.4122386
0.06856773 -0.073854432 0.3650569
-0.01482567 -0.16877051 0.285422
0.01508217 -0.2072046 0.3115133
0.088833831 -0.24145439 0.3752287
-0.039816111 -0.22364859 0.25896859
0.02894509 -0.21153361 0.326561
0.056106661 -0.1534564 0.35152861
0.081423663 0.02460276 0.3811563
0.01617465 -0.083267063 0.31754029
0.068790257 -0.1892225 0.3641659
0.070935391 0.01473702 0.37122649
0.083327338 0.056882579 0.37915519
0.096348092 -0.054134961 0.38917801
0.0056605558 -0.1140198 0.30708751
0.036917571 -0.192197 0.33000541
0.097814612 -0.1381831 0.39053231
0.1030334 -0.002223179 0.4043375
0.02703882 -0.1396971 0.3236475
0.005746834 0.007110849 0.31092781
0.1169754 -0.17513169 0.41348171
0.086816132 -0.01184475 0.38193709
0.029187029 0.003064886 0.3341077
0.01075945 -0.14247499 0.31078589
-0.0090430938 -0.15786549 0.2916216
0.021349389 -0.042129889 0.326188
-0.0078782514 -0.18269341 0.28930929
-0.026228409 -0.17013501 0.2789439
-0.0051644221 -0.2151057 0.28771001
0.036736261 -0.22288769 0.32528171
-0.035779752 -0.21017531 0.26879171
-0.038223401 -0.21819571 0.26919511
-0.01723557 -0.1824494 0.28310639
0.02290996 -0.2124092 0.31771889
0.02936147 -0.2388951 0.32053199
0.0066494122 -0.19939759 0.295322
0.00093961513 -0.2281366 0.30061999
0.02129887 -0.14956249 0.32101521
-0.01814441 -0.1938031 0.2819396
0.07502605 -0.1144692 0.3707853
0.018419569 0.037877049 0.3187848
0.01313365 0.032324221 0.31385431
0.0163709 0.025703579 0.32136509
0.04552909 -0.016736239 0.34702241
0.092543051 -0.1570231 0.38459909
0.01331457 -0.046199769 0.31458479
0.01528493 -0.052891519 0.31929511
0.068587117 -0.1664214 0.3638657
0.1145423 -0.089191511 0.40994951
0.0028169269 -0.0232624 0.30723751
0.066842377 -0.1474769 0.3619388
0.088469908 -0.04448143 0.37946311
0.01282791 0.02027428 0.3169564
0.107266 -0.2161558 0.39802819
0.02097011 0.0020200911 0.32459071
0.031654239 -0.027942089 0.3339802
0.086086422 -0.2178593 0.3763676
0.080134667 -0.0050518662 0.38164169
-0.01710932 -0.1406655 0.28608471
-0.003743272 -0.080097467 0.30108389
0.1226496 -0.2267087 0.42813709
0.01528274 -0.2273075 0.31047079
0.062594943 -0.087653503 0.3614457
0.028784949 -0.207974 0.3268137
0.001641385 -0.1945063 0.28888249
-0.04824312 -0.1755368 0.27384081
0.071914479 -0.2445994 0.36417231
0.1176332 -0.2519674 0.4172833
0.1158457 -0.1313356 0.4101654
0.088755041 -0.1732941 0.38111061
0.02820747 -0.1020323 0.33094731
0.04539521 0.044923279 0.349879
0.1169167 -0.1358043 0.41164729
0.061932229 -0.1923286 0.3560814
0.1196744 0.003602281 0.4128451
-0.01620196 -0.24398559 0.2531563
-0.1824282 -0.1140404 0.41133669
0.119596 0.0038840619 0.41251019
0.12761229 -0.25964001 0.1213281
-0.006386973 -0.2222247 0.29629979
0.036950439 -0.2305329 0.33642131
0.02337729 -0.21144199 0.31580961
0.01538646 -0.2225282 0.30291939
0.029961821 -0.23906019 0.32120231
-0.079512171 -0.12843931 0.30088279
-0.073406018 -0.1113435 0.29391289
0.0054418971 -0.1156654 0.30853879
-0.04726861 -0.076531842 0.2659719
-0.042694431 -0.1043103 0.27009469
-0.02886055 -0.128566 0.27335319
-0.072847933 -0.1998166 0.29507479
-0.077831343 -0.1355436 0.298619
-0.008251451 -0.18478709 0.2927711
-0.061057929 -0.1200982 0.28259361
0.036822721 -0.195179 0.3341333
-0.018664669 -0.1322585 0.28594011
-0.075105332 -0.17193259 0.2961944
-0.026303601 -0.16359781 0.26834881
-0.042071391 -0.1897244 0.26935589
-0.008992061 -0.1593648 0.29477701
-0.096295297 -0.1409528 0.31471449
-0.095952399 -0.1406718 0.31407481
-0.1828904 0.00473839 0.41126281
-0.1696607 0.058740739 0.41059291
-0.096236847 -0.1412151 0.3146598
-0.096419267 -0.1411774 0.31465831
0.095815413 -0.05310886 0.38329589
0.06221753 -0.1921211 0.35517699
0.062081311 -0.19209971 0.35499111
-0.096417591 -0.1413307 0.31513831
0.097170077 -0.22542711 0.38189241
0.062039219 -0.19140349 0.35426939
-0.068676174 -0.06167027 0.2954253
-0.0090339109 -0.1635742 0.2988548
0.038333591 -0.2365365 0.340855
0.031322271 -0.19427229 0.335031
0.1217504 -0.2122948 0.41789049
0.1069952 -0.219047 0.39801049
-0.097480699 -0.1435485 0.31394649
-0.1272822 -0.1190393 0.3487882
0.070363827 -0.1852877 0.36459869
-0.078155138 -0.135915 0.30303261
0.077244103 -0.1136153 0.37165499
0.056712098 -0.18609729 0.34783119
-0.1877231 -0.1202723 0.42102921
-0.16314781 -0.1175934 0.38960499
-0.1211371 -0.1400326 0.34485361
-0.1274029 -0.1320775 0.34961781
0.1030225 -0.2263937 0.39650831
-0.126964 -0.2206568 0.3475101
-0.13266081 -0.1495177 0.35758519
-0.01676731 -0.1210471 0.3011142
-0.1036315 0.008924216 0.33455119
-0.090933211 0.03060399 0.31542519
-0.04742321 -0.1163311 0.26697779
-0.1542239 0.01264668 0.39353389
-0.17912801 -0.039925981 0.41721299
-0.17873231 -0.029491041 0.42059949
-0.17867739 -0.1140209 0.4178066
-0.22999009 -0.2583316 0.32595181
0.081135117 0.02595669 0.3802686
-0.1207782 -0.24902371 0.34469131
-0.087710463 -0.1737327 0.31427419
0.01989595 0.05077916 0.39564621
-0.17229749 0.056619141 0.4532401
-0.086647153 -0.21807911 0.30434349
0.01435316 -0.1285941 0.32041511
0.001013301 -0.2120503 0.3038069
-0.1219167 -0.2152936 0.34520769
-0.076979242 0.05693144 0.37920389
-0.096990637 0.053651512 0.3386358
-0.030083099 -0.13308629 0.27674249
-0.026331469 -0.033967789 0.2852785
-0.02759872 -0.0071122348 0.2875486
0.1012896 0.047038201 0.40045029
-0.1197788 0.056582838 0.36778319
-0.076248974 -0.1367839 0.3027344
-0.24098819 -0.2459053 0.2030548
-0.032387018 0.049081061 0.58712709
0.06112963 0.05990088 0.4201034
-0.05875542 0.0293057 0.28108931
-0.045128781 -0.1011893 0.27415171
-0.0071010292 0.063384213 0.53233308
-0.01458355 0.069559783 0.46936899
-0.071744323 0.030103181 0.2953876
-0.05994359 -0.09490484 0.27723071
-0.077531122 -0.020623 0.30081171
-0.060083769 0.038956199 0.28205749
0.068596907 0.05583936 0.4619748
-0.005124398 -0.083889566 0.2991581
-0.01723741 -0.1492759 0.28841251
-0.082922123 -0.079301894 0.30056229
-0.15079451 -0.17933349 0.3740415
-0.174641 -0.03386071 0.41333219
-0.1079194 0.041065101 0.3371259
-0.060894031 0.018950051 0.2802844
-0.1653893 -0.15311369 0.39499789
-0.1227057 0.05366328 0.41095099
-0.071512721 0.051192101 0.35575759
-0.066469401 -0.024637399 0.2874516
-0.025612781 -0.018130479 0.28565931
-0.027940679 0.0049245362 0.28398681
-0.05239078 0.054258559 0.33699989
-0.018230241 -0.0084559619 0.2907449
-0.1842172 -0.04459155 0.4098736
-0.01298464 0.055266891 0.51755112
-0.026783001 -0.1518431 0.27742749
0.01849119 -0.1878407 0.31420049
-0.05713024 0.051562339 0.389669
-0.068263099 0.05317536 0.38683021
-0.05551672 0.056350801 0.3500008
-0.1019355 -0.093188263 0.3281801
-0.095147491 -0.01092207 0.3198899
-0.1189464 -0.1321931 0.33731309
-0.088806987 -0.1283959 0.31126049
-0.064356081 -0.15993039 0.2886703
-0.050918009 -0.1446075 0.2711933
-0.005993396 -0.037507061 0.3060542
-0.00030245629 -0.1659449 0.29381299
0.1141725 0.05604684 0.42541611
0.01234611 -0.23278929 0.26206899
-0.01751459 -0.022686779 0.29266581
-0.1809824 -0.065517813 0.412175
-0.01522297 -0.23916671 0.253369
0.074191593 -0.25930369 0.29682711
-0.076993316 -0.1168084 0.30193129
0.02547287 -0.25064281 0.2829234
-0.0643472 0.06182453 0.51832181
0.074271917 0.058365319 0.41160589
-0.09181568 -0.1253386 0.29959321
0.051424179 0.060750809 0.41442239
-0.1381993 0.056323141 0.4703978
-0.048018519 -0.1196995 0.26738271
-0.1212058 0.027404839 0.3663666
-0.1154645 -0.082669407 0.34915441
-0.095064193 -0.1205127 0.3220444
-0.1574509 0.00026679039 0.397879
-0.1230328 -0.1346606 0.3501786
-0.16982269 -0.087844402 0.41031641
-0.1839228 -0.1012387 0.42204869
-0.1676378 -0.1124134 0.3989839
-0.2326546 -0.248336 0.56815553
-0.043410931 -0.098989993 0.27172709
-0.1652867 -0.073032469 0.39754289
-0.075828277 -0.088028759 0.2947019
-0.05301613 0.05381909 0.48192051
-0.1775495 -0.1308545 0.42557031
-0.13291501 -0.19165941 0.3598401
-0.1176649 -0.191669 0.340873
-0.092728078 -0.14936741 0.3167218
-0.030102789 0.05557489 0.42221951
-0.13100021 -0.040692542 0.35747761
-0.13934819 -0.1776213 0.35466611
-0.1567398 -0.1410647 0.38185209
-0.1541452 -0.064240433 0.41441241
-0.170375 0.01602092 0.4252941
-0.17877451 -0.093382977 0.4325496
-0.1012704 0.041744322 0.34603319
-0.120302 -0.2425344 0.79247838
-0.07415399 0.06123504 0.41750869
-0.015841659 -0.2459662 0.2566295
-0.1171399 0.02634275 0.347242
-0.05160087 0.03295818 0.26798779
-0.1691117 0.067940652 0.40285349
-0.1586637 0.056300219 0.3878186
-0.097022243 0.002198935 0.3171871
-0.1238899 0.071549483 0.48504221
-0.02224982 0.058859941 0.3462958
-0.073476613 0.059959199 0.32288089
-0.1612131 0.0076935291 0.3879579
-0.071182132 0.044773672 0.2882705
-0.049232069 0.058659881 0.26815411
-0.09428823 0.061260849 0.32057959
-0.069620728 0.04804549 0.2893233
-0.1049706 0.026234239 0.33125871
-0.17061611 0.052689161 0.40203699
-0.105347 0.0106234 0.32676041
-0.1439034 0.059881449 0.3868964
0.081074603 0.063604496 0.4030973
-0.094679236 0.067479461 0.4225938
0.040620029 0.047917571 0.3236858
-0.061371211 0.0624603 0.30879739
-0.136059 0.067457847 0.36456791
-0.1692121 0.04979023 0.40093869
-0.1693996 0.065606058 0.41015759
-0.1606051 -0.0069783032 0.38657331
-0.085807741 0.028416039 0.3020407
-0.1228474 0.066927113 0.34834549
-0.1337899 -0.036923379 0.3530359
-0.1151133 -0.1225895 0.3370229
-0.1829316 -0.034664631 0.41251251
-0.1955574 -0.221929 0.41867879
-0.1810454 -0.20536581 0.41909879
-0.1880049 -0.1862389 0.41660851
-0.1390733 0.01241308 0.36151919
-0.060430881 -0.05092454 0.27660391
-0.061931912 0.048825439 0.27874461
-0.077569783 -0.085487187 0.29351139
-0.1022126 -0.0083640218 0.32322419
0.004020751 0.066281289 0.37126219
0.08387202 0.063946873 0.41628751
0.051652789 0.063502699 0.40379289
-0.13841879 -0.1789865 0.3527281
-0.1577491 -0.1123579 0.37907559
0.047227561 0.064830422 0.41909271
-0.16842151 -0.068056174 0.3856945
-0.1662008 0.0088440478 0.39445779
-0.1792025 -0.027945099 0.4028475
-0.1832886 0.0038762391 0.41462129
-0.1690391 0.066509992 0.4226684
-0.1743492 0.061706129 0.41812059
-0.1205189 0.064395577 0.49676791
-0.16594949 0.06168193 0.42392129
-0.19098569 0.04825845 0.42809719
-0.001621604 0.075884998 0.48847419
-0.0239079 0.065211028 0.53780758
-0.1538576 -0.017576899 0.37668419
0.02687645 0.06217131 0.34952131
-0.057121161 0.061232358 0.3804912
-0.065826118 -0.016286461 0.27803889
-0.1685874 -0.1469532 0.38960931
-0.1306466 0.062826812 0.36275801
-0.073354781 0.0343014 0.28089201
-0.14270429 -0.056505531 0.35792249
-0.1720552 -0.1031333 0.3935591
-0.046769321 0.068369657 0.56075788
0.023053531 0.063758582 0.5050652
-0.035819769 0.064509273 0.57345217
-0.1723613 0.069083691 0.43754989
-0.1901762 -0.0117186 0.42161891
-0.1803598 -0.1672461 0.40601131
-0.1638525 -0.02979234 0.3872602
-0.1851553 -0.1598351 0.4079695
-0.072784193 0.068092316 0.41438779
-0.1761542 0.030409159 0.40828961
-0.1621639 -0.04081127 0.3883608
-0.1836188 -0.074109077 0.41331041
-0.1815711 -0.19855949 0.40590999
-0.1000559 0.02222258 0.31998071
-0.1931511 -0.1006598 0.43404779
-0.15402821 -0.03106183 0.37559181
-0.1091295 -0.178939 0.32255509
0.0099827647 0.061092321 0.4385812
-0.096324921 -0.13494439 0.30844149
-0.1388099 -0.15130781 0.3536503
-0.17220969 0.065154552 0.4379127
-0.1629684 0.068203241 0.44453561
-0.1731904 -0.01243713 0.4044978
-0.1325552 -0.13004211 0.3528814
-0.092167743 -0.1966137 0.3078492
-0.1582524 -0.030757491 0.38334379
0.076640837 0.064902417 0.4060286
0.04431409 0.06157184 0.43368661
0.045718551 0.062158879 0.437594
0.056625899 0.0595617 0.4192659
0.074801743 0.058106009 0.37732261
0.074336953 0.068623722 0.37785429
-0.03896749 0.06486401 0.40620789
-0.1516818 -0.01518011 0.37343711
-0.082723081 -0.1241111 0.2942948
-0.1582296 -0.1582156 0.37576061
-0.1401048 0.0047703981 0.361936
-0.1039335 -0.089517891 0.3248885
-0.0069275498 0.06062955 0.3061308
-0.1062494 -0.090738744 0.32322571
-0.15622351 -0.1038021 0.37628901
-0.1137878 -0.20316391 0.32289499
0.0044183731 0.064452112 0.32100731
0.048078358 0.059170309 0.4526341
-0.058062311 0.066888511 0.48003209
-0.1341273 0.065497957 0.48673129
-0.09329927 0.067413837 0.51406819
-0.1761844 -0.18896221 0.3985275
-0.05525488 0.065020047 0.46052149
-0.1747476 -0.1830069 0.39593679
-0.1736996 -0.1120455 0.3959178
-0.1799411 -0.047500972 0.41073021
-0.077881217 0.062534541 0.42687091
-0.15603399 0.0086807609 0.38449651
-0.1684947 -0.1038104 0.38957351
-0.028380871 -0.210344 0.59437388
-0.194352 -0.109224 0.4128671
-0.1009948 0.06190506 0.3928023
-0.1630028 -0.1420311 0.38549069
0.099147499 0.04240495 0.39166519
-0.086916924 -0.02232343 0.2986185
-0.047055598 0.070310153 0.53624862
-0.17438351 -0.084304512 0.40433699
-0.080080807 -0.25956401 0.56931633
-0.004942358 0.067273997 0.48082021
0.016730011 0.064990878 0.40642589
-0.1211397 -0.2099752 0.3306264
-0.1946086 -0.048753019 0.42581961
-0.073967583 0.068387806 0.49199831
-0.1456756 -0.025197361 0.3655141
-0.1201804 -0.18245509 0.33514711
-0.058331192 0.063359439 0.37223101
-0.19156849 -0.053662181 0.42291021
-0.05471402 -0.1187434 0.27737361
-0.055571679 0.060812589 0.36061981
-0.1107998 -0.072142839 0.51008672
-0.19235259 0.01376384 0.43318841
-0.13328379 -0.033117559 0.3533363
-0.179709 -0.1064858 0.40425071
-0.1145555 -0.2489786 0.51673299
-0.07452029 0.068378657 0.41417369
0.069719851 0.054365631 0.37505969
-0.1391111 -0.17950261 0.3535327
-0.1614178 -0.1343468 0.3775824
-0.079181373 0.059041109 0.33082291
-0.1741533 -0.004332751 0.4022679
-0.1490555 -0.1595493 0.48200321
-0.052884489 0.060793132 0.57437742
-0.017573711 0.05648673 0.3139008
-0.14380421 -0.0089621246 0.47974101
-0.072846591 0.059906691 0.3127152
0.032888532 0.065165728 0.4715023
0.0053901081 0.060779478 0.46020451
-0.090979397 0.06110492 0.44535571
0.01494342 0.068081111 0.47415611
-0.19238549 -0.02641207 0.43095201
-0.1636281 -0.22707181 0.47151339
-0.1519482 -0.24032471 0.4879505
-0.15833481 -0.2426592 0.47951469
-0.14811601 -0.1580653 0.36287269
-0.1112635 0.066283382 0.3733359
-0.070833623 -0.01318556 0.27920651
-0.052308921 0.067071438 0.37667161
-0.097451814 -0.0080646873 0.3126733
-0.091251373 0.032034639 0.31037009
-0.078188658 -0.042147491 0.28842941
-0.1272326 -0.117051 0.3402153
-0.1806272 -0.1508774 0.4482109
-0.099500723 0.059970919 0.3756277
-0.1895743 -0.100059 0.4366962
-0.075786352 0.060109761 0.3748863
0.1193013 0.058998849 0.40096319
-0.094812512 0.0072634821 0.31668371
-0.18673401 -0.21551891 0.4089587
-0.078018486 -0.1008303 0.2869187
-0.05511355 -0.058412161 0.27796039
-0.1858802 -0.1200925 0.40516421
-0.0033341651 0.066729523 0.35350171
-0.02734804 0.064033508 0.29738
-0.0294722 0.067361772 0.57671809
-0.0357241 0.067951471 0.56819308
-0.2260256 -0.2354338 0.56613618
-0.040167179 -0.071786612 0.57486629
-0.042967562 -0.059516549 0.56350237
-0.016586181 0.067274928 0.50827152
-0.089048088 0.066116482 0.42322829
-0.01998085 0.06418094 0.34426689
-0.01029533 0.064917617 0.53423661
0.058034699 0.059523791 0.48105279
0.1046472 -0.1669592 0.41813329
-0.01105881 -0.22457211 0.56680048
0.0056788619 0.060927931 0.3699733
0.1061637 -0.069538742 0.41653109
0.034293059 -0.027666811 0.50159341
-0.017787101 -0.02805835 0.53311968
0.02361867 -0.035280589 0.52432197
-0.003796533 0.01066852 0.54329443
-0.017488491 0.06529516 0.56853038
-0.1394541 0.058182482 0.36831889
-0.1149107 0.068682037 0.3873294
0.11099 -0.17282771 0.413647
-0.036764558 0.059552699 0.57967412
0.1072525 -0.1231049 0.41260499
-0.035842661 -0.1323223 0.57087731
0.087825753 0.056040291 0.4503895
0.1115943 -0.2300614 0.4142991
0.1074033 -0.01178759 0.41820779
0.01786321 0.083481312 0.53046018
0.1113547 -0.078478493 0.416935
-0.03638595 -0.2171573 0.57708561
0.037111521 -0.1794398 0.50329357
0.062571608 -0.005121469 0.47723091
0.05181098 0.015957 0.4878251
-0.076322109 0.069572844 0.53054339
0.042043362 0.059006091 0.4974899
-0.033649381 -0.1135254 0.56938618
-0.033321261 -0.0074224169 0.57709777
0.093192101 0.02256125 0.43154979
0.02325335 -0.063571267 0.52170938
-0.019154759 -0.066016197 0.56685817
0.092098743 -0.080450773 0.44999671
0.04875109 -0.027696131 0.48746929
0.057961229 -0.2133984 0.49027681
0.073762543 -0.1643755 0.4653129
0.049905241 0.064372987 0.4378857
0.0024666339 0.06151557 0.54190332
0.1126619 -0.098592341 0.41574669
0.06494078 -0.041202102 0.47831419
-0.0061566532 -0.13157789 0.55095088
0.003999263 -0.078472666 0.54429662
0.050478339 -0.1226766 0.48734379
-0.007693484 -0.1267225 0.55973858
0.0063576102 -0.01292977 0.55136788
0.01309523 -0.2031749 0.5444634
0.062091429 -0.1757898 0.48408991
0.081048399 -0.04978776 0.46379909
-0.01014163 0.064208329 0.4186258
0.074560463 0.064629078 0.42976639
-0.056610879 0.062580504 0.3154963
0.0001043081 0.058094561 0.54766989
0.02058539 0.054616541 0.51617479
0.064241529 0.065611571 0.45219129
-0.042776112 -0.090750843 0.58080238
-0.019631211 0.05885205 0.56643242
0.1077572 -0.126582 0.4173983
0.1119164 -0.01840407 0.41458231
0.1095922 -0.19807421 0.4145155
0.1059053 -0.2325957 0.4126986
0.067898527 -0.027933421 0.47363219
-0.01484764 0.073113471 0.48119909
-0.01169892 -0.2121219 0.56227827
0.003233254 -0.16683429 0.54656899
0.003407717 -0.13021129 0.54859698
0.067175299 -0.1687489 0.48932949
0.07429751 -0.21916869 0.46331701
0.066803403 -0.081580132 0.46856889
0.089387707 -0.165033 0.44897699
0.00274083 0.016991051 0.55092138
0.050295889 -0.09559226 0.4921653
0.074230313 -0.18565691 0.46453801
-0.1445805 0.062755637 0.39418271
-0.146676 0.073715717 0.38620129
0.0092172027 0.060656101 0.32006949
-0.070347428 0.065926462 0.42658931
0.082989663 0.065018237 0.401584
-0.01119876 0.069032103 0.5466122
0.02396046 0.06105506 0.51732892
0.057224572 0.065013617 0.42059359
-0.04223245 0.030885611 0.57303268
0.03868717 0.056293581 0.5001018
-0.035106018 -0.103289 0.57659709
-0.054832879 0.068859369 0.50392741
0.1123546 0.044348061 0.41925901
0.1023906 -0.068631798 0.42026341
0.087450981 0.056699779 0.43998539
0.1029264 0.058304489 0.43214571
-0.032262828 -0.164607 0.58184582
0.02087939 -0.038243111 0.52653831
-0.01842344 -0.094556898 0.56550843
0.093929857 -0.14379559 0.45204899
0.002574086 -0.090712398 0.54956633
0.030816199 0.063673168 0.39918041
0.1005634 0.0094125867 0.4412469
0.049218599 -0.064910769 0.50041699
0.085703067 -0.01059014 0.44909751
0.087599993 -0.01171631 0.45211551
0.028941659 -0.092804521 0.5249874
0.035839502 -0.178976 0.50771272
0.097110093 -0.21461339 0.4478105
-0.1152709 0.063885242 0.34668171
0.02362195 0.064979762 0.35267329
-0.1252861 0.065775447 0.39824909
-0.129455 0.06807977 0.3449426
-0.00097483402 0.066016227 0.40791759
-0.1108645 0.064558327 0.39935479
-0.07119897 0.068593651 0.4674854
0.05736592 0.056081619 0.48006901
-0.014386 0.06962204 0.55772489
0.1022828 0.066023953 0.43013719
0.1129161 -0.13943399 0.41610649
-0.03752264 -0.0089971134 0.57794279
-0.020440821 0.023465371 0.56885672
-0.01067489 0.040661249 0.55861551
-0.0078261197 -0.02657545 0.56011927
0.1043535 -0.04971835 0.43175799
-0.094048977 0.068482608 0.48289999
-0.027481319 -0.1619014 0.58063293
-0.05372322 0.068991452 0.47082701
-0.05343318 0.068351857 0.38655901
-0.086145967 0.065056831 0.33475691
0.02215275 0.064265341 0.40884909
-0.072312407 0.063227206 0.33058491
0.002671421 0.069112003 0.36291251
0.0037501161 0.064650618 0.30348739
0.051721219 0.065442681 0.45433801
-0.038295571 0.067638807 0.48973441
-0.0039111078 0.066177577 0.464407
0.086887121 0.066702724 0.4254384
-0.04379198 0.067463927 0.50673199
0.1212102 -0.1049062 0.41725031
-0.023296211 -0.16220149 0.58057272
0.1024095 -0.01131469 0.42091259
0.067031316 -0.1720005 0.47620931
0.084628128 0.032140579 0.45478481
-0.025618671 -0.1533116 0.57637882
-0.030646861 0.023704231 0.58157712
-0.026813511 -0.150984 0.57286268
-0.03255197 -0.07859394 0.58331662
0.036979262 0.006712466 0.50024229
0.031525079 -0.17292809 0.51652002
0.096130133 -0.051708668 0.44518259
-0.022763969 0.01790032 0.57650542
0.036576752 -0.2158215 0.50810921
-0.0023212431 -0.1871426 0.5570277
0.09179467 -0.225706 0.45218909
-0.0086987913 -0.080708273 0.55896538
0.087295771 -0.034918401 0.45970669
0.0077983742 -0.082842499 0.53477108
0.04900733 -0.1943896 0.49761119
0.062730908 -0.02199417 0.48287109
0.066582978 -0.061694201 0.47081199
0.05406785 -0.082224607 0.48743299
0.01675299 -0.092852801 0.53607231
0.056984931 -0.0528014 0.486965
0.023340169 -0.081730038 0.52315468
-0.04354918 0.062439799 0.273581
-0.043195691 0.058058951 0.2795842
0.052555919 0.068405002 0.4001908
0.05523932 0.06079581 0.40566611
0.01011109 -0.2332821 0.62969208
0.01747313 0.067081451 0.51480061
-0.038494471 -0.2227416 0.59881377
-0.022250591 -0.2267797 0.59309733
-0.020759819 0.068038046 0.34224069
-0.1671169 0.069184244 0.4157775
-0.1159849 0.06477052 0.35419321
-0.1390439 0.053309321 0.48520809
-0.156932 -0.23542181 0.46709549
-0.1934831 -0.2230318 0.41255021
-0.1207519 0.068089277 0.4812502
-0.13542581 0.03065962 0.492396
-0.1077203 -0.043089151 0.50081491
-0.070118837 0.056693729 0.5519017
-0.042531371 0.02086377 0.57724142
-0.07874316 -0.1045972 0.531358
-0.1205093 -0.1325777 0.49511549
0.01056707 0.063881099 0.34493309
-0.1579282 -0.053788509 0.47538951
-0.1208832 -0.1736934 0.51717728
-0.1123046 -0.08488816 0.51927811
0.057239171 0.064835012 0.4132494
-0.079589069 -0.1247495 0.5468325
-0.1240146 0.037051082 0.50732428
-0.144372 -0.21677171 0.4908241
-0.1060548 -0.068167567 0.52386832
-0.128768 -0.22971401 0.49676469
-0.051995281 -0.073126607 0.57432961
-0.069379687 -0.1496789 0.56156057
-0.1001787 -0.1218503 0.53753942
-0.045883302 -0.058868531 0.57771581
-0.11013 0.071843803 0.50968969
-0.083647728 0.01325023 0.55191141
-0.1926534 -0.1614621 0.4529672
-0.084436767 -0.1672993 0.54668611
-0.1044127 -0.2089766 0.52887142
-0.1802015 -0.2316526 0.4589909
-0.063968897 -0.089768708 0.56644881
-0.1092008 -0.15280969 0.5228979
-0.13383719 -0.20128191 0.50310051
-0.1411318 -0.16930629 0.4948608
0.063079357 -0.2344799 0.5919199
0.094523311 -0.22298691 0.55976993
-0.062584519 -0.019895339 0.56319523
-0.18187021 0.051867869 0.42474219
-0.070236683 0.033321202 0.55533439
-0.1714146 -0.093731277 0.4446297
-0.1065525 0.01762652 0.52389628
-0.1148039 0.0084714592 0.51663399
-0.071829677 0.073001564 0.52885139
-0.1744812 -0.1193811 0.4636572
-0.1416835 0.047937602 0.48623571
-0.085428298 -0.1835054 0.54800618
-0.064764142 0.01530322 0.56233442
-0.095510013 -0.03885496 0.53594083
-0.1837201 0.0040166378 0.45209199
-0.18821511 -0.015945461 0.446282
-0.1055076 0.050227731 0.52289879
-0.070646226 0.065523326 0.55695188
-0.1048034 0.01374799 0.52554399
-0.13332801 0.05608207 0.49504319
-0.064705789 0.044241581 0.56471932
-0.09219563 0.04016408 0.53769583
-0.17969909 -0.1725606 0.42849651
-0.14890189 -0.1477776 0.4904919
-0.14399929 -0.072201252 0.49126789
-0.1235218 -0.1920927 0.51598591
0.13063321 -0.19190601 0.4488183
-0.091375053 -0.1952005 0.54683042
-0.12926701 -0.2198112 0.50564992
-0.16773561 -0.049840208 0.44558501
-0.1113813 -0.0059760511 0.5196538
-0.15895469 -0.19441 0.48474991
-0.1539111 0.070658207 0.4035098
-0.054015338 0.071646146 0.48305219
-0.071847081 0.069088787 0.31221849
-0.185349 -0.036939919 0.45555961
-0.096150637 0.070438303 0.50875318
-0.1271449 -0.075891383 0.5197106
-0.1696576 -0.079000592 0.4722679
-0.1708387 -0.1037338 0.47352839
-0.1027011 -0.1704284 0.53767669
-0.1735722 -0.21096671 0.4761152
-0.1239626 -0.1398827 0.52184999
-0.1041602 -0.2311887 0.53373629
-0.035082579 0.075246207 0.57579118
-0.037565831 -0.084572017 0.58024073
-0.038339611 -0.16905031 0.59171611
-0.1062019 -0.22944941 0.64726108
-0.1880344 -0.085305989 0.45692989
-0.18885811 -0.2221577 0.57647592
-0.13087741 -0.057158168 0.5094614
-0.18305691 -0.054160241 0.45663369
-0.1724629 0.01546854 0.47000641
-0.1264285 -0.1137387 0.52008098
-0.18238001 -0.1467748 0.46045709
0.066437423 0.078453124 0.4283995
0.03000981 0.076525152 0.50489569
-0.071825556 -0.1626516 0.57197797
-0.05366677 -0.093501151 0.58999568
-0.071610749 -0.21277151 0.56476581
0.01381159 -0.2275109 0.64674002
-0.16174071 -0.2135801 0.4846606
-0.0043100119 0.074675262 0.35312769
0.02434236 0.077928543 0.38976669
-0.1395189 0.01367855 0.4827399
-0.1221376 -0.22502971 0.51241112
-0.052028421 0.056452692 0.58159828
-0.090208471 -0.15996259 0.55221641
-0.1307842 -0.036478698 0.49202049
-0.1531515 -0.1650894 0.49243709
-0.2275867 -0.2359347 0.57546443
-0.094047837 -0.2156799 0.7771318
-0.1062726 0.0439744 0.52990639
-0.067547619 -0.022309059 0.5704962
-0.14919101 -0.2220585 0.66472262
-0.099095881 -0.21204691 0.7800405
-0.17552041 -0.21027081 0.2256514
-0.085400462 -0.2249151 0.67085397
-0.23992249 -0.23094951 0.29295361
-0.062651344 0.04865098 0.54415089
0.074000843 -0.2097569 0.68159962
-0.031889021 0.063990153 0.2831066
-0.1609925 -0.064708233 0.4610101
-0.086915746 0.064649612 0.41025379
-0.1238939 0.055735081 0.4755916
-0.032835361 -0.23303039 0.58075643
-0.1733641 -0.01098555 0.40180871
-0.183807 -0.02491826 0.4263584
-0.1775403 -0.1953005 0.4163723
-0.1658535 0.067415617 0.3974112
-0.1012739 0.05584538 0.32650459
-0.1041092 -0.085719474 0.31796101
-0.052672029 -0.1534919 0.26562059
-0.069488049 0.048034281 0.28239971
-0.191349 -0.002512366 0.40859789
-0.187334 -0.019723419 0.39950341
-0.1781248 -0.1437082 0.40208751
-0.18784399 -0.1856012 0.4086681
-0.1031035 0.03237069 0.32419601
-0.1573769 0.01043203 0.3822782
-0.1578978 0.065808617 0.3685838
-0.063469432 -0.01419199 0.2696546
-0.061509609 0.02921504 0.27003169
-0.061102688 -0.047200918 0.2698293
-0.1595048 -0.1059792 0.37231109
-0.169052 -0.1368008 0.38201961
-0.039542679 -0.2066514 0.58354372
-0.1749758 -0.073964357 0.39396021
-0.17456371 -0.0265519 0.39354709
-0.069928169 0.002609432 0.28759161
-0.1251892 0.041326579 0.3503395
-0.13426851 -0.0310986 0.34698769
-0.1163926 0.067646123 0.34158269
-0.073703997 -0.082648039 0.2844421
-0.1039643 -0.20206431 0.31247309
-0.074864984 -0.1229376 0.28473321
-0.1812118 -0.1598666 0.39993629
-0.1769758 -0.1235536 0.40064201
-0.16686539 -0.1029503 0.3868944
-0.1856015 -0.068662412 0.4073303
-0.1752452 0.032758828 0.40175691
-0.097175732 0.0060261791 0.30637169
-0.085294247 -0.2124165 0.2908904
-0.1437002 -0.1618631 0.35652119
-0.15573619 -0.15685961 0.3687031
-0.1869189 0.01164335 0.407823
-0.087089904 -0.233979 0.54651678
-0.14523581 0.02681363 0.36945409
-0.1638214 0.037974302 0.3875137
-0.085886121 -0.02108711 0.28921661
-0.1194278 -0.068813197 0.33209309
-0.095347881 -0.13403741 0.3015165
-0.1077218 -0.13734721 0.31459779
-0.0506736 -0.17704 0.25910619
-0.071578383 -0.15436921 0.27968651
-0.12819301 -0.13912679 0.3368609
-0.06005967 0.082018912 0.54796332
-0.153659 -0.01280165 0.3689748
-0.1209555 0.05732283 0.34050339
-0.1593677 0.0128147 0.3816736
-0.12639681 0.066590667 0.3567493
-0.13490909 -0.1784471 0.3454918
-0.13281851 -0.1257332 0.34697691
-0.1348588 -0.15022141 0.34663931
-0.1911869 -0.1333821 0.41604319
-0.1874906 -0.05042338 0.4173559
-0.1636239 -0.06441319 0.38210529
-0.045903441 0.06176516 0.51725829
-0.1487129 -0.036184009 0.36300719
-0.1052063 -0.068755329 0.32067379
-0.1116969 -0.0029332039 0.3277854
-0.05183148 0.068791598 0.27524599
-0.059895039 0.042556789 0.25978959
-0.079452507 0.028960289 0.29213431
-0.093520701 -0.19275101 0.301505
-0.073409677 -0.13502809 0.2763682
-0.063303828 -0.1706973 0.27301881
-0.1901235 0.053161949 0.42056179
-0.17393079 -0.18481199 0.3920249
-0.16788641 -0.14329471 0.38173541
-0.198531 -0.2185647 0.41108069
-0.036455151 0.068190932 0.2668702
-0.1182095 -0.045404851 0.33307511
-0.066307656 0.00182265 0.27882141
0.01309872 -0.2317885 0.63242978
-0.1185997 -0.1808044 0.3283647
-0.1684799 -0.18658949 0.3772777
-0.1811039 -0.090767197 0.40841201
-0.1123046 0.01431692 0.3353534
-0.037473802 0.043283939 0.27390459
0.072222471 0.065042444 0.38116461
0.074947059 0.069188952 0.41839901
-0.12870909 -0.04189324 0.34398359
-0.1026338 0.031800508 0.32439679
-0.04259276 -0.1921892 0.26820129
-0.047374841 -0.1934973 0.25176221
-0.02576828 -0.2290197 0.26090771
0.059400279 0.061598781 0.46117291
-0.1686537 0.05778271 0.38332719
-0.082988739 0.057822879 0.55509818
-0.15668079 -0.090374947 0.40107989
-0.166115 -0.1991234 0.45634201
-0.093075752 -0.122225 0.40646499
-0.092180669 -0.2277846 0.52676427
-0.02475274 0.067870863 0.3118453
-0.1091847 0.080637693 0.31961119
-0.042221189 0.065177709 0.43603241
0.03444374 0.053568929 0.29282421
-0.087723263 -0.1162943 0.31635949
-0.1089745 -0.1888106 0.3309564
-0.1015688 -0.073236763 0.29446489
-0.086506963 0.035826501 0.30229071
-0.13121019 0.041865531 0.363314
-0.026568791 0.070173591 0.53470701
-0.1850201 -0.092516057 0.4132638
0.087442979 -0.054276291 0.36307999
0.0152019 -0.026691729 0.30830529
-0.017887181 -0.05924302 0.27976209
0.069671743 -0.1197722 0.35516599
-0.044447791 -0.1668721 0.26122469
0.026582399 0.022858441 0.3223069
-0.1600405 -0.1104366 0.36585951
-0.1308822 -0.038863599 0.352667
-0.1686907 -0.14660481 0.37860101
-0.1432624 -0.077845342 0.36159211
-0.027732089 -0.1252646 0.2658416
-0.04569849 -0.1628488 0.2672486
-0.080892071 -0.1472021 0.29490051
-0.02515538 -0.1462791 0.2695041
-0.021878701 0.05052859 0.27293259
-0.02642587 0.0046041608 0.27077109
-0.0056843762 -0.0076536238 0.29250589
0.05629383 -0.05342513 0.3393009
0.1012757 -0.1032227 0.3837302
-0.0032834411 -0.1358123 0.28725961
-0.035026308 0.032510638 0.25929779
0.002288833 -0.19928899 0.29080319
0.01849222 -0.078873158 0.3076435
0.02722669 -0.1393591 0.31973839
0.04032056 -0.03072184 0.32947621
0.083304018 -0.1561964 0.36566019
0.029268321 0.01338235 0.32099149
0.1048573 -0.1842265 0.38272879
-0.01670159 -0.1826802 0.2694684
-0.086840443 -0.081605732 0.31198111
-0.1174966 -0.23003981 0.321116
0.1200582 -0.19798049 0.3964344
0.088256307 -0.235387 0.36784181
0.1175951 -0.1672217 0.40510809
0.0083675086 0.053993199 0.29859039
0.072290383 0.01931328 0.3579146
0.055371359 0.01629585 0.34646869
0.02116622 -0.1438148 0.30724189
0.0148256 -0.1640009 0.3047626
0.02970003 -0.2074544 0.31678161
0.055652589 -0.1475547 0.34270731
-0.097037509 -0.1212083 0.32007721
-0.036887292 -0.2107849 0.2628721
-0.045308352 -0.068910897 0.26227561
0.01650634 -0.043473631 0.30058739
0.053367 -0.22484051 0.33259141
0.04252262 -0.1066452 0.33235461
-0.1218519 0.042926699 0.35077819
0.062598243 -0.07998383 0.3467643
0.087362267 -0.1190076 0.37205639
0.1118536 -0.14456069 0.39499509
-0.0045281649 0.071444511 0.51748657
-0.1799286 -0.0050139432 0.40446189
-0.1830527 0.02353826 0.42113101
0.1031621 0.002712369 0.38985571
0.091131151 -0.0050730999 0.3744956
0.085414156 -0.039488789 0.37296811
0.044055719 -0.0037562549 0.34920189
0.085943148 0.0138858 0.3728466
0.01638959 0.032532781 0.30649829
0.086522251 -0.020203499 0.37417021
-0.01407699 -0.1659373 0.27645111
0.04480147 -0.1709757 0.32815161
-0.018908661 -0.1896919 0.2707926
0.1159757 -0.12698621 0.40021619
-0.1683061 0.071707986 0.3902837
0.1165486 0.04413867 0.4010528
0.069931298 -0.1196212 0.3597891
-0.044179808 -0.090130091 0.26620781
-0.032632191 -0.0031953449 0.26742011
0.05451433 -0.024712119 0.3511048
0.1081737 -0.058735549 0.39520961
0.007762447 -0.1851774 0.3014746
0.0030881609 -0.23266719 0.2884104
-0.092942253 -0.0056236391 0.3073363
0.047428191 0.067854792 0.357669
0.070632227 -0.19476131 0.35721281
-0.08209084 0.016812259 0.304214
-0.082567587 0.04795387 0.32885689
-0.043838318 -0.1099401 0.2565254
0.057180598 -0.1701154 0.3458856
-0.02963816 -0.041110929 0.27828911
0.1171751 -0.033061091 0.39761689
0.1159663 -0.02560067 0.4056358
0.1168218 -0.086192369 0.4016943
0.0091831544 0.058247771 0.49589491
0.01814018 -0.0100233 0.31453121
-0.024976609 -0.02530098 0.2745477
0.0012265739 -0.16377489 0.29180819
-0.056730669 -0.1003606 0.26762781
-0.1590717 0.060297132 0.3827838
0.021644181 0.05758458 0.51638383
-0.1314155 -0.01466042 0.35441551
-0.06977497 -0.049477398 0.2827121
0.006979316 0.01581925 0.2908124
-0.017841401 0.066680729 0.32850659
-0.01809421 -0.062604547 0.27795511
-0.02098358 0.048909038 0.27640301
0.044407729 0.050581958 0.33352241
-0.18987679 -0.22655711 0.41450581
-0.094445594 0.01985741 0.3148433
0.018329229 -0.078450143 0.30752039
-0.049452718 0.060403079 0.30968079
-0.081711113 0.061681628 0.4212485
-0.14580069 -0.018680749 0.37040049
-0.18208881 -0.1140935 0.4048197
-0.17009871 -0.1854811 0.3922272
-0.1874297 -0.1034646 0.4127188
-0.1399235 -0.076720543 0.36429119
-0.053920209 -0.010104 0.2691887
-0.0506078 0.06607762 0.45640889
-0.063877881 0.04296932 0.28240031
-0.13396209 -0.1803094 0.34833401
-0.04805452 0.052603159 0.2670086
-0.061910149 0.026225301 0.2708098
-0.03723684 0.061336871 0.26683551
-0.05953997 -0.01500094 0.2713733
-0.1655104 -0.1091623 0.38882619
-0.1151977 0.027430469 0.34342679
-0.16383369 -0.1349055 0.3821066
-0.1696748 -0.082922637 0.40024689
-0.1691422 -0.03347075 0.4011358
-0.1515664 -0.15864711 0.3704896
-0.1809433 -0.028194521 0.40965149
-0.1257966 -0.144108 0.3461476
-0.1596763 -0.1422669 0.37985709
-0.1142835 0.055499911 0.37470159
-0.04466727 -0.019753929 0.26399079
-0.1050235 0.052089211 0.33011061
-0.1221284 0.036335681 0.3493894
-0.086329937 0.034353439 0.3064298
-0.12585139 0.01646656 0.35773069
-0.073103853 0.060040891 0.32069129
-0.17911939 -0.16289189 0.40529409
-0.02553552 -0.03530395 0.27090681
-0.13026761 0.043345358 0.35092449
-0.04773435 0.056609452 0.26226521
-0.174677 -0.15251949 0.41352019
-0.04572016 0.03105557 0.26581359
-0.1883577 -0.1635156 0.4189322
-0.1444364 0.02147216 0.37468189
-0.1396236 0.065891393 0.43969789
0.041995529 0.060638491 0.33936471
0.093720794 0.061237451 0.39854881
0.01881877 0.062382098 0.3721073
0.086068273 0.063054562 0.391581
0.053218842 0.066344738 0.40040791
0.036852479 0.063601732 0.39225039
0.040605281 -0.095506608 0.32700261
-0.1399394 0.058108479 0.42016959
-0.06762591 0.061224911 0.4165476
-0.18303201 0.0072880392 0.40883559
-0.15612601 0.002286583 0.39540309
-0.1553376 0.05807 0.3819263
-0.1576577 0.0063401158 0.38552901
-0.04525977 0.032034069 0.25964701
-0.1792745 -0.044960681 0.40499371
-0.094913423 0.05999285 0.31576729
-0.15969311 -0.042158719 0.38760021
-0.02856463 0.054030269 0.29786879
-0.1227042 0.058578521 0.3408694
-0.18185221 -0.073638737 0.40846211
-0.115742 0.041922841 0.33244601
-0.1477986 -0.038583461 0.3766512
-0.1455127 0.053853329 0.37594411
-0.1612796 0.03194711 0.3924607
-0.1240796 -0.0021896961 0.35342491
-0.095264852 0.03851831 0.30997241
-0.1453352 0.067056827 0.37910539
-0.05210951 0.03123009 0.27516219
-0.1497934 -0.1314722 0.3977204
-0.1736239 0.026856421 0.40544069
-0.080525823 -0.1436114 0.290465
-0.022184851 0.064371713 0.5337292
-0.1103942 0.06433326 0.33765209
-0.1028086 0.02927381 0.3241016
-0.1643478 0.072122343 0.4008362
-0.18841539 -0.1690017 0.428956
-0.073648989 0.051270131 0.2796649
-0.1241546 0.071061254 0.4750233
-0.1652298 0.073496006 0.40531811
-0.1226665 0.071108788 0.3554894
0.01341921 0.066380411 0.4142217
-0.1673305 0.070249528 0.44191551
-0.19210219 -0.223176 0.4133352
-0.096819222 0.068032503 0.41918379
-0.0144614 0.070821323 0.3453238
-0.1336437 0.07017231 0.48099649
-0.17377859 0.067367077 0.4144198
-0.071191549 0.072174132 0.4088805
0.037843529 0.063434482 0.40421119
0.04523075 0.067103364 0.43416679
-0.1879862 0.057603121 0.43520701
-0.075581551 0.064155847 0.3058396
-0.1358895 0.053718809 0.47201481
-0.071438462 0.073339187 0.51712
-0.055993911 -0.1890583 0.55658507
-0.177789 -0.1511675 0.44269919
-0.1186675 0.06556204 0.4906913
-0.1463573 -0.15431701 0.4716849
-0.098198831 0.069930673 0.49312389
-0.094408929 0.064050972 0.43316281
-0.1189598 -0.1095552 0.33416551
-0.0067678988 0.074693471 0.51237911
-0.05213479 -0.07668215 0.55942702
-0.033417221 -0.2365261 0.57779169
-0.078495681 -0.02773398 0.53430718
-0.094592027 -0.12564521 0.52176338
-0.03737909 -0.05362916 0.56533867
0.01998454 0.071445882 0.50549918
-0.0088505149 0.068116553 0.52480149
-0.14687081 -0.07558763 0.46729121
-0.1915471 -0.0042663808 0.41516799
-0.054912139 -0.1186634 0.55356991
-0.08311516 -0.1040732 0.53021038
-0.1264085 -0.2272515 0.49619979
-0.18634529 0.0075216889 0.4245078
-0.1377116 -0.1066298 0.47068921
-0.17507 -0.2352941 0.45015529
-0.1279843 0.066818237 0.35715091
-0.1547379 -0.1073402 0.4600189
-0.036766469 -0.2153914 0.57047331
-0.1917945 -0.1314127 0.42647499
-0.1239313 -0.23431771 0.33360979
-0.02640635 0.064794183 0.47942999
-0.1686427 0.070712946 0.42587069
-0.1142293 0.052268889 0.50370741
-0.085095413 -0.0093442202 0.53182721
-0.1777778 -0.18252771 0.42225221
-0.063608468 0.040525589 0.54830581
-0.1594841 -0.066593952 0.46115959
-0.14208341 -0.0048160548 0.47472271
-0.1854293 0.0002754927 0.43549249
-0.1675659 -0.085113637 0.45160511
-0.1772286 -0.01469892 0.43896419
-0.1364263 -0.1503167 0.486038
-0.1118044 -0.1833282 0.50175381
-0.1238765 -0.066821687 0.48835021
-0.13959961 -0.077683032 0.47604719
-0.0083966702 0.064962693 0.29545531
-0.01271719 0.060359571 0.301815
-0.16164809 -0.23431049 0.46319851
-0.1899123 -0.098175943 0.4281292
-0.1849556 -0.043986559 0.43570861
-0.06780082 -0.20203321 0.546718
-0.1399245 -0.1784848 0.4814665
-0.1889032 -0.1126579 0.43442321
-0.033712272 -0.18315829 0.57024509
-0.18574201 -0.1561069 0.43073359
-0.16112541 -0.1025398 0.46699461
-0.01260954 0.067602552 0.4740949
-0.089009278 0.070668548 0.49012011
-0.046188891 0.051647931 0.56194061
-0.083979897 -0.1697263 0.53411818
-0.1643983 -0.064466298 0.38588241
-0.058124959 -0.1096048 0.56624132
-0.1079005 -0.1567535 0.50988501
-0.05758417 -0.16019779 0.55941999
0.041165769 -0.23308291 0.59825432
-0.073704839 0.071892798 0.47036809
-0.075162649 -0.1307409 0.53933167
-0.1509165 -0.05875659 0.46984261
-0.1194065 0.03594112 0.49309409
-0.094146371 -0.0098458529 0.51700377
-0.04592365 -0.003061295 0.56372881
-0.1383578 -0.2357903 0.6304549
-0.1529121 -0.086339593 0.46446139
-0.06368047 0.061761379 0.2803885
-0.082734346 0.071107566 0.42757991
-0.073427141 0.075980991 0.40967941
-0.1825393 -0.092483044 0.4334335
-0.1844642 -0.027334571 0.4230606
-0.1880378 -0.079239547 0.40984419
-0.1960756 -0.2168332 0.41424131
-0.1700578 -0.2223822 0.45569021
-0.1193621 -0.22122739 0.49654391
-0.1356415 -0.15946481 0.48394409
0.047630731 0.060247689 0.4670504
-0.116339 0.076865017 0.47613159
-0.1841943 -0.076791227 0.43301409
-0.15773571 -0.20067041 0.4680728
-0.1607326 -0.1168149 0.4492912
-0.13105039 0.054287311 0.48056281
-0.046980921 0.075388134 0.36858451
-0.14860649 0.067359827 0.38683531
-0.1458995 -0.12508529 0.47556049
-0.083818257 -0.112875 0.53759712
-0.057370361 0.0027673841 0.56161362
-0.1095102 -0.115952 0.51227951
-0.1044726 -0.0272603 0.50765169
-0.084300883 -0.1876899 0.53485447
-0.1029697 0.01181459 0.51075709
-0.1514075 -0.1102474 0.47116381
-0.0556469 -0.0402469 0.56150079
-0.060651779 -0.02610505 0.54836053
-0.092625678 0.071696937 0.47534859
-0.1739804 -0.14031971 0.38895959
-0.1282167 -0.2282313 0.343799
-0.1844894 -0.020995321 0.43522379
-0.035858329 0.071743399 0.56976372
-0.130303 0.064812958 0.4333685
0.067909241 0.05608058 0.3644962
-0.1114337 0.072235107 0.4967936
-0.058088779 0.072360188 0.53325582
-0.096263289 -0.043094039 0.52070707
-0.1005115 -0.21888921 0.51150727
-0.069185667 -0.062281549 0.54760599
-0.1005977 -0.1773572 0.52066851
-0.1328198 -0.2035486 0.4882994
-0.1254191 -0.225557 0.4898043
-0.1005258 -0.1195712 0.5241487
-0.1718211 -0.1276755 0.44813329
-0.1168035 -0.085840702 0.50534892
-0.076462753 -0.060405251 0.53262949
-0.033395588 -0.1468762 0.56855768
-0.064176023 0.070148893 0.4898935
0.062984817 -0.23459341 0.57931852
-0.034282859 -0.0054866672 0.56827909
-0.055795189 0.056109071 0.55869782
-0.070106633 0.031953041 0.54217267
-0.098654091 0.062099069 0.51310343
-0.033078849 -0.054995179 0.56848109
-0.1182422 0.053086821 0.493911
-0.037909571 0.06158388 0.56281239
-0.1095266 -0.0089364052 0.5043239
-0.1136037 -0.2263732 0.63689423
-0.1787937 0.01319307 0.4383612
-0.047863189 -0.06114674 0.5633235
0.1155175 -0.2328314 0.75664711
-0.14919171 -0.2356654 0.61986792
-0.049239639 0.01490819 0.56377959
0.20960981 -0.2319721 0.78610557
-0.16645931 0.03046182 0.46121621
-0.1697917 -0.22442441 0.58998311
-0.1197615 -0.23188519 0.75749213
-0.03106666 0.02075511 0.56925547
-0.174297 -0.22915471 0.58922142
-0.03084469 -0.099284708 0.56761122
-0.050706271 0.066236757 0.3062025
-0.033120509 -0.063275397 0.56836832
0.052679662 -0.023851629 0.48351681
0.04531255 0.067929387 0.45183411
0.064974897 -0.1702341 0.47659069
0.057800591 0.065526009 0.40929139
0.1094594 -0.1684709 0.4070746
0.047024731 -0.021000329 0.49600551
0.1154582 -0.223492 0.40783411
0.026613651 -0.061525758 0.51540899
0.078412771 -0.1580403 0.46014199
0.1157378 -0.070633531 0.40861911
-0.025481461 -0.0091745853 0.56401902
0.090711653 -0.01124597 0.44165441
0.1159161 0.0118075 0.40655679
0.04975611 -0.065721452 0.48427299
-0.08966738 0.070744067 0.47451311
0.02820373 0.067985058 0.34511581
0.1143495 -0.1651226 0.4053196
0.1138188 -0.09767127 0.40518659
0.115398 -0.1918634 0.40972939
0.0067924862 -0.079903074 0.53254223
0.05358487 0.038801339 0.4758279
0.1125148 0.046003971 0.41286051
0.1137788 -0.066012077 0.41283321
0.069574364 -0.017655071 0.46081069
0.066731572 -0.002096355 0.46705139
0.0039941068 -0.01374835 0.53680378
-0.0143674 -0.059059199 0.55956322
0.1120622 -0.1185458 0.4125267
0.1093662 -0.063337453 0.41710889
-0.031644579 -0.0069383979 0.56890482
0.1008461 0.027933961 0.4288632
0.037715849 -0.084632218 0.50377172
-0.0086238384 -0.208286 0.5534184
-0.030881049 -0.1327761 0.56561708
-0.032591641 -0.1033177 0.56408179
0.1173049 0.045920551 0.4102276
0.1150215 -0.1238506 0.39458951
0.1155477 -0.1195495 0.40822199
0.1057545 -0.149141 0.41825849
0.1035057 0.01152089 0.428202
-0.015892981 0.02617931 0.55840647
0.004962564 -0.088987172 0.53632939
0.0064489841 -0.1645205 0.53531069
-0.03141433 -0.1753678 0.56168592
0.1107911 -0.086085677 0.41359809
0.07420218 -0.1205238 0.45336309
0.1022564 -0.031475838 0.4236072
-0.032392859 -0.1355902 0.56797743
0.108266 -0.00068664551 0.41906199
0.0042518382 -0.12968829 0.53524423
-0.032156881 -0.1685421 0.56801248
0.055669431 0.066643208 0.4009904
0.02135247 -0.041098829 0.51563352
0.1280012 -0.1840407 0.40432259
0.1159766 -0.018997131 0.40755379
0.02403003 -0.0076521039 0.32070109
0.089747973 -0.073850751 0.44341731
0.1208176 0.05235016 0.40297729
0.1094205 -0.2340028 0.40951261
0.18052369 -0.2364054 0.43449691
0.032878399 -0.095271938 0.50338107
0.081283748 -0.051572319 0.451594
0.091051161 -0.05767554 0.4276118
-0.039398368 0.065058738 0.40008229
0.1181197 -0.12836491 0.40074101
-0.04686147 -0.1697032 0.58121681
0.035851061 -0.065686457 0.49769551
0.021986131 -0.2326525 0.2701447
0.04131192 0.06265229 0.4112519
0.020196261 -0.033816811 0.51868057
-0.0078757415 0.072474837 0.3451266
0.005117238 0.059144352 0.3125585
0.020027339 -0.1474975 0.30776691
0.1129771 -0.2325329 0.35575229
0.1255644 0.05524376 0.40044901
-0.0095715523 0.073337287 0.40690771
-0.038536672 -0.2272692 0.57848239
0.1214215 -0.1866595 0.39825729
0.1058632 0.016048729 0.38573909
0.001875222 -0.1639967 0.28157559
0.1766675 -0.2365282 0.418165
0.032031301 -0.2296339 0.27020749
0.1017079 -0.055536989 0.38700521
0.1159034 -0.01366758 0.39975399
0.0058081751 -0.2125698 0.29750061
0.1175034 0.0022227759 0.40126631
0.040318791 0.0035095811 0.32890591
0.063820302 -0.023308581 0.35285571
0.1042953 -0.09362781 0.38593099
0.1096402 -0.059528951 0.39965791
0.043847442 -0.028298561 0.33014289
-0.1171449 0.052280281 0.4778142
0.0852561 -0.2328116 0.36396071
-0.033327218 -0.21563999 0.56911659
0.11322 -0.1008824 0.4148339
-0.088320993 0.065757357 0.41309729
-0.1542673 0.069872677 0.40288249
-0.02931327 -0.139924 0.56334811
-0.01223165 0.064709567 0.55504411
-0.130858 0.068441838 0.48092821
-0.00056064129 0.059125479 0.52775562
-0.01666313 0.061302189 0.32732591
-0.1378379 0.068194091 0.44543621
0.062349379 0.061628159 0.4573836
-0.15298431 0.065226667 0.4343318
-0.033448759 0.037916388 0.56609613
-0.162984 0.062381979 0.43364689
-0.1306816 0.054224551 0.47387281
-0.1691068 0.006335258 0.4471229
-0.1231278 -0.2357309 0.49967
-0.039253149 0.017427331 0.56707489
-0.19205581 -0.07105875 0.43159199
-0.067232549 0.058308419 0.54019922
-0.1228893 -0.137959 0.49392989
-0.054309729 -0.1190903 0.56338888
-0.081054866 -0.1050438 0.53094888
-0.1502668 -0.1096696 0.46130279
-0.13460609 0.002343565 0.47962669
-0.096112192 -0.12523919 0.53023869
-0.14458109 -0.1774969 0.4855665
-0.1314076 0.053074151 0.4817048
-0.1724989 0.03055072 0.44270629
-0.09199062 0.057815101 0.42446181
-0.1026474 0.0089991689 0.5108853
-0.1073294 -0.040167268 0.50155091
-0.075648248 -0.03104138 0.53554678
-0.070878088 0.028321089 0.52621388
-0.052530829 -0.002257556 0.56162649
-0.045995619 0.068486087 0.55028617
-0.052676018 0.05318949 0.5607909
-0.093230717 -0.01345783 0.51866239
-0.031383399 -0.1216586 0.56725812
-0.1161001 0.065840989 0.49507579
-0.103838 -0.075155497 0.50916648
-0.14194021 -0.2289788 0.47397
-0.061189171 -0.025534149 0.54969049
-0.098702431 -0.22289041 0.51231837
-0.059631292 -0.1921794 0.5614816
-0.04381549 -0.062818646 0.56431109
-0.14070299 0.01298594 0.47385731
-0.064235568 -0.227567 0.54698241
-0.1868728 0.050201569 0.42657039
-0.1045474 -0.068979919 0.50936091
-0.056386352 0.005448699 0.54389381
-0.081472278 -0.1740341 0.53578568
-0.064382851 -0.1631867 0.54165423
-0.049959421 -0.1194431 0.56135261
-0.05703247 -0.094474137 0.55223
-0.1180658 0.03102636 0.49271631
-0.1075289 -0.1598134 0.51057208
-0.1805625 -0.23424681 0.45067161
-0.1265105 -0.1773182 0.4892486
0.018172679 0.064837597 0.375554
-0.049600299 0.05367789 0.56261033
-0.1851265 -1.7821791e-05 0.43709889
-0.06722945 0.0289599 0.54225469
-0.054085549 -0.16379941 0.56071103
-0.097002029 -0.1854845 0.51674157
-0.1100046 -0.093127728 0.50014508
-0.1307646 -0.2093233 0.48801559
-0.036409441 -0.2036135 0.57303679
-0.071596093 -0.1352932 0.54081851
-0.103666 0.01109362 0.50870019
-0.1408112 0.05807808 0.46965489
-0.1580362 0.022558689 0.4540875
-0.1203139 -0.1329383 0.4917222
-0.1831547 -0.17194609 0.43084121
-0.1851348 -0.095365703 0.43492681
-0.1218912 -0.098240972 0.50040621
-0.13923439 -0.085080177 0.47665679
-0.1212057 -0.088764429 0.4938136
-0.136225 -0.14400931 0.4822109
-0.1343399 -0.1145282 0.4839336
-0.1149203 0.062651597 0.34534469
-0.1003304 0.06755361 0.49764231
-0.1146914 0.0051369672 0.50121999
-0.003982604 0.065451227 0.27712041
-0.069345832 0.067961343 0.51536453
-0.085016131 -0.1013179 0.5333724
-0.06135571 -0.03181028 0.5510534
-0.053730011 -0.04315782 0.56347239
-0.0770787 -0.2127011 0.53423309
-0.033570021 -0.076819241 0.56373602
-0.055478599 -0.21755581 0.56010878
-0.138999 0.04457828 0.4684467
-0.05898184 0.073335983 0.36315951
-0.1084002 0.047068451 0.49702761
-0.1193745 0.050452739 0.49268419
-0.1535168 -0.066436827 0.4508523
-0.1556727 -0.1229365 0.45382369
-0.1517825 -0.06945014 0.4552066
-0.1648853 -0.092146099 0.44810891
-0.1712897 -0.049261872 0.44712871
-0.1135589 0.035216331 0.49617141
-0.1164941 -0.075699873 0.4948487
-0.1853442 -0.2354327 0.44424891
-0.14053451 -0.1061021 0.47508621
-0.1651427 -0.1153653 0.4513422
-0.1071719 0.01341933 0.49933079
-0.078993499 0.065096676 0.49688181
-0.088773489 0.066874087 0.47204241
0.058581769 0.064917527 0.4123956
0.069488823 0.061688241 0.3694559
-0.005016923 0.05860186 0.29274341
0.01172405 0.062875748 0.32938781
-0.01501065 0.069415003 0.48104501
-0.084430493 0.062616833 0.40436801
0.068772972 0.068481058 0.42416209
-0.0777843 0.06386447 0.4194769
-0.032708641 0.067452461 0.48195359
-0.091421127 0.06604296 0.49160081
-0.08381182 -0.17483111 0.52653527
-0.07847476 -0.1777305 0.53625101
-0.079195321 -0.017671879 0.52665418
