# .PCD v0.7 - Point Cloud Data file format
VERSION 0.7
FIELDS x y z normal_x normal_y normal_z curvature
SIZE 4 4 4 4 4 4 4
TYPE F F F F F F F
COUNT 1 1 1 1 1 1 1
WIDTH 583
HEIGHT 1
VIEWPOINT 0 0 0 1 0 0 0
POINTS 583
DATA ascii
-0.098179162 -0.24170262 0.36547011 -0.26817775 -0.93543983 -0.23028901 0.10065474
-0.055625871 -0.2417026 0.36317062 -0.06348557 -0.9968344 -0.047862068 0.016944803
-0.046927825 -0.2417026 0.36581725 -0.01024563 -0.99982709 -0.015521627 0.0016066812
-0.034602631 -0.2417026 0.36732447 0.020717923 -0.99961549 -0.018432673 0.0018405681
-0.02895074 -0.2417026 0.36820191 0.033842459 -0.99889094 -0.032735709 0.0059931153
-0.0104742 -0.24171868 0.36209336 0.093642339 -0.9880895 -0.12210791 0.031481165
-0.0015683166 -0.24175204 0.36966714 0.06545683 -0.98824888 -0.1381288 0.035037994
0.0041736802 -0.24183388 0.3664428 0.17543221 -0.97302973 -0.14978901 0.062464066
0.067739524 -0.24183235 0.36481699 0.36274362 -0.84832972 -0.38568607 0.084767483
0.070870012 -0.24111199 0.36456349 0.38777292 -0.82583153 -0.4094319 0.086013131
-0.14452313 -0.23490463 0.36281049 -0.61939406 -0.52722722 -0.58170646 0.090069927
-0.13486245 -0.23964159 0.36474743 -0.47020859 -0.75460905 -0.45767787 0.10826064
0.083291903 -0.23429063 0.36717486 0.54074216 -0.66404879 -0.51636922 0.0979978
0.069726668 -0.1881901 0.36276528 0.71056539 -0.19998868 -0.6746121 0.068985969
0.070841014 -0.18518461 0.36401713 0.71007156 -0.19352688 -0.67701244 0.066231176
-0.14455953 -0.16324705 0.36017987 -0.76091778 -0.010102975 -0.64876968 0.004704311
0.069707535 -0.16651717 0.36244765 0.7052021 0.0036641271 -0.70899695 0.0057439846
-0.15300679 -0.1577799 0.36918753 -0.79325849 -0.0022374974 -0.60888088 0.0071023107
-0.14770569 -0.15816857 0.36325034 -0.76749408 0.0050460547 -0.64103615 0.0055700289
-0.14402705 -0.14009996 0.36106575 -0.75525516 0.033499073 -0.65457428 0.0043161749
-0.14701833 -0.12294109 0.36096105 -0.75092381 0.029943777 -0.65970975 0.0041744411
0.067926139 -0.12328461 0.36870122 0.68043178 0.10117488 -0.72579348 0.039366629
0.077563964 -0.11945108 0.36960161 0.70665228 0.078061558 -0.70324177 0.035063069
-0.15709969 -0.1081591 0.36632627 -0.78272587 0.030085901 -0.62163907 0.005544411
-0.14213745 -0.075518183 0.3631469 -0.75891203 0.027214192 -0.65062422 0.0030989654
0.087442979 -0.054276291 0.36307999 0.6067664 0.041782588 -0.79378134 0.14092384
-0.14497879 -0.035962511 0.3661629 -0.76419443 0.050157998 -0.64303267 0.01555183
-0.14486597 -0.025203174 0.36617967 -0.76769835 0.048848026 -0.63894689 0.0040099258
-0.14739196 -0.018382935 0.36924779 -0.77735424 0.063156895 -0.62588477 0.0057360628
-0.14506349 -0.0059249913 0.36814141 -0.76885855 0.10588948 -0.63059014 0.011846033
-0.13925821 0.0046807826 0.36305133 -0.75179136 0.15957877 -0.63980037 0.021180136
-0.029406052 0.0033448651 0.36764562 0.56675839 0.53059137 0.63028389 0.17075762
-0.13778669 0.011911165 0.36310712 -0.73508459 0.19850467 -0.64826435 0.035051417
-0.033551566 0.010676944 0.36953962 0.42423114 0.85299248 0.30402592 0.20228612
0.074816667 0.018877724 0.36775455 0.60920548 0.31223509 -0.72895682 0.10899295
-0.12822133 0.02810917 0.36290234 -0.66600591 0.36647159 -0.64971894 0.068101563
-0.13031578 0.030078974 0.36197379 -0.67849439 0.3597146 -0.64050823 0.073085167
-0.12609661 0.043410808 0.36370018 -0.50941634 0.68402874 -0.52211082 0.1015043
-0.13060349 0.059368037 0.36803135 -0.38833722 0.81714934 -0.42598262 0.096118964
0.066785507 0.055800132 0.36533391 0.45639005 0.71209669 -0.53350395 0.1359908
-0.15710329 0.06439089 0.36924312 -0.71865541 0.39747646 -0.57056719 0.062291127
-0.1338557 0.062182765 0.36289722 -0.44534522 0.76445162 -0.46613461 0.092602119
-0.12021646 0.060148992 0.36587396 -0.34344298 0.85929197 -0.37903073 0.085113823
-0.055443931 0.063970126 0.36259004 -0.11838766 0.97948784 -0.16305831 0.051749021
0.0017966072 0.066954091 0.3632991 0.051971115 0.99437249 -0.092317164 0.1026173
-0.04530229 0.071123682 0.36473864 -0.047531266 0.99568212 -0.079736166 0.035630867
-0.16535345 -0.24179389 0.376753 -0.63677543 -0.59879148 -0.48576307 0.083041064
-0.15555955 -0.241014 0.37509668 -0.57814407 -0.65462595 -0.48704648 0.092094503
-0.1127735 -0.2417026 0.37401873 -0.21236119 -0.94197464 -0.25997409 0.090257943
-0.1004085 -0.24170262 0.3726685 -0.22412978 -0.94095618 -0.25370723 0.096474394
-0.099500723 -0.2417026 0.3756277 -0.20921151 -0.95017034 -0.23109932 0.091258332
-0.080372453 -0.2417026 0.37497589 -0.10470725 -0.98749429 -0.11786176 0.03891594
-0.076382801 -0.2417026 0.37704509 -0.074417621 -0.99349207 -0.086229481 0.025312165
-0.064506352 -0.2417026 0.37719291 -0.049305491 -0.99782103 -0.043842025 0.0094865821
-0.054630194 -0.2417026 0.3744736 -0.01576327 -0.99981302 -0.011202949 0.00085970334
-0.04146114 -0.2417026 0.37520111 0.0063608433 -0.99997962 0.00061014201 0.00033988635
-0.03524841 -0.2417026 0.37420252 0.0098547712 -0.99995136 0.00049087015 0.00035363808
-0.0054979338 -0.24172834 0.37621021 0.055339914 -0.99129134 -0.119495 0.029764349
0.004018663 -0.2418285 0.37125805 0.14438559 -0.97452539 -0.171619 0.059805006
0.018724063 -0.24153747 0.37483567 0.16763858 -0.96516341 -0.20089014 0.065474607
0.07262902 -0.2424286 0.3741242 0.39093861 -0.82675493 -0.40452853 0.090906806
-0.1439265 -0.23962718 0.37392122 -0.46521103 -0.7578699 -0.45739681 0.099096581
0.085941426 -0.23624027 0.37588063 0.53597438 -0.71424943 -0.45008796 0.11194196
-0.153681 -0.2157937 0.37050369 -0.74274427 -0.26527292 -0.61478549 0.067292944
0.086328648 -0.21773958 0.37613001 0.64324129 -0.52434498 -0.55794531 0.11665194
-0.16026749 -0.20066552 0.37096235 -0.76131618 -0.15220337 -0.63026333 0.037389331
0.090301879 -0.17264415 0.37792167 0.75659603 -0.030443301 -0.65317363 0.023175417
0.083840743 -0.16260368 0.37467638 0.74584496 0.012389653 -0.66600442 0.01756064
-0.15598388 -0.15795784 0.3726097 -0.80062157 0.0010876877 -0.59916931 0.0084618591
0.079744801 -0.15526313 0.37062231 0.71269178 0.023838293 -0.70107222 0.0074211513
-0.16098352 -0.1422926 0.37873593 -0.84408194 0.0020575766 -0.53621024 0.021471011
-0.16067305 -0.13648514 0.37926933 -0.84427655 0.0058852104 -0.5358755 0.022305312
-0.15673892 -0.13696702 0.37511635 -0.82051253 0.00070762 -0.57162821 0.010888048
-0.1604546 -0.11405253 0.37804353 -0.84107101 0.019259816 -0.54058182 0.022592492
0.079833977 -0.1189356 0.37042809 0.70792389 0.077873811 -0.70198256 0.036313575
0.087358937 -0.11901144 0.37207776 0.76012009 0.012189282 -0.64966828 0.016820882
-0.16033779 -0.10746888 0.37426221 -0.81174231 0.021931887 -0.5836038 0.01251037
-0.15669256 -0.077145986 0.378757 -0.82663399 0.028865388 -0.56199914 0.018954221
0.091476522 -0.04369767 0.37776628 0.5246039 -0.041016433 -0.85035789 0.17677386
-0.15169758 -0.034125302 0.37533781 -0.79925346 0.055374555 -0.59843755 0.017945325
0.08796683 -0.039264698 0.37248692 0.44042203 -0.16921143 -0.88170058 0.17562243
-0.15026917 -0.020245312 0.37258899 -0.78430319 0.060796157 -0.61739171 0.006358549
0.08706861 -0.020371165 0.37492818 0.52101529 -0.1827061 -0.83376354 0.17291033
-0.152226 -0.016408179 0.37548876 -0.78763127 0.044674266 -0.6145252 0.0080243601
-0.14971457 -0.013125545 0.37239328 -0.77765793 0.06270016 -0.62555325 0.0064265435
0.084433734 -0.011365653 0.37913388 0.57320505 -0.1420595 -0.8070038 0.13889205
-0.037736896 -0.0010258458 0.37535784 0.10341468 0.40614754 0.90793699 0.078438587
0.089016512 -0.0053093461 0.3726635 0.63269466 -0.030153709 -0.77381408 0.13123636
-0.040562734 0.0056848228 0.37629876 0.2151532 0.51428181 0.83019477 0.18311675
-0.038415279 0.015990335 0.37243417 0.22782782 0.90670836 0.35492891 0.19839624
0.083148748 0.012485228 0.37688088 0.6678434 0.1863956 -0.72058445 0.13748571
-0.14499432 0.023496939 0.372567 -0.74657416 0.24534151 -0.61841285 0.045990743
0.083179787 0.02533732 0.37807274 0.59186065 0.35672432 -0.72280616 0.14004283
0.076218419 0.041714754 0.37331024 0.56510895 0.48221964 -0.66941476 0.15025939
-0.081494674 0.057168428 0.37737441 -0.13239725 0.95809215 -0.25402832 0.085201077
-0.075104117 0.054936763 0.37703174 -0.14877 0.96114421 -0.23252802 0.07956177
-0.065402545 0.058647241 0.37707946 -0.11381347 0.975007 -0.19080839 0.065762118
0.073806502 0.056978602 0.3745349 0.49027792 0.69652683 -0.52390647 0.14364764
-0.14614029 0.062215287 0.37742075 -0.53489608 0.7081539 -0.4608734 0.094313651
-0.13740183 0.062340118 0.37093613 -0.39979044 0.81016833 -0.42871314 0.093604445
-0.11291918 0.061817512 0.37314624 -0.29143035 0.89483458 -0.33814111 0.07971748
-0.10048717 0.061092887 0.37352818 -0.2139966 0.92689639 -0.30833185 0.076853864
-0.096658491 0.062078927 0.37083396 -0.19984369 0.9347077 -0.29391164 0.083805069
-0.055585142 0.064781345 0.37443987 -0.063706532 0.98975807 -0.1277514 0.047286671
-0.031362679 0.069080591 0.37265351 -0.016651031 0.9985891 -0.050424282 0.044063404
0.0051397532 0.065518975 0.37084347 0.06360846 0.99421388 -0.086561017 0.11974624
0.018693924 0.062292695 0.37477437 0.15826657 0.96290702 -0.21854484 0.12255684
0.068824433 0.06147616 0.37026337 0.37538627 0.82675934 -0.41899166 0.12877941
0.073742047 0.067006186 0.37903339 0.32759592 0.90077692 -0.28509951 0.13751261
-0.17302001 -0.24170259 0.38725621 -0.65266222 -0.63460261 -0.41389805 0.082423389
-0.16512802 -0.24162921 0.38608855 -0.60609788 -0.67645794 -0.41838977 0.08424288
-0.15774834 -0.24134225 0.38432273 -0.47700179 -0.79080302 -0.38353607 0.093161069
-0.14600566 -0.24039705 0.38732144 -0.35246187 -0.8803702 -0.31736261 0.092328191
-0.1149107 -0.2417026 0.3873294 -0.20584092 -0.93859899 -0.27687797 0.086419187
-0.07628423 -0.2417026 0.38703451 -0.055525646 -0.99697524 -0.05438108 0.014323054
-0.067485422 -0.2417026 0.38838762 -0.031384639 -0.99920279 -0.024673605 0.0034936073
-0.055519916 -0.2417026 0.38559103 -0.0044705551 -0.99998111 -0.0042205742 8.4498577e-05
-0.048257101 -0.2417026 0.38391119 -0.00050523406 -0.99999952 -0.00088685058 2.4933028e-05
0.018314704 -0.24159503 0.38300127 0.15656283 -0.96991163 -0.18643913 0.064578496
0.075090878 -0.24342987 0.38161308 0.35205787 -0.88516963 -0.30418766 0.088401675
0.083343945 -0.24090029 0.38155124 0.45066252 -0.82134265 -0.3497135 0.11349598
0.024501706 -0.23962609 0.38938332 0.16421102 -0.96472466 -0.20576957 0.065401629
0.09357845 -0.23801562 0.3854548 0.52838665 -0.75303298 -0.39210835 0.12692069
0.094610639 -0.22568068 0.38397291 0.63247043 -0.59648174 -0.49415657 0.13622992
-0.16861308 -0.19307461 0.38531449 -0.81700331 -0.13123041 -0.56150174 0.040283863
-0.16454907 -0.18913059 0.38079953 -0.79901195 -0.10298076 -0.59243131 0.031874206
0.1048573 -0.1842265 0.38272879 0.834405 -0.067373723 -0.54701841 0.052809034
-0.16291836 -0.15978499 0.38145775 -0.81003785 0.029932072 -0.58561325 0.012183429
0.093597546 -0.15729544 0.38282666 0.81627131 -0.010462895 -0.57757401 0.042966437
-0.16627392 -0.14480622 0.38515797 -0.85355943 0.016202772 -0.52074331 0.02359936
0.091463313 -0.14949678 0.38218963 0.76425588 0.0043350398 -0.64489865 0.021957887
-0.16538084 -0.13593997 0.38436094 -0.85845613 0.0097043095 -0.51279509 0.025097057
-0.16634151 -0.11747328 0.38754746 -0.87009215 0.00955904 -0.49279645 0.030924009
-0.16787201 -0.10563776 0.38785365 -0.88579744 0.00040383264 -0.46407187 0.03556788
-0.16356416 -0.071094364 0.38404727 -0.85682225 0.031589229 -0.51464337 0.023972848
-0.17183413 -0.063528955 0.38495961 -0.86376274 0.030319413 -0.50298584 0.021990292
-0.16668563 -0.066542603 0.38360849 -0.85742754 0.025751341 -0.51395988 0.021531327
0.097531371 -0.054272503 0.38695469 0.69710004 0.097190708 -0.71035582 0.17005809
-0.16119331 -0.040189054 0.38883907 -0.85791862 0.023333956 -0.51325554 0.025237396
-0.15960443 -0.042138245 0.38766742 -0.85578048 0.024352411 -0.51676577 0.023377433
-0.15829642 -0.030846681 0.38310939 -0.82404774 0.049341891 -0.56436759 0.015907088
-0.16300808 -0.029627351 0.38795784 -0.84317946 0.033019267 -0.53661728 0.025552882
0.025341183 -0.017437795 0.38989747 0.083191179 0.85208744 0.51674581 0.2535677
-0.16007745 -0.0069580879 0.38669476 -0.81170118 0.086672746 -0.57760638 0.017820762
0.081091821 -0.0053126914 0.38287532 0.61368781 -0.046977527 -0.78815007 0.17875017
-0.15808225 0.007589085 0.38636437 -0.8023454 0.16204852 -0.57444078 0.026948201
-0.15558204 0.011466466 0.38325107 -0.79529274 0.17970541 -0.578978 0.030031128
-0.16139534 0.058208264 0.38714787 -0.71683615 0.48139051 -0.50438994 0.091865532
-0.15818374 0.056138609 0.38853097 -0.70059979 0.5125252 -0.49646541 0.09714973
-0.076071508 0.056892525 0.38656402 -0.079102188 0.97581321 -0.20379272 0.069434926
-0.065842927 0.057614818 0.38804927 -0.06303867 0.98666209 -0.15008016 0.054055411
0.079228751 0.057871155 0.38237956 0.47233826 0.7993716 -0.37135103 0.15580517
0.080379613 0.055675384 0.38218629 0.50091177 0.75362885 -0.42559478 0.1576622
-0.15754195 0.061364528 0.38360798 -0.6681872 0.5437032 -0.50785112 0.093837313
-0.14564066 0.064482458 0.38731068 -0.44149897 0.81589609 -0.37335265 0.1078396
-0.11547558 0.062767901 0.38794139 -0.26255319 0.91203749 -0.31504524 0.077934124
-0.053883452 0.064094588 0.38380742 -0.036358658 0.99487072 -0.094394013 0.040524095
0.024744283 0.077428803 0.38852644 0.10833408 0.99153596 -0.071555085 0.079744935
-0.18411838 -0.24023986 0.39963147 -0.81548232 -0.48464033 -0.31640556 0.10745063
-0.1739088 -0.24124424 0.39483792 -0.69115496 -0.63478673 -0.34547171 0.092143983
-0.16638607 -0.24170259 0.39528421 -0.54671943 -0.78204811 -0.29916343 0.096923418
-0.15594055 -0.24144967 0.39561042 -0.40715843 -0.87265354 -0.26962537 0.092769101
-0.14721023 -0.24115962 0.39596659 -0.31857288 -0.91460395 -0.24901995 0.084344253
-0.1252861 -0.24170259 0.39824909 -0.24026562 -0.94677263 -0.21422897 0.070329204
-0.11445884 -0.2417026 0.39755654 -0.15426892 -0.97564882 -0.15591832 0.056671515
-0.1009948 -0.2417026 0.3928023 -0.072969995 -0.99127239 -0.10979264 0.032651737
-0.089621723 -0.2417026 0.3938646 -0.052417703 -0.99637848 -0.066950381 0.02082951
-0.057026569 -0.2417026 0.3915917 -0.002658172 -0.99999404 -0.002208055 3.3493548e-06
-0.01627839 -0.2417026 0.3995004 0.0072015771 -0.99997407 0.00029389368 0.00041214845
0.015973685 -0.24197114 0.39329419 0.10974449 -0.98454314 -0.13649559 0.048718471
0.023543745 -0.24029276 0.39418751 0.14257307 -0.97720325 -0.15731105 0.056613293
0.053839043 -0.2411893 0.39910761 0.20287366 -0.96593112 -0.16068397 0.066654474
0.061605636 -0.24158497 0.39854759 0.24195239 -0.95260513 -0.18439776 0.075775281
0.086032003 -0.24104117 0.39162692 0.39236647 -0.87886274 -0.27138329 0.10995145
0.11715056 -0.2436206 0.39776158 0.40677541 -0.88279408 -0.23496473 0.16737378
0.032916903 -0.23482385 0.39448977 0.14905474 -0.9706471 -0.18875076 0.054808263
0.097415358 -0.23856741 0.39227217 0.54268324 -0.76881629 -0.33825502 0.13607058
0.10550951 -0.23999718 0.39584959 0.46837452 -0.81749195 -0.33515999 0.15113968
0.10444562 -0.22647014 0.3959493 0.62912756 -0.62145501 -0.46689638 0.16804519
0.10741164 -0.2176691 0.39782515 0.75487536 -0.45344496 -0.47386801 0.18022427
-0.17517592 -0.19265968 0.3985863 -0.88611692 -0.14632727 -0.43975577 0.052325439
0.10380016 -0.19079879 0.39754337 0.89316434 -0.17789067 -0.41305262 0.1166951
-0.17438081 -0.18585017 0.39513779 -0.87512463 -0.10174356 -0.47308046 0.040615339
0.12107421 -0.18340284 0.39998233 0.91452092 -0.048061237 -0.40167356 0.074989393
-0.17039296 -0.15277201 0.39146522 -0.86287415 0.057080276 -0.50218534 0.028116152
-0.17088453 -0.1396594 0.3915047 -0.87914824 0.014574786 -0.47632542 0.033840921
0.097814612 -0.1381831 0.39053231 0.83161509 -0.010716382 -0.55524909 0.047316864
0.11394936 -0.12640753 0.39806008 0.8917349 0.049161106 -0.44988018 0.056551497
-0.17167632 -0.11262299 0.3965283 -0.92190492 0.014437025 -0.38714707 0.045156065
-0.16863513 -0.11004979 0.39113462 -0.89746898 0.011987187 -0.44091466 0.040761679
-0.17184019 -0.10320733 0.39359197 -0.92113853 -0.0043691741 -0.38921052 0.043837145
-0.16940886 -0.10804506 0.39141318 -0.89995921 0.00098894071 -0.43597314 0.04096688
0.10802335 -0.10867589 0.39529693 0.88994092 0.051244572 -0.45318779 0.040440224
-0.17223592 -0.071956411 0.39659658 -0.93993068 0.0068109576 -0.34129745 0.049669135
-0.16772614 -0.07591866 0.39438838 -0.92323297 -0.0029722843 -0.38422915 0.048062719
0.026048779 -0.06455756 0.39670694 0.7564941 0.51713216 -0.4003635 0.16851375
0.10733269 -0.063165374 0.39864233 0.99271476 0.052927874 -0.10824116 0.12384167
0.10423484 -0.059305005 0.3972829 0.95273852 0.064065218 -0.29695967 0.16641812
0.0226597 -0.047262035 0.39844286 0.63916576 0.75709969 -0.13515644 0.2018488
0.10398486 -0.040700752 0.39229557 0.97687227 0.062593505 -0.20445691 0.18896966
-0.17199749 -0.032973468 0.39964271 -0.88794374 0.010878813 -0.4598234 0.034954481
0.01420975 -0.038813021 0.39481959 0.53379935 0.79585493 -0.28578532 0.20176947
-0.17086589 -0.026404714 0.39727807 -0.86398619 0.024122691 -0.50293738 0.030648164
0.027769744 -0.013147231 0.39173228 0.58621913 0.010547332 -0.81008387 0.25112468
0.11500303 -0.01372725 0.39941075 0.99997419 0.00058184698 0.0071704639 0.11570869
-0.16950504 -0.00011565509 0.39811596 -0.83720148 0.11427965 -0.53482139 0.022369416
0.022784617 -0.0058553535 0.39058489 0.7758792 0.20840026 -0.59546679 0.2271277
0.036205735 -0.0012069446 0.39999717 0.56573379 0.15068203 -0.81070358 0.17553754
-0.16397132 0.0049630469 0.39370468 -0.81985718 0.15589289 -0.55093712 0.030517181
0.016953137 0.0043800357 0.39260316 0.85067379 0.15586942 -0.50205469 0.19583946
0.020851815 0.0086195543 0.39264905 0.72355145 0.12986355 -0.6779446 0.21136102
0.10205775 0.005242514 0.39222795 0.76733816 0.079484917 -0.63629735 0.14386451
0.02025206 0.016159225 0.39360154 0.52679491 0.27761698 -0.80337787 0.2153776
-0.16107608 0.034759387 0.39129823 -0.80655748 0.24299487 -0.53890502 0.044745021
0.098994449 0.042169403 0.39201164 0.72367626 0.55231768 -0.41380897 0.18656498
0.1029065 0.048674241 0.39833111 0.74673265 0.64326406 -0.16912083 0.16709591
-0.16738731 0.053630564 0.39942974 -0.78337306 0.44928625 -0.42949814 0.091794707
-0.016161513 0.059777193 0.39922503 0.04610464 0.99493474 -0.089326814 0.077483781
0.084533967 0.059707306 0.39229017 0.53329086 0.78714579 -0.30984244 0.15565266
0.12211492 0.056213781 0.39954343 0.78630054 0.55983746 -0.2613686 0.12387154
-0.16232011 0.062613741 0.39888227 -0.67974973 0.63594609 -0.365394 0.11212668
-0.14483042 0.064757898 0.3937045 -0.42121699 0.85638303 -0.29863763 0.10815578
-0.12511186 0.063047469 0.39661849 -0.29440647 0.9064216 -0.30286098 0.085925899
-0.11475912 0.061674278 0.39650553 -0.24585162 0.92805231 -0.27977842 0.07388936
-0.1010396 0.062322974 0.39275706 -0.17415825 0.94998062 -0.25924081 0.061883938
-0.089426771 0.060330424 0.39355204 -0.063167728 0.97500157 -0.21303001 0.05857994
0.015426147 0.062197935 0.39074796 0.072821379 0.9921084 -0.10206871 0.11011849
0.021392213 0.062150761 0.39199048 0.094325893 0.98912495 -0.11284737 0.1184874
0.051359896 0.067832232 0.39774364 0.11809591 0.98710173 -0.10809071 0.10910654
0.036828779 0.070364743 0.39680266 0.12001998 0.98725891 -0.10447527 0.091437973
-0.17593014 -0.24090666 0.40376645 -0.77051717 -0.58724093 -0.24789403 0.10909217
-0.16777994 -0.24150264 0.40188402 -0.47771743 -0.85294038 -0.2104253 0.10247553
-0.1549565 -0.24155964 0.40249309 -0.39137176 -0.90338415 -0.17528583 0.092976205
-0.1259104 -0.2417026 0.40831161 -0.21415092 -0.9691515 -0.12200312 0.058291581
-0.093075752 -0.2417026 0.40646499 -0.023909882 -0.99925017 -0.030455381 0.004733278
-0.084430493 -0.2417026 0.40436801 -0.019839033 -0.9995777 -0.021235185 0.0022538265
-0.071938403 -0.2417026 0.40734625 -0.0053963987 -0.99997872 -0.0036771537 3.7893926e-05
-0.068024993 -0.2417026 0.40298724 -0.0056268731 -0.99997669 -0.0038643612 3.7297556e-05
-0.027419761 -0.2417026 0.40684879 0.0089022126 -0.9999603 0.00046830362 0.00032880768
-0.0052731931 -0.2417026 0.40741265 0.0065635629 -0.99997425 -0.0029078657 0.00035614462
0.0055173906 -0.24178684 0.40534955 0.0046595167 -0.99996001 -0.0076355864 0.00049190427
0.016714994 -0.24151267 0.40643102 0.023446977 -0.99955523 -0.018430345 0.002230901
0.022109194 -0.24115171 0.40886393 0.028882967 -0.99938744 -0.019763872 0.0026887069
0.036028489 -0.24026783 0.40469757 0.11871018 -0.9852531 -0.12322423 0.043081801
0.046103008 -0.24063696 0.40899745 0.13206907 -0.98474365 -0.11330365 0.052100934
0.054395616 -0.24128599 0.40340796 0.20385942 -0.96604633 -0.15873189 0.068760484
0.076641403 -0.24181691 0.40602714 0.33513263 -0.91555864 -0.22234794 0.098157205
0.084504455 -0.24147877 0.40165415 0.37930498 -0.88955164 -0.25460878 0.11065332
0.11619466 -0.24162109 0.4049888 0.40198305 -0.8921144 -0.20625617 0.16562541
0.12273695 -0.24569136 0.40236655 0.29268393 -0.94497699 -0.14613241 0.14008094
-0.18127275 -0.23721507 0.4085668 -0.83892155 -0.51191384 -0.18481055 0.11375742
0.10835704 -0.23690285 0.40612441 0.37755087 -0.89587152 -0.23424254 0.15811035
0.11030443 -0.23337166 0.4095698 0.39994335 -0.89187199 -0.21121019 0.16935608
0.11284882 -0.22305548 0.40954769 0.60606414 -0.73418951 -0.30602634 0.20310126
-0.18052442 -0.19851288 0.40636525 -0.92601287 -0.17452884 -0.33472365 0.067821957
0.11474779 -0.19455568 0.40784064 0.90751177 -0.1586735 -0.38890234 0.14121552
0.12136451 -0.18958582 0.40548539 0.90349573 -0.079495482 -0.42116025 0.11905947
0.11278887 -0.17601404 0.40975526 0.94236135 -0.072034806 -0.32675087 0.066743925
-0.18026219 -0.16171707 0.40836453 -0.9228586 0.050372224 -0.38183072 0.044706419
-0.17890656 -0.16348045 0.40488362 -0.90678167 0.031848222 -0.42039579 0.03877373
0.11386522 -0.16678995 0.40593269 0.91367412 -0.00031534728 -0.40644747 0.05963124
-0.17839688 -0.15999277 0.40449098 -0.91338181 0.040807091 -0.40505356 0.04422798
-0.17512944 -0.14415812 0.40335771 -0.91359168 0.019919425 -0.40614468 0.050060753
0.10465757 -0.14081997 0.4000656 0.89924651 0.0013791855 -0.43744016 0.068735324
0.11131125 -0.13316011 0.40939957 0.96711224 0.015312313 -0.25388852 0.07185372
-0.17411771 -0.12227842 0.40297827 -0.94740117 0.025247002 -0.31905118 0.061912399
-0.18036792 -0.11938069 0.40954518 -0.98131412 0.033054091 -0.18955244 0.06321314
-0.17589942 -0.11590987 0.40415841 -0.95694166 0.022795316 -0.28938383 0.070643604
0.11310761 -0.11989048 0.40871793 0.94787455 0.040337149 -0.31608036 0.059629578
-0.17821455 -0.1076069 0.40712276 -0.98293167 0.013605341 -0.18346709 0.060612444
-0.16844212 -0.092271701 0.40607184 -0.98759931 -0.0093143806 -0.15671913 0.063185692
0.11248824 -0.097183831 0.4064759 0.9415347 0.12761228 -0.31181327 0.083400816
-0.17244297 -0.086038545 0.4063282 -0.98956525 -0.0059483889 -0.14396288 0.059103511
-0.16860811 -0.081354134 0.40218413 -0.96107101 -0.012039117 -0.27603921 0.061196744
-0.15594362 -0.089181371 0.402363 -0.95686799 0.0081219682 -0.29040945 0.064220659
0.11443987 -0.087889165 0.4055143 0.96395063 0.112891 -0.24094562 0.096204355
-0.18250224 -0.072290421 0.409383 -0.98437166 -0.027779836 -0.17389864 0.052934863
0.11006837 -0.072196007 0.40700728 0.99044979 0.057450622 -0.12533447 0.11761817
0.034240499 -0.068053238 0.40665865 0.62299788 0.55817091 -0.54801351 0.1636
0.036767337 -0.054886542 0.40748131 0.62399799 0.77935582 -0.056842636 0.15299344
-0.17891338 -0.044544742 0.40811026 -0.9285441 0.0088615278 -0.37111646 0.0430668
-0.071507201 -0.036456876 0.40547907 -0.71688294 0.037722994 -0.6961723 0.00093377987
0.10947252 -0.031017186 0.40117046 0.99463791 0.068147406 0.07779067 0.13685887
-0.17662908 -0.027866788 0.40419403 -0.89822143 -0.0098059531 -0.43943396 0.040417466
-0.069803677 -0.023564961 0.40587151 -0.71688294 0.037722994 -0.6961723 0.00093377987
0.113786 -0.025498334 0.40485972 0.99619901 -0.010461485 0.086475939 0.080530241
-0.17613889 -0.013912567 0.40356317 -0.86996508 0.02072564 -0.49267748 0.027809775
0.11249173 -0.0194722 0.40641248 0.99299037 0.013282775 0.11744662 0.11312801
-0.17634466 -0.0047382554 0.40401044 -0.85990316 0.094085053 -0.50171167 0.024250738
0.11069927 -0.0061980868 0.40294695 0.99765188 0.04092798 -0.054914717 0.13003528
0.035291955 0.0072995611 0.40198231 0.59556586 0.12528042 -0.79347724 0.19035852
0.11621487 0.0038827588 0.40538889 0.99757433 0.064232089 -0.02682614 0.10843846
-0.17277966 0.028009782 0.40640578 -0.86449057 0.25810087 -0.43132353 0.065932758
0.029015783 0.021837097 0.40093875 0.61919302 0.33703363 -0.70923084 0.23198837
-0.17442702 0.031495649 0.40586567 -0.86209953 0.26109436 -0.43429726 0.064874724
-0.16899349 0.049737766 0.40118551 -0.82854229 0.34393257 -0.44184622 0.074122094
-0.17036757 0.052725125 0.40212172 -0.8245579 0.37130222 -0.42689452 0.08004088
-0.12512684 0.058178503 0.40964609 -0.33777192 0.92460591 -0.17610805 0.082722753
0.08887165 0.059293192 0.40045264 0.54009616 0.79220432 -0.28409237 0.15516366
0.091597468 0.057001311 0.40147686 0.59830779 0.75260508 -0.27497905 0.16229828
0.1048857 0.053322658 0.40782937 0.78614092 0.61531091 0.058094814 0.14373626
0.11712554 0.054503728 0.4022924 0.79056937 0.59892386 -0.12763388 0.13303258
-0.16270746 0.06548547 0.40336919 -0.65671682 0.68289208 -0.31997117 0.11682302
-0.15626073 0.066054501 0.40324926 -0.59173715 0.75593144 -0.28002617 0.12059709
-0.08498428 0.064130217 0.4043555 -0.023758546 0.98686939 -0.1597635 0.033818115
-0.07040441 0.068880625 0.40796855 0.03052072 0.99502409 -0.09484531 0.025542125
-0.040274244 0.065941289 0.40098667 5.3374893e-05 0.99514085 -0.098462008 0.048955888
-0.037363075 0.067070872 0.40350869 -0.0018916973 0.99523181 -0.097519584 0.048505455
-0.011324126 0.067285158 0.40989465 0.051654454 0.99409527 -0.095427617 0.061968714
-0.00096055091 0.064950459 0.40826651 0.038960267 0.99487424 -0.093313344 0.071709134
0.006217109 0.065156952 0.40526056 0.041836426 0.99656314 -0.071496785 0.07407289
0.016698884 0.064838618 0.40651244 0.067112423 0.99591941 -0.060336582 0.080476232
0.022126058 0.065354437 0.4084422 0.083711796 0.99335945 -0.078926004 0.090656608
0.033973075 0.06550692 0.40251696 0.1224116 0.98634893 -0.11014166 0.10789081
0.054425534 0.066096634 0.40365991 0.17350157 0.97327125 -0.15046677 0.13037847
0.062998921 0.065455854 0.40173101 0.19907606 0.96815115 -0.15182938 0.13352343
0.076710612 0.063272573 0.40642789 0.42622688 0.86883241 -0.25191459 0.15442637
0.081823029 0.062494081 0.40253127 0.50112045 0.81687474 -0.28564671 0.15724054
-0.027659707 0.073200285 0.40843558 0.0081204213 0.99765855 -0.067908056 0.031348463
-0.17685476 -0.24072534 0.4152737 -0.74918526 -0.6509167 -0.12259246 0.12236834
-0.16839463 -0.24124169 0.41204751 -0.55937064 -0.81751472 -0.13701884 0.11514098
-0.1541452 -0.2417026 0.41441241 -0.3630549 -0.92391151 -0.12074277 0.090722807
-0.14507081 -0.2417026 0.41370979 -0.26559654 -0.95801914 -0.10797161 0.074151166
-0.1227057 -0.2417026 0.41095099 -0.17981562 -0.97999579 -0.085291401 0.049727481
-0.096819222 -0.2417026 0.41918379 -0.02184611 -0.99974984 -0.0048149489 0.0020617137
-0.087052628 -0.2417026 0.41403767 -0.013007175 -0.99989647 -0.0061587063 0.00045358474
-0.074723117 -0.2417026 0.41590834 -0.0048442837 -0.99998826 0.00024975926 3.3757024e-05
-0.06762591 -0.2417026 0.4165476 -0.0017153234 -0.99999785 0.0012006272 2.3196289e-07
-0.01014163 -0.24170262 0.4186258 0.0057290117 -0.99998093 -0.0023152579 0.00033633501
-0.00391265 -0.2417026 0.41240859 0.0053513427 -0.99998206 -0.0026995894 0.0003706342
0.01341921 -0.24170259 0.4142217 0.0026021202 -0.99999261 -0.0028266939 0.00038738924
0.044418041 -0.24076124 0.414597 0.11435596 -0.9865213 -0.11704084 0.052845482
0.056707427 -0.24156183 0.41713375 0.15015797 -0.98252684 -0.10997105 0.057589814
0.074653469 -0.24188013 0.41500914 0.27113798 -0.94164324 -0.19947982 0.0945746
0.08387281 -0.24176164 0.41628748 0.33178267 -0.93542778 -0.12204534 0.11240257
0.11553401 -0.24045609 0.41406843 0.38276914 -0.9133752 -0.138685 0.14944471
0.1583043 -0.2417026 0.41341549 0.068559282 -0.95923638 -0.27416289 0.16492566
-0.18354428 -0.23688143 0.41444013 -0.85800588 -0.49803182 -0.12565918 0.11632972
0.10900795 -0.23664568 0.4142679 0.3883926 -0.9067834 -0.16399726 0.1621955
0.11659186 -0.23718935 0.41595733 0.42980924 -0.89474458 -0.12122771 0.16491966
0.17659818 -0.23874612 0.41818851 0.18109719 -0.23075439 -0.95601064 0.11883529
-0.19243543 -0.22424679 0.41467649 -0.94158822 -0.32174835 -0.099447213 0.10401112
-0.19661398 -0.21705091 0.41364747 -0.96231204 -0.24148732 -0.12505785 0.094001859
-0.18994093 -0.21323618 0.41206029 -0.95506239 -0.21271771 -0.20641465 0.088525847
0.11897751 -0.21291292 0.41882941 0.82148093 -0.43228248 -0.37188846 0.20352373
-0.18366484 -0.20350963 0.41935802 -0.97101867 -0.18724585 -0.14853211 0.081967652
0.11582579 -0.2071988 0.41212213 0.84318799 -0.31345254 -0.43678558 0.18425621
-0.18256725 -0.19552185 0.4150399 -0.9547233 -0.15310937 -0.25507072 0.067292452
-0.18075132 -0.18465981 0.4151713 -0.96881813 -0.08509919 -0.23270062 0.053184103
-0.17995304 -0.18509781 0.41077837 -0.94778031 -0.09812475 -0.30345359 0.052432731
0.11026382 -0.17297933 0.41305071 0.96190143 -0.046676055 -0.26938266 0.079863012
-0.18222287 -0.16463582 0.41994911 -0.99820364 0.057777505 -0.015854741 0.060433146
0.10648089 -0.16662849 0.41937032 0.99328375 0.00052371534 -0.11570299 0.079108372
-0.17912316 -0.15125291 0.41324642 -0.96948773 0.048244096 -0.24034597 0.068179786
0.1066466 -0.14921114 0.41909608 0.99106359 0.0046843858 -0.13330826 0.087718852
-0.19112572 -0.13318312 0.4161478 -0.98817384 0.016243879 -0.152475 0.050732471
0.10915118 -0.13934135 0.41414645 0.96779978 0.0057793995 -0.25165504 0.073520966
0.10984839 -0.12634073 0.41831687 0.97422779 0.0088071739 -0.22539443 0.063582428
0.11274109 -0.12268304 0.41425118 0.97892678 0.016729709 -0.20352542 0.06311518
-0.1826591 -0.11636888 0.4149487 -0.99579734 0.028047519 -0.087183721 0.058259536
0.11354161 -0.1182408 0.41209444 0.96096104 0.047202356 -0.27262771 0.057240784
-0.18315619 -0.10579474 0.41464829 -0.99927133 0.0088074701 -0.037137203 0.060217462
0.1152173 -0.10280569 0.416682 0.98058993 0.061770577 -0.18608546 0.068977281
-0.18337387 -0.092484951 0.41511339 -0.99852014 0.0080347639 -0.053786885 0.060201991
-0.17994918 -0.090663165 0.41076523 -0.99671423 -0.0043570483 -0.080881812 0.058744304
0.11434045 -0.097981326 0.41630989 0.96332997 0.15010646 -0.22240411 0.085891895
0.11164718 -0.086024068 0.41398868 0.96252513 0.12987359 -0.2380721 0.12166944
-0.18307859 -0.076218769 0.41395158 -0.99436617 -0.038936839 -0.098589286 0.059318706
0.10920853 -0.078369148 0.41509065 0.97455448 0.13638034 -0.17788757 0.12400745
-0.18217865 -0.066829309 0.41037539 -0.9815315 -0.026394321 -0.18947096 0.054021038
0.04258376 -0.06638822 0.418578 0.62897974 0.77047843 -0.10367038 0.15661551
0.10667014 -0.068248786 0.41398993 0.99611771 0.070202418 0.053113919 0.11909095
-0.18374483 -0.050976407 0.41846773 -0.97601861 -0.0097112395 -0.21747068 0.051302284
-0.18084832 -0.046226051 0.41110185 -0.94360489 0.0022883895 -0.33106574 0.045589112
0.053476196 -0.049060192 0.41629004 0.68962109 0.72406119 0.012573429 0.22203903
-0.18157275 -0.03723979 0.41474032 -0.94544142 -0.0033188253 -0.32577524 0.049784116
-0.17971441 -0.032570094 0.4108156 -0.92436939 0.002997075 -0.38148704 0.046810575
-0.084316485 -0.037111066 0.41816062 -0.29118481 0.86446029 0.40978035 0.017547533
-0.18030557 -0.0274707 0.41311902 -0.9398942 -0.00090736139 -0.34146455 0.057954174
-0.17936923 -0.028180014 0.41026381 -0.91463947 -0.0060412986 -0.40422547 0.044573113
0.10814375 -0.011544001 0.41839385 0.97224343 0.033938069 0.23149723 0.11815093
0.11057431 -0.018308129 0.41350454 0.98942959 0.016168185 0.14411022 0.12084354
-0.18419921 -0.0057291337 0.4166306 -0.95940632 0.068076707 -0.27368802 0.047832593
0.10848465 -0.00077324163 0.41910273 0.97382253 0.075048938 0.21456309 0.11922836
-0.18144853 0.0057079038 0.41295689 -0.92032599 0.15530205 -0.3590005 0.053491015
0.11828074 0.0058646486 0.41282642 0.99422383 0.084430359 0.066261433 0.092102125
0.045169979 0.017110104 0.41219181 0.5546301 0.23374236 -0.79859257 0.24317056
0.11350752 0.04567105 0.41931686 0.82538819 0.54372388 0.15198264 0.13538082
-0.17333414 0.05808714 0.41426441 -0.82764673 0.50677341 -0.24120872 0.098701499
-0.12259582 0.054645427 0.41159081 -0.33474541 0.9273482 -0.16724499 0.083773762
0.11287341 0.050876662 0.41183662 0.81063229 0.57732189 0.097850412 0.14179182
-0.16635454 0.063745804 0.41354024 -0.66754627 0.72947192 -0.1491729 0.1178382
-0.14536758 0.06281016 0.41358814 -0.4635523 0.87675768 -0.12812194 0.10384057
-0.13938758 0.061513532 0.41924167 -0.42273369 0.90350014 -0.070595495 0.091909871
-0.08746504 0.066081308 0.41295674 -0.040806618 0.99628896 -0.075783961 0.015425995
-0.074741758 0.066243537 0.41572574 -0.0014368455 0.99746335 -0.071168713 0.01743963
-0.068100922 0.066653013 0.41919038 0.0030052096 0.99718791 -0.074881211 0.020576224
-0.0068195602 0.06556569 0.41599563 0.053481724 0.99489069 -0.085628241 0.059083045
0.013429934 0.066497885 0.41405365 0.064518861 0.99630839 -0.056629874 0.065349951
0.044213742 0.064088091 0.41527236 0.10845583 0.98735803 -0.11559179 0.11552624
0.056007829 0.064721353 0.4148958 0.1435169 0.98072094 -0.13262446 0.12988198
0.060705181 0.065770015 0.41953954 0.1614279 0.97950691 -0.12044606 0.11922782
0.074413165 0.064980179 0.41495728 0.35279024 0.91273451 -0.20604558 0.15349996
0.083803631 0.063965559 0.41628867 0.50806558 0.8495518 -0.14188416 0.15928355
-0.093325809 0.070301011 0.41981775 -0.050075106 0.99809444 -0.036054783 0.011645578
-0.17643435 -0.24057449 0.42414573 -0.72743261 -0.68540704 -0.032543145 0.12740895
-0.16784891 -0.24126069 0.42415267 -0.55348891 -0.82995731 -0.069433287 0.12436556
-0.15946551 -0.2417026 0.42524019 -0.38353992 -0.92223388 -0.04880479 0.1073541
-0.1399394 -0.2417026 0.42016959 -0.21507001 -0.97593385 -0.036028493 0.065698758
-0.093347758 -0.2417026 0.42565465 -0.016173264 -0.99950588 0.026952917 0.00160022
-0.083665021 -0.2417026 0.42421943 -0.0098765669 -0.99993318 0.0060050329 0.00025196522
-0.074114323 -0.2417026 0.4267301 -0.0055227424 -0.99997693 0.0039688861 5.5923567e-05
0.054903436 -0.24178353 0.42052606 0.13253404 -0.99058706 -0.034234464 0.036296893
0.064523034 -0.24204716 0.42570871 0.16376336 -0.98624384 -0.02246487 0.048008863
0.074564308 -0.24192956 0.42976835 0.24588256 -0.9690969 -0.019826008 0.075372666
0.086887479 -0.24172433 0.42543852 0.32184017 -0.94459897 -0.06443426 0.102111
0.091037996 -0.24133521 0.42760921 0.37717006 -0.92426902 -0.058903098 0.11528628
0.10248026 -0.24043986 0.42477563 0.35093579 -0.93107307 -0.099735051 0.14501543
-0.18539271 -0.23727898 0.42511144 -0.86739147 -0.4974837 -0.011917833 0.11904475
0.1129555 -0.23855603 0.42466402 0.37693769 -0.92040467 -0.10379455 0.15294212
0.12015714 -0.23630358 0.42409658 0.40123683 -0.90471166 -0.1431988 0.16036661
0.12277945 -0.22688262 0.42778471 0.50778908 -0.84280574 -0.17840639 0.19599023
-0.18210392 -0.18254618 0.42139071 -0.99817467 -0.028691176 -0.053142313 0.062247649
-0.1830806 -0.1724298 0.42756575 -0.99185437 0.041035548 0.12058619 0.049334034
-0.1829032 -0.16401857 0.42254597 -0.99640113 0.069284447 0.048830923 0.05880421
-0.18914162 -0.13304289 0.42232189 -0.99988437 0.0013390384 -0.015151205 0.062772095
-0.18509875 -0.12275866 0.42595053 -0.99548811 -0.0083945673 0.094514064 0.0621645
-0.18496311 -0.1007233 0.42516452 -0.99842417 -0.014121164 0.054311629 0.057928916
-0.18525754 -0.070512787 0.42900801 -0.99691057 -0.07303597 0.02889855 0.057815846
0.10265438 -0.068585597 0.42061663 0.99282551 0.07387837 0.094018474 0.13710575
-0.18543865 -0.054345287 0.4252058 -0.99179256 -0.026724681 -0.12503326 0.054956205
0.06040233 -0.041522421 0.42569751 0.64112443 0.73463225 0.22197969 0.25228861
-0.18237484 -0.030583892 0.420632 -0.98773479 0.01828721 -0.15506651 0.061602306
-0.18287678 -0.024537217 0.42488471 -0.99494517 0.0079684416 -0.10010254 0.066833049
-0.091470361 -0.02915317 0.4296762 -0.40541017 0.82548428 -0.39270657 0.11175407
-0.18377778 -0.011531346 0.42132795 -0.98587924 0.02257633 -0.16592917 0.060128987
0.10789813 -0.0096820965 0.42089325 0.97443372 0.03014848 0.22264339 0.11840294
-0.18319581 0.0064481716 0.42436099 -0.97663581 0.17092294 -0.13026111 0.075645454
-0.18141313 0.014917715 0.42872709 -0.97727621 0.21183841 -0.0074628401 0.08441931
0.10280588 0.011298111 0.42798686 0.91198063 0.22955418 0.33999458 0.13203272
-0.18238053 0.023498418 0.42132407 -0.9607383 0.23034394 -0.15467258 0.085995205
0.1008461 0.027933961 0.4288632 0.87384826 0.37555346 0.30878583 0.13970987
-0.18713307 0.039628565 0.42378703 -0.94486755 0.3237322 -0.049222186 0.084354468
-0.18741457 0.048587851 0.42585349 -0.92542797 0.37422618 0.059480108 0.092650324
-0.18499027 0.051117126 0.42476687 -0.9125669 0.4074173 0.035110943 0.098896019
0.099396035 0.059119519 0.42982516 0.73498815 0.63405436 0.24034877 0.12929261
0.10788281 0.052892052 0.42425686 0.77688622 0.60149086 0.18616271 0.12890115
-0.16751467 0.06375967 0.42429808 -0.68621808 0.72727442 0.013291954 0.11003778
-0.15939003 0.064572819 0.42518917 -0.55984783 0.82858586 -0.0039975741 0.1099259
-0.085032359 0.067011371 0.42482662 -0.047008526 0.99888885 -0.0033514507 0.0085448045
-0.075143933 0.065705806 0.426359 -0.048987135 0.99869114 -0.014704083 0.0072214413
0.057194818 0.065205172 0.42057914 0.1266858 0.98815966 -0.086551704 0.11216467
0.068832792 0.066890903 0.42475089 0.2518602 0.96209621 -0.10458234 0.13857323
0.075041451 0.06586276 0.42925453 0.40192646 0.91534227 0.024571475 0.14388904
0.086427152 0.063249804 0.42459983 0.58202022 0.81240225 0.035427589 0.15846106
-0.092550434 0.070973895 0.42219406 -0.042875599 0.99902922 -0.010113629 0.0079929344
-0.097011447 0.081225589 0.42533287 -0.039951932 0.99919176 -0.0044336691 0.0078333234
-0.1848544 -0.24002279 0.43407604 -0.83606207 -0.54793119 0.027778894 0.11927743
-0.17638153 -0.24005614 0.43704721 -0.72921944 -0.68147343 0.061911695 0.12918617
-0.16296427 -0.24130037 0.43361273 -0.36815572 -0.92944068 -0.024524363 0.10450962
-0.15451029 -0.24143873 0.4331592 -0.31408891 -0.9491899 -0.019664222 0.094282106
-0.1349633 -0.2417026 0.43653321 -0.17886709 -0.98365647 0.020654874 0.05936696
-0.1232864 -0.2417026 0.43771771 -0.096481711 -0.99398726 0.051774707 0.028388694
-0.096840478 -0.2417026 0.43574286 -0.031782534 -0.99768299 0.060154013 0.01120759
-0.089901783 -0.2417026 0.43744919 -0.031604495 -0.99796325 0.055411868 0.0084967362
-0.075004339 -0.2417026 0.43452379 -0.010536863 -0.99989408 0.010044364 0.00030148568
-0.067908563 -0.24170262 0.4379926 -0.0077298451 -0.9999488 0.0065293754 0.0001525704
0.046289578 -0.24185295 0.43583566 0.065364152 -0.9977743 -0.01318964 0.012556474
0.054618839 -0.24196132 0.43249395 0.094588973 -0.99535459 -0.017950665 0.024122741
0.078603446 -0.24163939 0.43723428 0.2765314 -0.96100467 -0.00070310832 0.092600308
0.087441407 -0.24132575 0.43996853 0.32174304 -0.94603336 -0.038761016 0.11337467
0.093189806 -0.24145287 0.4315421 0.39515513 -0.9173013 -0.049099699 0.12483869
0.1031119 -0.2407206 0.43134013 0.30988392 -0.94637656 -0.091341935 0.13755235
0.18050453 -0.24170247 0.4345015 -0.068997063 -0.99757308 -0.0093458453 0.049840454
-0.19227618 -0.2390829 0.43237472 -0.89400369 -0.44678983 0.033709642 0.11434746
0.18054052 -0.23640552 0.43449289 -0.10164365 -0.99426883 -0.033137191 0.068925627
-0.18564181 -0.16832866 0.43063018 -0.9866398 0.064185932 0.14974011 0.045164652
-0.1812021 -0.15696818 0.43071339 -0.98750353 0.062581703 0.1446387 0.065207087
-0.18927076 -0.11267969 0.43398309 -0.98689961 -1.9941595e-05 0.16133583 0.063367799
-0.18773144 -0.10200652 0.43660361 -0.98758113 -0.041220598 0.15160634 0.057269681
-0.18298954 -0.093622424 0.43450221 -0.991862 -0.03931408 0.12109554 0.054107476
0.079028271 -0.080793589 0.43820611 0.95114869 0.25646764 0.17187378 0.17616782
-0.184038 -0.07678175 0.43300489 -0.99704349 -0.050404433 0.057997379 0.05401944
-0.18117964 -0.061603438 0.43977013 -0.98527449 -0.025460707 0.16907385 0.054965362
0.097155266 -0.062328584 0.43246329 0.93292475 0.078086704 0.35150242 0.13634424
-0.18166444 -0.046801824 0.43195945 -0.9997167 0.022812741 -0.006787634 0.059997562
0.1043535 -0.04971835 0.43175799 0.93839639 0.065957785 0.33920756 0.12829007
-0.18296377 -0.023333365 0.43484738 -0.99983954 0.0046472251 -0.017296765 0.069841743
-0.18304324 -0.015834622 0.43770856 -0.99991506 -0.0029440359 -0.012699744 0.063655935
-0.18205138 -0.00016851525 0.43584704 -0.99150062 0.11259877 0.065177381 0.069280751
-0.18296863 0.000213261 0.43511772 -0.99284422 0.1083589 0.050187476 0.069006331
-0.17840903 0.012902842 0.43819794 -0.96996254 0.2051156 0.13076805 0.080028757
0.097896136 0.024490673 0.43396783 0.87066638 0.33088455 0.36394429 0.14216724
-0.18714707 0.056089241 0.4359225 -0.89030844 0.40363494 0.21078382 0.090884052
0.10250544 0.057263762 0.43170497 0.74804622 0.62279522 0.22924455 0.080415472
-0.17108421 0.062363055 0.43761286 -0.81234735 0.53941298 0.22164258 0.091100797
-0.16241743 0.065284505 0.43324766 -0.62198204 0.77885789 0.080739483 0.10962238
-0.15453133 0.065300234 0.43312478 -0.52107954 0.85146439 0.059029978 0.10097902
-0.13644113 0.063156031 0.43795595 -0.37998399 0.92177701 0.077067412 0.081024669
-0.12306129 0.060415857 0.43770245 -0.2183295 0.97295004 0.075501315 0.051623955
-0.09025725 0.066581957 0.43432343 -0.058878783 0.99753147 0.038265832 0.015888622
-0.089624427 0.063697264 0.43715146 -0.063008055 0.99728185 0.038195282 0.016938366
-0.075467736 0.064445734 0.43426609 -0.071768425 0.99742126 0.00040385692 0.010170365
-0.06792137 0.066035487 0.43805131 -0.060540762 0.99815995 -0.0034079193 0.0077975462
0.046398718 0.063841917 0.4358522 0.12758261 0.990233 -0.056226015 0.093384683
0.053756405 0.065438882 0.4320302 0.12749712 0.99080479 -0.045281295 0.094000012
0.068788789 0.071520627 0.43335453 0.17462817 0.98461288 0.0065213619 0.076040059
-0.18394625 -0.24014379 0.44543332 -0.82833081 -0.52601081 0.19282305 0.127235
-0.16533071 -0.24013393 0.44592056 -0.42324474 -0.90347672 0.067777045 0.12089827
-0.15256973 -0.24092792 0.44745865 -0.267638 -0.96041083 0.077337116 0.089852124
-0.13784514 -0.24158099 0.44278377 -0.16270299 -0.98581958 0.04107897 0.055316411
-0.1053319 -0.2417026 0.4443427 -0.046827357 -0.99627197 0.072452694 0.019263553
-0.090979397 -0.2417026 0.44535571 -0.04588012 -0.99725956 0.058038566 0.014296795
0.055179074 -0.24179591 0.44387627 0.12301413 -0.99020612 0.066025563 0.059552133
0.072035745 -0.24155517 0.44966671 0.20733747 -0.97486103 0.081591703 0.10580313
0.086458877 -0.2403955 0.44615021 0.28050789 -0.95751649 0.0669147 0.14484987
0.10055309 -0.24091518 0.44120452 0.31522903 -0.94856566 -0.029222028 0.1320655
-0.17287037 -0.23969968 0.44482493 -0.7075491 -0.692316 0.14167908 0.12470665
0.093913428 -0.2392948 0.44581211 0.39049232 -0.92043173 0.017920246 0.14867462
0.096545279 -0.21451719 0.44742593 0.71506804 -0.68806571 0.12346401 0.20337793
-0.18137303 -0.15116087 0.4469803 -0.95763385 0.027022611 0.28671795 0.061288357
-0.17769156 -0.15202551 0.44295198 -0.96395063 0.046713736 0.26194862 0.066282906
-0.17212792 -0.12684132 0.4475947 -0.94804054 -0.032099999 0.31652617 0.058888443
-0.17070012 -0.092863411 0.44366667 -0.96713716 -0.05327126 0.24861206 0.057157177
-0.1648853 -0.092146099 0.44810891 -0.94028378 -0.044820655 0.33742782 0.06064567
0.092661463 -0.080686294 0.44932795 0.87637162 0.070660301 0.47642413 0.10099889
0.090445973 -0.074617758 0.44263622 0.89411068 0.094681732 0.43772304 0.12584013
-0.18225622 -0.05701882 0.44846898 -0.97338706 -0.045242734 0.22465706 0.047221884
-0.17133664 -0.049227569 0.44711396 -0.95988202 0.0074913548 0.28030404 0.059697509
-0.16897812 -0.047843579 0.44622636 -0.95918977 0.017105363 0.28224528 0.060639225
0.084938616 -0.044587381 0.44946754 0.89464569 -0.016574522 0.4464688 0.15293816
0.094489604 -0.048221707 0.44315308 0.90110272 0.01882847 0.43319678 0.12902837
0.076761127 -0.03944882 0.44464621 0.82426685 0.43329164 0.36447567 0.26637924
0.08002571 -0.026751919 0.44461894 0.74943948 0.53682053 0.38751033 0.23913176
-0.18274076 -0.015552319 0.44010472 -0.99869686 0.0069337236 0.05056221 0.067306481
0.088788092 -0.011185809 0.44534966 0.92872506 0.061178658 0.36568686 0.13834353
0.1005634 0.0094125867 0.4412469 0.85707349 0.21929097 0.46619374 0.12042664
-0.17470589 0.011436669 0.44903466 -0.90327358 0.20168711 0.3787072 0.05666741
-0.1724989 0.03055072 0.44270629 -0.90147948 0.31826943 0.29332474 0.070878401
0.072278 0.059902526 0.44974786 0.52383393 0.7946527 0.30679825 0.11977415
0.088099025 0.059438005 0.44099507 0.68182749 0.67510855 0.28167301 0.11959848
-0.16497973 0.063374743 0.44224051 -0.71782982 0.65222961 0.24355058 0.09890639
-0.15268773 0.064050727 0.44728199 -0.46520534 0.85613996 0.22496298 0.075890146
-0.13855553 0.063396908 0.44494084 -0.35865903 0.92166364 0.14798592 0.067239568
-0.090865344 0.061033133 0.44525748 -0.10296496 0.99343818 0.049787614 0.029086275
-0.056220114 0.06644959 0.44999337 -0.025730006 0.99965149 -0.005902722 0.0080165388
0.054976769 0.063133225 0.44382185 0.17761898 0.98343205 0.036233913 0.081311166
-0.19144078 -0.24251312 0.45267332 -0.727355 -0.65885764 0.19199337 0.12101237
-0.15453206 -0.24022005 0.45332909 -0.2963143 -0.94673729 0.12604108 0.10250048
-0.13794143 -0.24119133 0.45557833 -0.13783665 -0.98079377 0.13800271 0.069247872
-0.11301956 -0.24159768 0.45628077 -0.082871027 -0.98721516 0.13615657 0.053654432
-0.053453483 -0.2417026 0.45338929 -0.021736702 -0.99958968 0.018657232 0.0025070447
0.046067405 -0.2417026 0.45278433 0.069948792 -0.99608356 0.0540809 0.048476949
0.051721219 -0.2417026 0.45433801 0.11917211 -0.98938602 0.083146721 0.062814675
0.063295454 -0.2417026 0.45478743 0.14271978 -0.98613566 0.084661573 0.077047624
0.074193582 -0.24150838 0.45336011 0.21475166 -0.97044116 0.11011671 0.10857301
-0.18371792 -0.23955408 0.45515981 -0.71256447 -0.66095567 0.23534986 0.12184484
-0.17458293 -0.23884685 0.45314273 -0.69696468 -0.67244881 0.2491041 0.12406828
-0.16656619 -0.23939957 0.45214981 -0.41708422 -0.89970821 0.12870882 0.11756066
0.085443415 -0.23986684 0.45360184 0.27760309 -0.95559072 0.098908678 0.14419346
0.092928037 -0.23953205 0.45402253 0.32016882 -0.9413209 0.1068031 0.16078743
0.093113624 -0.22589506 0.45174778 0.61648434 -0.77373284 0.14589252 0.1932679
0.09401679 -0.21048747 0.45336127 0.76755786 -0.61975324 0.16358726 0.20308796
0.093872733 -0.2041731 0.4562819 0.83376211 -0.4935573 0.24747112 0.21217321
-0.166115 -0.1991234 0.45634201 -0.89402276 -0.073750332 0.4419097 0.080251195
0.096752182 -0.1768354 0.45986399 0.88805556 0.070404299 0.45431325 0.10823738
-0.19265538 -0.16146074 0.45296732 -0.94155174 0.075073667 0.32839659 0.042021595
0.087722793 -0.16440216 0.45228556 0.90658152 0.030994877 0.42089099 0.062305991
-0.15618367 -0.1234329 0.4549 -0.92683184 -0.00010573672 0.37547666 0.058050275
-0.16236985 -0.11984269 0.45448422 -0.92647451 -0.030468874 0.37512228 0.06193212
-0.16784315 -0.085329399 0.45189694 -0.92701107 -0.032602545 0.37361425 0.058299117
-0.15512721 -0.070066579 0.4563593 -0.89167172 -0.020689402 0.45220953 0.05540682
-0.15565485 -0.06433215 0.45512158 -0.87397903 0.0091801789 0.48587701 0.058500141
0.088572919 -0.03558265 0.45858932 0.85888368 -0.069139056 0.50748271 0.11074062
0.089341901 -0.012635174 0.45191294 0.91152281 0.08643844 0.40206304 0.13086632
-0.18026191 0.00032414269 0.45098758 -0.93297863 0.10645362 0.34382924 0.05744537
-0.16698991 0.024231708 0.45795119 -0.86488307 0.23144141 0.44543478 0.056194071
-0.17215902 0.056424953 0.45312178 -0.80290037 0.45558795 0.38443553 0.062314488
0.087825753 0.056040291 0.4503895 0.69233531 0.6273334 0.35654551 0.11396895
-0.13816796 0.060519643 0.45540366 -0.35855398 0.90375268 0.2338163 0.07464499
-0.051123533 0.065368459 0.45624918 -0.015744135 0.99985325 0.0067521515 0.0080753136
0.0049609658 0.0630242 0.45963255 0.048744787 0.99878281 0.0075470135 0.019970641
0.04609387 0.062962286 0.45265606 0.18725929 0.98039144 0.061372869 0.074506886
