# .PCD v0.7 - Point Cloud Data file format
VERSION 0.7
FIELDS x y z normal_x normal_y normal_z curvature
SIZE 4 4 4 4 4 4 4
TYPE F F F F F F F
COUNT 1 1 1 1 1 1 1
WIDTH 405
HEIGHT 1
VIEWPOINT 0 0 0 1 0 0 0
POINTS 405
DATA ascii
0.089739963 -0.34927073 0.3048504 0.028023509 -0.99045718 0.13494162 0.0025028274
0.070761077 -0.34599233 0.32687888 0.038007792 -0.99460578 0.096512981 0.0019480734
0.092192434 -0.34660572 0.33807448 0.038007792 -0.99460578 0.096512981 0.0019480734
0.027835783 -0.34751797 0.34105402 0.038003366 -0.99460632 0.096509427 0.0019541103
0.055108812 -0.34396738 0.34658161 0.038007792 -0.99460578 0.096512981 0.0019480734
0.024413284 -0.34663981 0.35448033 0.011464059 -0.99955446 0.027559558 0.0017333048
0.021663172 -0.34428537 0.36816218 0.017367361 -0.99983996 0.0042921081 0.0042325482
0.020841083 -0.34451532 0.37319821 0.055010129 -0.99847132 -0.0053741476 0.012254186
-0.05609566 -0.34438896 0.4239108 -0.071345419 -0.98069406 -0.18206878 0.021787308
-0.0049062865 -0.34093431 0.43395913 -0.024216136 -0.99863166 -0.046351306 0.015728045
0.008295591 -0.34154409 0.43106467 -0.01736678 -0.99945885 -0.027938277 0.015596959
0.022048758 -0.34638613 0.42772496 -0.0092183892 -0.9995876 -0.027197905 0.017805414
0.047424778 -0.34438899 0.42762619 0.053700697 -0.9977296 -0.040644597 0.012679163
0.2274726 -0.34438899 0.4277409 2.7668728e-05 -0.99999988 -0.00045989107 0
-0.1386133 -0.34438899 0.4399873 1.1015106e-06 -1 -0.00010592279 0
-0.1163182 -0.34438899 0.43482441 -0.002682515 -0.99999511 0.0015367521 6.5851767e-05
-0.078504972 -0.34438899 0.43650949 -0.065325394 -0.99399418 -0.087796308 0.019289305
-0.060762979 -0.34438899 0.43677109 -0.058171161 -0.98906946 -0.13549072 0.019447869
-0.04170296 -0.34438899 0.43820071 -0.058169551 -0.98442048 -0.16592959 0.01844774
-0.037083883 -0.34540027 0.43803206 -0.058169551 -0.98442048 -0.16592959 0.01844774
-0.014693881 -0.34400839 0.437094 -0.027024444 -0.99874079 -0.042268906 0.013091678
-0.0043143448 -0.34312981 0.43487018 -0.024216136 -0.99863166 -0.046351306 0.015728045
0.0098933531 -0.34572992 0.43341768 -0.019395029 -0.99873453 -0.046402331 0.018993353
0.036667898 -0.34438899 0.43587705 0.026867321 -0.9990046 -0.035609331 0.015401587
0.047066372 -0.34438899 0.43462133 0.054689173 -0.99673414 -0.059415605 0.015976105
0.050547849 -0.34438899 0.43967959 0.054689173 -0.99673414 -0.059415605 0.015976105
0.10415268 -0.34438899 0.43389219 3.9801827e-05 -0.99999994 -0.00036176667 0
0.14976171 -0.34438899 0.4330264 4.0744235e-06 -1 1.3523174e-06 4.319455e-06
-0.14035439 -0.34438899 0.4489778 1.7487255e-05 -1 -0.00010357029 0
-0.085546918 -0.34438899 0.4404493 -0.011909391 -0.99992239 0.0036665425 0.00074720412
-0.060190741 -0.34438899 0.44638881 -0.058171161 -0.98906946 -0.13549072 0.019447869
-0.054613292 -0.34438899 0.4445312 -0.069899194 -0.98125994 -0.1795634 0.019893015
-0.04817082 -0.34438899 0.44414109 -0.069899194 -0.98125994 -0.1795634 0.019893015
-0.032680832 -0.34879446 0.44211549 -0.048065379 -0.99794453 -0.042383619 0.018314732
-0.0081671355 -0.34690437 0.43705082 -0.025309794 -0.99858826 -0.04669809 0.014351673
0.010199907 -0.3484678 0.43549401 -0.019395029 -0.99873453 -0.046402331 0.018993353
0.023734221 -0.34944338 0.43691117 -0.0061860611 -0.99905449 -0.043033663 0.023848575
0.10702507 -0.34438899 0.4453266 3.9801827e-05 -0.99999994 -0.00036176667 0
0.1174399 -0.34438899 0.4483169 0 -1 0 4.0920218e-06
0.13096809 -0.34438899 0.44955689 2.9144368e-05 -0.99999988 -0.00037922105 0
0.14710373 -0.34438899 0.44484079 2.7900064e-06 -1 -5.8743472e-06 5.1321417e-06
0.1561836 -0.34438899 0.444563 6.6926765e-07 -0.99999988 0.00023264343 3.6571382e-06
0.21171141 -0.34438899 0.44953421 1.5103129e-06 -0.99999994 -0.00047087745 0
0.23889621 -0.34438899 0.44542131 -5.4814573e-05 -1 -0.0002565046 0
0.249164 -0.34438899 0.4451181 -5.4814573e-05 -1 -0.0002565046 0
-0.095072582 -0.34438899 0.45489949 -0.011441414 -0.99992692 0.0039000229 0.00079048082
-0.075025089 -0.34438899 0.4535476 -0.065325394 -0.99399418 -0.087796308 0.019289305
-0.034780279 -0.34438899 0.45173439 -0.048043504 -0.99799311 -0.041250836 0.01618669
0.10549298 -0.34438899 0.4517599 3.9801827e-05 -0.99999994 -0.00036176667 0
0.1474562 -0.34438899 0.45362321 2.7900064e-06 -1 -5.8743472e-06 5.1321417e-06
0.2081515 -0.34438899 0.45310491 -1.0741143e-05 -0.99999988 -0.00050790119 0
0.2106937 -0.34438899 0.45052919 -1.0741143e-05 -0.99999988 -0.00050790119 0
-0.080236718 -0.34438899 0.47610381 -0.0080377553 -0.99996716 0.0010573306 0.00076326402
-0.010548146 -0.3440367 0.51733601 -0.06060135 -0.99586701 0.067649961 0.020687211
-0.010116401 -0.34488329 0.51893407 -0.047197223 -0.99674672 0.065333247 0.033574283
0.24960619 -0.34427106 0.52733207 0.80922616 0.52282518 0.26796809 0.021028575
0.10532796 -0.34439301 0.5375216 0.017589457 -0.99673802 -0.078764364 0.0030742136
0.25293785 -0.34501135 0.5406391 -0.055112563 -0.9972288 0.049971938 0.0090126665
-0.0052317814 -0.3500748 0.54934907 -0.016397094 -0.99449915 0.10345326 0.016938452
0.11104862 -0.34445298 0.54352212 0.012738382 -0.99750179 -0.069482997 0.0028217668
0.25405848 -0.34403601 0.54561555 -0.051204287 -0.99742055 0.050302777 0.0083424877
-0.080710128 -0.34438899 0.55751997 -0.0091377189 -0.9996891 0.02319761 0.00061281514
-0.05269447 -0.34438899 0.55122441 -0.029986117 -0.99556899 0.089124396 0.018491969
-0.15290016 -0.34438902 0.56310856 -1.2968907e-05 -0.99999988 -0.00036599513 0
-0.043693975 -0.34438899 0.56814963 -0.023970652 -0.99549979 0.09168122 0.014984661
-0.03797422 -0.34438899 0.56198031 -0.017836522 -0.9954381 0.093727835 0.01363638
-0.01694138 -0.34438899 0.56969702 -0.0065878257 -0.9954437 0.095123328 0.013111035
0.14298344 -0.3409611 0.5630089 -0.0041081319 -0.99819726 -0.059877668 0.0015748776
-0.1144288 -0.34438899 0.57337594 -1.3925969e-05 -1 0.00012240616 1.1310504e-05
-0.10503215 -0.34438899 0.57214439 -4.0548198e-06 -1 8.4316074e-05 1.0936436e-05
-0.099849284 -0.34438899 0.57302278 -6.9271528e-06 -1 9.2766648e-05 5.0486829e-06
-0.03172341 -0.34438899 0.57655799 -0.013593243 -0.99543983 0.09441828 0.012912326
-0.020589486 -0.34438899 0.57351553 -0.0085751638 -0.99544704 0.094929717 0.012080446
-0.01376906 -0.34438899 0.57217407 -0.0065878257 -0.9954437 0.095123328 0.013111035
-0.001132593 -0.34438899 0.57993388 -0.0066889515 -0.99487156 0.10092515 0.016063867
0.01139828 -0.34438899 0.57360655 -0.010989328 -0.99452037 0.1039641 0.018562615
0.027926017 -0.34438899 0.57796204 -0.0041470304 -0.99526131 0.097148202 0.010064719
0.037955411 -0.34438899 0.57877469 0.014961986 -0.9977904 0.064732306 0.0096162017
0.040847261 -0.34438899 0.57784522 0.039231807 -0.99882078 0.028597154 0.0098251654
0.05226969 -0.34438899 0.57827371 0.036293611 -0.99931902 0.0066500502 0.010264345
-0.01513258 -0.34438899 0.58013338 -0.0065878257 -0.9954437 0.095123328 0.013111035
-0.0057912772 -0.34438899 0.58597362 -0.0024170103 -0.99521291 0.097700574 0.013823183
0.01125848 -0.34438899 0.58274072 -0.012880731 -0.9945699 0.10327008 0.01645397
0.03440832 -0.34438899 0.58723158 -0.012122771 -0.98909158 0.14680259 0.010470349
0.094502017 -0.34273925 0.58114767 0.011909634 -0.99811959 -0.060128685 0.0013544044
-0.07220798 -0.34438899 0.59648621 -2.8419809e-06 -1 0.0002105595 0
-0.064975448 -0.34438899 0.59362888 -0.0053828843 -0.99973047 0.022582652 0.0006133648
-0.045291889 -0.34438899 0.59990001 -0.029021919 -0.98950827 0.14153135 0.016514331
-0.023128174 -0.34438899 0.5924325 -0.0085751638 -0.99544704 0.094929717 0.012080446
0.044930059 -0.34438899 0.59755957 -0.011170678 -0.98851621 0.15070115 0.0085372068
0.055719879 -0.34438899 0.59219652 0.018855365 -0.9988628 -0.043788727 0.0013885217
0.09646824 -0.34438899 0.5942449 0.0078006946 -0.99906373 -0.042554241 0.0014040627
0.10606875 -0.34438899 0.59386957 0.0050781425 -0.99911797 -0.041682113 0.0012457153
0.11706936 -0.34438899 0.59471411 0.0042304425 -0.9982717 -0.05861425 0.0013082229
0.12289846 -0.34369141 0.59510642 0.0022284368 -0.99824542 -0.059170414 0.0013113159
0.13618977 -0.34360945 0.59418517 -0.0028996924 -0.99838257 -0.056778338 0.0012118969
0.14309229 -0.34362525 0.59624004 -0.0020432046 -0.99844462 -0.055715483 0.0011757279
0.16395925 -0.34350857 0.59281582 -0.0001146216 -0.99896431 -0.045500923 0.0004053342
0.1848107 -0.34438899 0.59338951 -0.00041123168 -0.99955332 -0.029882401 0.00013002756
0.1957195 -0.34438899 0.59581578 -0.018506195 -0.99972332 0.014512649 0.0015342399
0.2032754 -0.34438899 0.59766668 -0.030092213 -0.99894893 0.034577932 0.0026004419
-0.080733873 -0.34438899 0.60196269 -3.0234792e-06 -1 0.00015187722 0
-0.067978784 -0.34438899 0.60313511 -2.8419809e-06 -1 0.0002105595 0
-0.042849079 -0.34438899 0.60763812 -0.026093287 -0.98962301 0.1412988 0.01438778
-0.024602961 -0.34438899 0.60398787 -0.011926439 -0.99018425 0.13925847 0.015750868
-0.01277474 -0.34438899 0.60553849 -0.0014465911 -0.98869914 0.14990632 0.014826905
0.01696134 -0.34438899 0.60375023 -0.026118264 -0.98542893 0.16807067 0.01617869
0.024823342 -0.34438899 0.60339773 -0.014767299 -0.98955196 0.14341839 0.010066399
0.03645568 -0.34438899 0.60732979 -0.01103318 -0.98825628 0.15240671 0.010106237
0.047250152 -0.34438899 0.60413402 0.0014037915 -0.99989867 0.014167042 0.00024974099
0.098420665 -0.34438899 0.60180271 0.0079570692 -0.99906963 -0.042385615 0.0012948107
0.1024941 -0.34438899 0.60052121 0.0073332465 -0.99907053 -0.042476542 0.0012591078
0.1183892 -0.34438899 0.60469347 -0.0029428517 -0.99905533 -0.043355625 0.0014648469
0.13899975 -0.34438899 0.60395211 -0.0020432046 -0.99844462 -0.055715483 0.0011757279
0.1424298 -0.34438899 0.60640699 -0.0020432046 -0.99844462 -0.055715483 0.0011757279
0.1507546 -0.34438899 0.60964829 -0.0014199766 -0.99897844 -0.045167852 0.00041527866
0.1697911 -0.34438899 0.60860467 0.00065202074 -0.99957609 -0.029109376 0.00010115936
0.1703777 -0.34438899 0.60291988 0.00032993013 -0.9995442 -0.030186955 0.00010842767
0.1854244 -0.34438899 0.60014099 -0.00041123168 -0.99955332 -0.029882401 0.00013002756
0.19536041 -0.34438899 0.6033898 -0.0013103229 -0.99954212 -0.030227922 0.00015224367
0.20587857 -0.34438899 0.60730278 -0.0063680648 -0.99971491 -0.023010587 0.00017362488
0.21122 -0.34438899 0.60702825 -0.012178128 -0.99942076 0.031775497 0.0015845977
0.2255255 -0.34438899 0.60121298 -0.018026533 -0.99872053 0.047247238 0.0029049453
-0.078394443 -0.34438899 0.6102789 -3.0234792e-06 -1 0.00015187722 0
0.01274352 -0.34438899 0.61738813 -0.023608975 -0.98524195 0.16953154 0.018626021
0.082737617 -0.34438899 0.61286038 0.010603209 -0.99908149 -0.041518588 0.0013370911
0.095179088 -0.34438899 0.61631858 0.0064313002 -0.9996261 -0.026577447 0.00056825561
0.115407 -0.34438899 0.61688799 0.00042454261 -0.99946678 -0.032650407 0.00070232688
0.1434117 -0.34438899 0.61861271 -0.0052432213 -0.9996497 -0.025940416 0.00026290165
0.1511602 -0.34438899 0.61426657 -0.0006525538 -0.99924111 -0.038944267 0.0001591917
0.16788565 -0.34438899 0.61469376 0.00065202074 -0.99957609 -0.029109376 0.00010115936
0.17871061 -0.34438899 0.61164403 -2.3422996e-05 -0.99955809 -0.029726185 0.0001241087
0.1980568 -0.34438899 0.61271131 -0.0029835461 -0.99953365 -0.030389648 0.00016626432
0.20533693 -0.34438899 0.61438239 -0.0019248433 -0.99998045 -0.0059518092 1.9695001e-06
0.2106327 -0.34438899 0.61422151 -0.0019248433 -0.99998045 -0.0059518092 1.9695001e-06
0.22621357 -0.34438899 0.61235261 -0.018459296 -0.99816173 0.057726905 0.0031000786
0.2351575 -0.34438899 0.61715251 -0.017127672 -0.99928844 0.033603724 0.0025378591
0.2417673 -0.34438899 0.61234611 -0.020866871 -0.9980185 0.05935993 0.0037258128
0.098802969 -0.34438899 0.62231648 0.006767021 -0.99953789 -0.029635135 0.00032739204
0.1012258 -0.34438899 0.62136757 0.0055922787 -0.99966657 -0.025209781 0.00031137673
0.1178447 -0.34438899 0.62104768 -0.00083315512 -0.99947077 -0.032519665 0.00071910938
0.1207874 -0.34438899 0.62543511 -0.001508774 -0.99958467 -0.028777558 0.00029908499
0.1390471 -0.34438899 0.62834209 -0.0036421879 -0.99978954 -0.020190237 0.000175775
0.1556893 -0.34438899 0.62948233 -0.0032215628 -0.99985319 -0.016830008 0.00016369647
0.1688527 -0.34438899 0.62909907 0.00021734045 -0.99956602 -0.029457506 0.00010630245
0.2032195 -0.34438899 0.62299061 -0.0019248433 -0.99998045 -0.0059518092 1.9695001e-06
0.22503079 -0.34438899 0.62866521 -0.0010466557 -0.99999475 -0.003075442 0
0.081180058 -0.34438899 0.63119203 0.0078792889 -0.99905497 -0.042742629 0.00031512225
0.16845369 -0.34438899 0.63458937 0.00021734045 -0.99956602 -0.029457506 0.00010630245
0.1988091 -0.34438899 0.6362558 -0.0016945396 -0.99997842 -0.0063430811 2.2510105e-06
0.20693123 -0.34438899 0.63580877 -0.0012535348 -0.99998856 -0.0046064244 0
0.2282152 -0.34438899 0.6354335 -0.0012503337 -0.99999446 -0.0031107953 0
0.2392364 -0.34438899 0.63836187 2.5405569e-05 -1 -9.0764952e-05 0
0.087970555 -0.34440976 0.6705693 0.026709719 -0.99840093 -0.04982033 0.0014775683
0.090641573 -0.34825894 0.69916725 0.084875852 -0.99426097 -0.065123759 0.0038489448
0.086884223 -0.34990305 0.704956 0.14922686 -0.98099554 -0.12401207 0.0058638272
0.097528711 -0.34857133 0.70654804 0.14922686 -0.98099554 -0.12401207 0.0058638272
0.12150367 -0.34611133 0.70296341 0.05825704 -0.99642193 -0.061233196 0.005942401
0.084278516 -0.35112637 0.71224004 0.14269736 -0.97210622 -0.18613698 0.0082000941
0.10445087 -0.34802842 0.71485394 0.14269736 -0.97210622 -0.18613698 0.0082000941
0.013216168 -0.17045699 0.61686742 -0.49153379 0.66679358 0.56016141 0.066716582
0.19935061 -0.2275247 0.625597 -0.33876446 0.10246953 0.9352746 0.039333764
0.15340029 0.049279302 0.61098135 -0.39807504 -0.079747252 0.91387999 0.022805344
0.15564319 -0.0010496192 0.62945729 -0.21533088 0.0126993 0.97645861 0.036871169
-0.0042714248 -0.37988809 0.54856628 -0.013729419 -0.99436963 0.10507372 0.022511311
-0.081028283 -0.0083255451 0.60178655 -0.38098744 -0.16409016 0.90990275 0.023184117
-0.080581002 -0.1375262 0.47606552 0.042472739 0.87095118 -0.48953041 0.014583912
-0.078570232 0.010656615 0.6101737 -0.69505203 0.66058004 -0.28378993 0.020759411
-0.024668092 -0.18560013 0.6062178 -0.30461922 0.05548773 0.95085657 0.069512293
-0.045291889 -0.062073618 0.59990001 -0.41836184 -0.17313828 0.89162576 0.0093721515
0.11511368 -0.24850392 0.61728084 0.20636004 -0.90997225 -0.35967487 0.0014200624
0.040794101 -0.15761384 0.6088748 -0.26180336 0.95224679 0.15711503 0.0067683407
0.040030085 -0.15707186 0.60320616 -0.26180336 0.95224679 0.15711503 0.0067683407
0.019185711 -0.16151725 0.60275203 -0.32979727 0.93080473 0.15759563 0.010731155
0.044991724 -0.15571481 0.59752268 -0.26180336 0.95224679 0.15711503 0.0067683407
0.0281299 -0.15863234 0.60286784 -0.28350931 0.94503963 0.16285764 0.0095169945
0.054641996 -0.15318844 0.59233218 -0.22486433 0.97051555 0.086808041 0.0050467639
0.047569446 -0.15505677 0.60411018 -0.26180336 0.95224679 0.15711503 0.0067683407
0.10312742 -0.34827334 0.71535861 0.14269736 -0.97210622 -0.18613698 0.0082000941
0.096461058 -0.025352152 0.61183703 -0.068207406 0.011163881 0.99760872 0.074353933
0.097874112 -0.14777908 0.61931157 -0.18946102 0.98186618 0.0065789977 0.0061676456
0.029699136 -0.15911083 0.60892969 -0.26180336 0.95224679 0.15711503 0.0067683407
0.093998887 -0.026656553 0.61816669 -0.066352345 -0.07630191 0.99487454 0.11136484
0.10108803 -0.15000156 0.62132806 -0.18670344 0.98241031 0.0034501853 0.0066775042
0.168475 -0.24265869 0.62985539 -0.33880481 0.60087001 0.72399342 0.021146541
0.14378235 -0.24351601 0.61758465 0.34615853 -0.79099166 -0.50448632 0.016773287
0.22730558 -0.21336485 0.62462592 -0.35142431 0.09707626 0.93116981 0.048344012
0.2085721 0.00033216551 0.6348983 0.52581906 0.19603005 -0.82769954 0.03233958
0.22829789 -0.16101471 0.63525993 -0.37323681 0.09603218 0.92275244 0.030379666
0.23888865 -0.22326851 0.63812983 -0.31732053 0.067715771 0.94589764 0.054572679
0.118135 -0.24892724 0.62065887 0.20636448 -0.90995163 -0.35972446 0.0014195986
0.20419119 -0.0067623979 0.63602543 -0.41006875 -0.10819956 0.90561384 0.023713931
0.20050286 -0.16903269 0.63528317 -0.39077508 0.09346325 0.91572893 0.027530208
0.21875666 -0.21086311 0.62058699 -0.35142431 0.09707626 0.93116981 0.048344012
0.1211275 -0.033170462 0.62539083 -0.052013457 0.0069178813 0.99862242 0.054036759
0.19754179 -0.12752566 0.63483351 -0.069564261 0.13134401 0.98889309 0.06155064
0.17001092 0.062486384 0.63470876 -0.50344211 -0.036666442 0.86325055 0.023490932
0.15241425 0.04611218 0.61212003 -0.39386883 -0.086516552 0.91508591 0.020531565
0.24167928 -0.12100661 0.61320853 0.014167248 0.20116791 0.97945434 0.0662525
0.22081858 -0.20582764 0.62144434 -0.35470897 0.10435962 0.92913431 0.041864261
0.20725965 -0.20553128 0.61233193 -0.34259552 0.11772153 0.9320783 0.033111554
0.19038264 -0.2270419 0.61145508 -0.26128015 0.13649437 0.95556372 0.037528958
0.20340891 -0.12338324 0.6069212 -0.069564261 0.13134401 0.98889309 0.06155064
0.20467971 -0.20259126 0.61062306 -0.31767729 0.065645605 0.94592381 0.037369858
0.17016163 -0.23321144 0.60352623 -0.26280436 0.19840756 0.94422901 0.041355751
0.20776951 -0.11015184 0.60650367 0.014167248 0.20116791 0.97945434 0.0662525
0.20134996 -0.014292455 0.62249762 -0.38878238 -0.084596358 0.91743755 0.027397474
0.22047773 -0.1512908 0.62036735 -0.31881392 0.096198842 0.94292283 0.029847251
0.20238924 -0.22221184 0.61286056 -0.34080276 0.11330099 0.93328255 0.036906563
0.14333723 -0.23354755 0.59325767 0.34615853 -0.79099166 -0.50448632 0.016773287
0.12351075 -0.23757035 0.5942564 0.20636004 -0.90997225 -0.35967487 0.0014200624
0.1195291 -0.2389621 0.59507459 0.20636004 -0.90997225 -0.35967487 0.0014200624
0.21328102 -0.12179883 0.61116534 0.014167248 0.20116791 0.97945434 0.0662525
0.21008672 -0.095397264 0.60586667 0.098236665 0.15255423 0.98340058 0.038241189
0.1434332 -0.043040864 0.60516232 -0.12772503 -0.047487196 0.99067211 0.050645679
0.17096201 -0.0031638811 0.61224854 -0.2854335 -0.01763241 0.95823628 0.026197731
0.14243695 0.041864801 0.6052925 -0.29939792 -0.018549176 0.95394802 0.016098795
0.1641296 0.061139822 0.61772567 -0.36170161 -0.029961063 0.93181241 0.02758695
0.084597535 -0.35058415 0.70675081 0.14922686 -0.98099554 -0.12401207 0.0058638272
0.11945047 -0.033774357 0.60541743 -0.051754691 0.0098240618 0.99861157 0.050233092
0.15065978 0.030729238 0.60995984 -0.28402638 -0.004976958 0.95880353 0.020333225
0.10399684 -0.14685042 0.59767932 -0.18246973 0.98308861 0.015542977 0.0060786149
0.096810207 -0.34884182 0.70741755 0.14922686 -0.98099554 -0.12401207 0.0058638272
0.089234076 -0.34878883 0.70087057 0.12576964 -0.98807847 -0.088785559 0.0050279964
0.17830604 -0.024589304 0.60709983 -0.22437169 -0.072983436 0.97176689 0.027706856
0.14041319 0.05625575 0.603383 -0.3492735 -0.032104623 0.93647069 0.034529746
0.14331934 -0.038862422 0.59968019 -0.12772503 -0.047487196 0.99067211 0.050645679
0.14114976 0.03327224 0.60659963 -0.17077778 0.01749987 0.98515415 0.026749143
0.1444463 0.060847711 0.60445368 -0.3492735 -0.032104623 0.93647069 0.034529746
0.18378617 -0.028009215 0.60644329 -0.23163928 -0.12889625 0.96422458 0.033139084
0.14243911 0.083785906 0.60349971 0.37679359 0.15584971 -0.91309232 0.029187823
0.10117712 -0.024249272 0.59972966 -0.056426488 0.0086922348 0.99836886 0.062741496
0.098900594 0.083145633 0.60324591 -0.29347128 -0.080679283 0.95255738 0.018754732
0.097600721 -0.14439 0.60009277 -0.18593198 0.98235255 0.020316942 0.0057530147
0.16541356 0.060570426 0.61856985 -0.37195709 -0.023157088 0.92796099 0.023522412
0.25409251 -0.35724118 0.54035646 -0.093851753 -0.99488765 0.037287395 0.013002479
0.13830125 0.041486774 0.60405594 -0.27406681 0.019952618 0.96150362 0.023046842
-0.016219975 -0.24158189 0.5863179 -0.43691915 -0.074749477 -0.89638954 0.082203999
-0.013875083 -0.2546038 0.57277709 -0.14084803 -0.29917356 0.94374627 0.045254286
-0.0176115 -0.16528128 0.57011503 -0.41760835 0.44762474 0.79071832 0.082182042
0.01346579 -0.25143015 0.57235813 -0.10634899 -0.22584774 0.96834022 0.0826988
-0.001608145 -0.25643429 0.57917607 -0.20550199 -0.36669186 0.9073621 0.045632299
0.027809966 -0.1560031 0.57787895 -0.29277194 0.94732863 0.12981951 0.010698856
0.1425491 -0.23374647 0.59427947 0.34615853 -0.79099166 -0.50448632 0.016773287
0.16540711 0.058274265 0.6187306 -0.37195709 -0.023157088 0.92796099 0.023522412
0.088542432 -0.34964392 0.70492446 0.14922686 -0.98099554 -0.12401207 0.0058638272
0.14815091 0.029353051 0.6094076 -0.23815304 0.019898048 0.9710238 0.025996346
0.14271514 -0.037692178 0.60462976 -0.12649523 -0.018882699 0.99178749 0.045891464
0.099808358 -0.14382796 0.59100008 -0.1824678 0.98308903 0.015541522 0.0060859304
0.13832134 0.06098504 0.60231304 -0.3492735 -0.032104623 0.93647069 0.034529746
0.13852096 0.079184659 0.60330886 0.37679359 0.15584971 -0.91309232 0.029187823
0.083544463 -0.35097507 0.70799518 0.14922686 -0.98099554 -0.12401207 0.0058638272
0.096920818 0.08382073 0.59771287 -0.29347128 -0.080679283 0.95255738 0.018754732
0.094813354 -0.14177957 0.59181064 -0.18959816 0.98154372 0.024990987 0.005496589
0.099619091 -0.021870131 0.59963238 -0.056426488 0.0086922348 0.99836886 0.062741496
0.03900595 -0.15545264 0.57924306 -0.26166895 0.95217705 0.15776022 0.0061258944
0.037639771 -0.15548146 0.57786697 -0.26166895 0.95217705 0.15776022 0.0061258944
0.027777998 -0.15601507 0.57820296 -0.29277194 0.94732863 0.12981951 0.010698856
0.23062481 -0.21174127 0.62520117 -0.35142431 0.09707626 0.93116981 0.048344012
0.21051913 -0.12953812 0.61049259 -0.14689857 0.076746427 0.98616976 0.044709884
0.20868962 -0.15887275 0.61446291 -0.34046397 0.090503685 0.93589175 0.027854731
0.20325497 -0.20359293 0.60975081 -0.34259552 0.11772153 0.9320783 0.033111554
0.20767725 -0.18001617 0.61537641 -0.28691515 0.11218282 0.95136464 0.032618091
0.19514702 -0.15829362 0.60766554 -0.325169 0.079078935 0.94234365 0.026661761
0.21786988 -0.15022863 0.61354625 -0.35573363 0.081395514 0.93103617 0.031383686
0.22347927 -0.1226038 0.60711461 0.014167248 0.20116791 0.97945434 0.0662525
0.18543318 -0.090758689 0.60413116 -0.044288941 0.06266769 0.9970513 0.013529266
0.1784929 -0.077270001 0.6106109 -0.18979988 -0.10949598 0.97569799 0.022815231
0.096595138 -0.013169697 0.58962226 -0.076777823 0.03215402 0.99652958 0.060592577
-0.019536048 -0.16871879 0.57356149 -0.41760835 0.44762474 0.79071832 0.082182042
0.11795908 -0.031520419 0.60012144 -0.051754691 0.0098240618 0.99861157 0.050233092
0.096678972 0.083324045 0.59550196 -0.29347128 -0.080679283 0.95255738 0.018754732
-0.019594498 -0.16809551 0.57222831 -0.41760835 0.44762474 0.79071832 0.082182042
-0.1163182 -0.1558208 0.43482441 0.042472739 0.87095118 -0.48953041 0.014583912
-0.15210082 -0.07053028 0.5599125 -0.28154057 0.018272655 0.95937538 0.0095834527
-0.15352622 -0.060324173 0.56386358 -0.28154057 0.018272655 0.95937538 0.0095834527
-0.1184957 -0.037311129 0.57578772 -0.35328782 -0.12887789 0.92659497 0.01438249
-0.0035894541 -0.3715668 0.441553 -0.031558104 -0.99585402 -0.085316144 0.015096631
-0.065836936 0.017070904 0.59311348 -0.69505203 0.66058004 -0.28378993 0.020759411
-0.072958253 0.012171486 0.59786087 -0.38219306 -0.16548017 0.90914506 0.029545788
-0.074661769 -0.14106965 0.45580715 0.12642531 0.75264663 -0.64617318 0.017947186
-0.080250882 -0.13836421 0.45663333 0.11979623 0.85123903 -0.51092178 0.0090531632
-0.078774087 -0.15171145 0.43955323 0.12642531 0.75264663 -0.64617318 0.017947186
-0.1051608 -0.043974839 0.57212329 -0.34979171 -0.13278036 0.92737007 0.01199546
-0.085628629 -0.14925905 0.4419958 0.20207362 0.76444209 -0.61220467 0.025877798
-0.10987462 -0.062320456 0.57279778 -0.35236233 -0.14978647 0.9237991 0.009523428
0.071675159 -0.34625947 0.3256236 0.038007792 -0.99460578 0.096512981 0.0019480734
0.02638959 -0.34797212 0.34030294 0.038003366 -0.99460632 0.096509427 0.0019541103
0.023207955 -0.34701833 0.35385433 0.011464059 -0.99955446 0.027559558 0.0017333048
0.021191558 -0.3478165 0.37325719 0.043374199 -0.99903804 -0.0064598978 0.011252759
0.055919446 -0.34142804 0.34913409 0.0065190289 -0.99908417 0.042288315 0.0018399404
0.088895023 -0.3494021 0.30410495 0.028023509 -0.99045718 0.13494162 0.0025028274
0.092411496 -0.34660012 0.33750495 0.038020164 -0.99460298 0.096537128 0.0021420671
0.25030717 -0.35169563 0.52716047 0.80922616 0.52282518 0.26796809 0.021028575
0.25522941 -0.35643843 0.54532886 -0.055112563 -0.9972288 0.049971938 0.0090126665
0.15085138 0.029249942 0.59591562 -0.28402638 -0.004976958 0.95880353 0.020333225
0.13579401 0.082713939 0.60225725 0.37679359 0.15584971 -0.91309232 0.029187823
0.1334224 0.05598332 0.60093868 -0.35104609 -0.034383107 0.93572676 0.024233647
0.15817188 0.056951214 0.60851574 -0.34916824 -0.032021958 0.93651271 0.034494318
0.12129069 -0.34624362 0.70254552 0.05825704 -0.99642193 -0.061233196 0.005942401
0.10061374 -0.014268322 0.58837491 -0.076777823 0.03215402 0.99652958 0.060592577
0.097145438 -0.14719862 0.61839867 -0.18946102 0.98186618 0.0065789977 0.0061676456
0.08845976 -0.3426896 0.6704343 0.026709719 -0.99840093 -0.04982033 0.0014775683
0.091805495 -0.024293251 0.61824626 -0.066352345 -0.07630191 0.99487454 0.11136484
0.092467055 -0.14350028 0.61270636 -0.1895806 0.98154926 0.024902049 0.0054969536
0.034483172 -0.15594435 0.58718681 -0.26166895 0.95217705 0.15776022 0.0061258944
0.083712116 -0.35771224 0.71178269 0.14269736 -0.97210622 -0.18613698 0.0082000941
0.020531734 -0.16075733 0.6046949 -0.30696198 0.9355278 0.17482017 0.0095436713
0.012945729 -0.15972985 0.58175117 -0.33921561 0.91869467 0.20231858 0.013754957
0.0081409225 -0.25527284 0.57361645 -0.10634899 -0.22584774 0.96834022 0.0826988
0.040815447 -0.15531296 0.57786423 -0.26166895 0.95217705 0.15776022 0.0061258944
-0.0075276657 -0.25834039 0.58320653 -0.20550199 -0.36669186 0.9073621 0.045632299
-0.0094618341 -0.35478064 0.51710337 -0.086517662 -0.9913646 0.098543808 0.020099951
-0.020059088 -0.17744543 0.59001458 -0.32576326 0.21288072 0.92117321 0.088693276
-0.021384813 -0.2358433 0.59068489 -0.62335575 -0.14369717 0.76862133 0.07974574
-0.03634597 -0.19554159 0.5780251 -0.26164886 -0.059409834 0.96333289 0.074676469
-0.034710716 -0.17183408 0.55950713 -0.36643583 0.38315541 0.84788954 0.092929102
-0.0096320622 -0.35613218 0.51871401 -0.074609026 -0.99055958 0.11500124 0.022411378
-0.02698116 -0.18347029 0.59994674 -0.30461922 0.05548773 0.95085657 0.069512293
-0.025741136 -0.23165135 0.59240264 -0.62335575 -0.14369717 0.76862133 0.07974574
0.051757518 -0.15509763 0.5781796 -0.22486433 0.97051555 0.086808041 0.0050467639
0.22141562 -0.12280738 0.60852689 0.014167248 0.20116791 0.97945434 0.0662525
0.20202361 -0.10534897 0.60313618 0.041771993 0.15271418 0.98738718 0.046746418
0.20170629 -0.15702085 0.60828966 -0.28045523 0.085030407 0.95609349 0.029291829
0.14047448 -0.042509936 0.59839553 -0.076040976 -0.026729485 0.9967463 0.047697004
-0.042488404 -0.25173447 0.56646574 -0.20550199 -0.36669186 0.9073621 0.045632299
0.086719945 -0.022732951 0.61250108 -0.077022195 -0.11556272 0.99030948 0.13543244
0.080881022 -0.13991855 0.63112432 -0.21143778 0.97505456 0.06754683 0.0068369871
-0.0034784116 -0.36002985 0.43982562 -0.026829742 -0.99811667 -0.055165052 0.012618289
0.095951363 0.082939312 0.59329206 -0.29347128 -0.080679283 0.95255738 0.018754732
0.021653432 -0.34419364 0.36816055 0.017367361 -0.99983996 0.0042921081 0.0042325482
0.11811358 -0.029382281 0.5927971 -0.051754691 0.0098240618 0.99861157 0.050233092
-0.097932659 -0.057966981 0.4545911 -0.0012481625 0.91247576 -0.40912899 0.028298762
-0.15254784 -0.069559209 0.56231147 -0.28154057 0.018272655 0.95937538 0.0095834527
-0.15486233 -0.031295396 0.55744362 -0.28154057 0.018272655 0.95937538 0.0095834527
-0.030079775 -0.24407999 0.4380092 -0.11355909 -0.07460849 -0.99072593 0.014461349
-0.01615878 -0.24196804 0.44218111 -0.089063689 0.028931985 -0.99560565 0.0067045935
-0.0077960519 -0.22826478 0.43613598 -0.10927586 0.0025864101 -0.99400812 0.00966537
0.022439875 -0.24009766 0.43633845 -0.12163692 -0.064883843 -0.99045163 0.010522454
-0.0054260609 -0.24432118 0.4403429 -0.10287926 -0.020234602 -0.99448806 0.010988994
0.0083962353 -0.24649116 0.43850824 -0.11355909 -0.07460849 -0.99072593 0.014461349
-0.032540176 -0.05406633 0.44653508 -0.20476773 0.084122069 -0.97518909 0.033894882
-0.0053460589 -0.16427931 0.44396088 -0.088587426 0.022345632 -0.99581766 0.010399313
-0.060217764 -0.053599838 0.44488901 -0.20476773 0.084122069 -0.97518909 0.033894882
-0.092212513 -0.039201681 0.45520791 -0.22052898 0.040934797 -0.97452104 0.029183909
-0.0055561797 -0.16400015 0.43987769 -0.088587426 0.022345632 -0.99581766 0.010399313
-0.036396407 -0.05533145 0.43841666 -0.20476773 0.084122069 -0.97518909 0.033894882
0.025471259 -0.15372211 0.44654763 -0.11448715 0.062886238 -0.99143231 0.022220615
-0.010453065 -0.22307923 0.43737921 -0.043104734 0.033835273 -0.99849743 0.011406861
0.03576526 -0.24321747 0.43833807 -0.11355909 -0.07460849 -0.99072593 0.014461349
-0.060655762 -0.1587404 0.4363524 0.015343416 0.39742899 -0.91750473 0.037968736
-0.056791447 -0.15375201 0.44149402 0.015343416 0.39742899 -0.91750473 0.037968736
-0.046815172 0.011310609 0.44061834 -0.13594078 0.079638436 -0.98751098 0.031938601
0.10885095 -0.017071148 0.444379 -0.59264594 0.78621012 0.17505544 3.6417005e-06
0.10951856 -0.13892907 0.4461126 -0.14062023 0.95357913 0.2662943 0.0017250109
0.10542184 -0.021106659 0.45089281 -0.59264594 0.78621012 0.17505544 3.6417005e-06
0.10568838 -0.13637482 0.45273706 -0.14062023 0.95357913 0.2662943 0.0017250109
0.13093264 0.10849635 0.45002404 0.11004139 0.1191968 -0.9867537 0.0009433268
0.14751789 0.10253946 0.45348108 0.11004139 0.1191968 -0.9867537 0.0009433268
0.1057305 0.11905095 0.44982654 0.11004139 0.1191968 -0.9867537 0.0009433268
0.1053955 0.11500694 0.44924492 0.11004139 0.1191968 -0.9867537 0.0009433268
0.2106937 -0.21927071 0.45052919 -0.20419116 -0.14774923 -0.96771699 0.047048364
0.21232843 -0.19546954 0.45057216 -0.20419116 -0.14774923 -0.96771699 0.047048364
0.23896725 -0.20865433 0.44590786 -0.20419116 -0.14774923 -0.96771699 0.047048364
0.2097453 -0.1741489 0.45450959 -0.20419116 -0.14774923 -0.96771699 0.047048364
0.249164 -0.17578781 0.4451181 -0.20419116 -0.14774923 -0.96771699 0.047048364
0.22759293 -0.16332023 0.43152755 -0.20419116 -0.14774923 -0.96771699 0.047048364
0.1453363 0.060282271 0.44758761 0.11004139 0.1191968 -0.9867537 0.0009433268
0.14557031 0.087510981 0.44879127 0.11004139 0.1191968 -0.9867537 0.0009433268
0.10682437 -0.13571063 0.43452194 -0.14062023 0.95357913 0.2662943 0.0017250109
0.10599662 -0.017222423 0.4353964 -0.59264594 0.78621012 0.17505544 3.6417005e-06
0.11729948 0.11406269 0.45016718 0.11004139 0.1191968 -0.9867537 0.0009433268
0.10552751 0.087077126 0.4453117 0.11004139 0.1191968 -0.9867537 0.0009433268
0.10389012 0.11337557 0.44896337 0.11004139 0.1191968 -0.9867537 0.0009433268
0.1020459 -0.1314061 0.43000928 -0.14062023 0.95357913 0.2662943 0.0017250109
0.10182359 -0.020417068 0.43561611 -0.59264594 0.78621012 0.17505544 3.6417005e-06
0.047782917 -0.14097701 0.4302932 -0.23819387 0.87140596 0.42885339 0.0062669078
0.04515443 -0.14296399 0.43484169 0.23117349 -0.72467196 -0.6491605 0.012666422
0.034846645 -0.14378726 0.4319644 0.049180064 -0.074202076 -0.99602979 0.022566492
0.021605877 -0.23777235 0.43183607 -0.10927586 0.0025864101 -0.99400812 0.00966537
0.023613416 -0.14722705 0.42424804 -0.12617734 0.086390853 -0.98823881 0.026547419
0.011214586 -0.23510215 0.43328908 -0.10927586 0.0025864101 -0.99400812 0.00966537
0.049973447 -0.14412822 0.44079158 0.23117349 -0.72467196 -0.6491605 0.012666422
-0.0037599993 -0.24013409 0.43862146 -0.10927586 0.0025864101 -0.99400812 0.00966537
-0.00058922009 -0.1647388 0.42778525 -0.062962234 0.020750677 -0.99780011 0.0098730642
-0.005072678 -0.16356993 0.43965429 -0.088587426 0.022345632 -0.99581766 0.010399313
-0.016677694 -0.18804836 0.43899927 -0.065802991 0.019985497 -0.99763244 0.0086366152
-0.0084884623 -0.16660951 0.43908843 -0.1014069 0.025742965 -0.99451196 0.0091330837
-0.03239426 -0.054267574 0.44429803 -0.20476773 0.084122069 -0.97518909 0.033894882
0.14315671 -0.34086952 0.56218803 -0.0041081319 -0.99819726 -0.059877668 0.0015748776
0.10550837 -0.33205307 0.53739011 0.016576011 -0.99644011 -0.082658038 0.0035816166
-0.0090753855 -0.21626544 0.43618283 -0.064894661 -0.00071652292 -0.99789184 0.011275102
-0.04326006 0.011810696 0.44224694 -0.13594078 0.079638436 -0.98751098 0.031938601
-0.056296263 -0.059194077 0.42374972 -0.21815604 0.02984512 -0.97545755 0.03952289
-0.055649802 0.031069286 0.44751108 -0.18021351 0.0079849688 -0.98359513 0.01691889
0.10993649 -0.33643505 0.54211438 0.014323243 -0.99711734 -0.074511535 0.0029022538
-0.00041723839 -0.21473804 0.43116802 -0.083684266 0.0098044686 -0.99644411 0.012145088
-0.034435444 0.021784386 0.45083833 0.046919908 0.036918774 -0.99821615 0.0081179542
-0.0055679902 -0.16367196 0.43976766 -0.088587426 0.022345632 -0.99581766 0.010399313
0.010386531 -0.24173161 0.43749708 -0.10927586 0.0025864101 -0.99400812 0.00966537
0.023427753 -0.2390143 0.42950866 -0.12163692 -0.064883843 -0.99045163 0.010522454
0.049975604 -0.14231776 0.43541116 -0.23819387 0.87140596 0.42885339 0.0062669078
0.047038235 -0.14046094 0.4283745 -0.23819387 0.87140596 0.42885339 0.0062669078
0.037816603 -0.14610991 0.44040248 0.049180064 -0.074202076 -0.99602979 0.022566492
0.11098995 -0.33966997 0.54675233 0.015564472 -0.99762768 -0.067057423 0.0022951404
