# .PCD v0.7 - Point Cloud Data file format
VERSION 0.7
FIELDS x y z
SIZE 4 4 4
TYPE F F F
COUNT 1 1 1
WIDTH 307
HEIGHT 1
VIEWPOINT 0 0 0 1 0 0 0
POINTS 307
DATA ascii
0.2734926 -0.23735081 0.84822333
-0.1194595 -0.1275422 0.70889461
-0.1036992 -0.252857 0.86891842
-0.1043843 -0.2363432 0.78395528
-0.15188681 -0.1451014 0.71813589
-0.1148828 -0.27300191 0.86811292
-0.13450129 -0.2429792 0.85349452
-0.096815988 -0.17428251 0.84328407
-0.1169157 -0.24204589 0.85337782
-0.096816324 -0.24417789 0.87698728
-0.1665685 -0.23690011 0.82033598
-0.042849079 -0.1318637 0.60763812
0.01274352 -0.1694259 0.61738813
-0.066339374 -0.1810277 0.60303688
-0.069618203 -0.070804581 0.60323328
0.2032195 -0.23325279 0.62299061
0.1511602 0.049159691 0.61426657
0.1556893 -0.001024205 0.62948233
-0.01277474 -0.00628591 0.60553849
-0.0042714248 -0.37988809 0.54856628
-0.080733873 -0.0084414966 0.60196269
-0.080236718 -0.137879 0.47610381
-0.078394443 0.01058738 0.6102789
-0.021936771 -0.1865681 0.60600752
-0.045291889 -0.062073618 0.59990001
0.115407 -0.2495455 0.61688799
0.039676379 -0.1492952 0.60982078
0.03956322 -0.15359721 0.60360128
0.01696134 -0.15489119 0.60375023
0.044930059 -0.154552 0.59755957
0.028459851 -0.161088 0.60258859
0.055719879 -0.1590986 0.59219652
0.047250152 -0.1521264 0.60413402
0.1038629 -0.35282579 0.71507818
0.098536886 -0.020531891 0.61308467
0.099573687 -0.1448793 0.61979872
0.03012744 -0.1622985 0.60856718
0.098802969 -0.01838476 0.62231648
0.1012258 -0.1497665 0.62136757
0.1688527 -0.2454762 0.62909907
0.1434117 -0.24112231 0.61861271
0.22503079 -0.2101454 0.62866521
0.25525329 -0.36602339 0.74747902
0.2085721 0.00033216551 0.6348983
0.2282152 -0.1602791 0.6354335
0.2392364 -0.2225771 0.63836187
0.1178447 -0.2478964 0.62104768
0.20419119 -0.0067623979 0.63602543
0.27781039 0.0069899508 0.63794351
0.4287715 -0.24952181 0.64281648
0.4148528 -0.2589896 0.6481356
0.1988907 -0.16548119 0.63554943
0.2080304 -0.2091807 0.6365025
0.1207874 -0.033932269 0.62543511
0.4671458 -0.26004919 0.65636522
0.44751349 -0.2598978 0.65352488
0.44579121 -0.2609252 0.67042261
0.4250789 -0.26125461 0.65973938
0.1987275 -0.1234202 0.63696218
0.16845369 0.066682741 0.63458937
0.1390471 0.046933699 0.62834209
0.2417673 -0.1208946 0.61234611
0.2267036 -0.20675071 0.6127122
0.20783719 -0.2055562 0.61141717
0.19536041 -0.2340581 0.6033898
0.1980568 -0.1227526 0.61271131
0.2070827 -0.20269489 0.60681689
0.1703777 -0.23477849 0.60291988
0.208415 -0.1077228 0.60893261
0.20455299 -0.01077269 0.61691642
0.22865351 -0.1563842 0.61097503
0.2078383 -0.22591271 0.60420752
0.1431818 -0.2324127 0.59363532
0.1229079 -0.2353636 0.59507632
0.1199471 -0.24049219 0.59450608
0.24713831 -0.36629641 0.74271637
0.2123879 -0.1220286 0.60781378
0.2100521 -0.095337547 0.60624278
0.1409585 -0.051355321 0.60559201
0.1699356 -0.003920211 0.60830182
0.141249 0.042090852 0.60919648
0.16964661 0.06050697 0.60890752
0.1454543 -0.1619634 0.59859473
0.084844433 -0.35220039 0.70645201
0.1183892 -0.036177631 0.60469347
0.1507546 0.030681411 0.60964829
0.1036781 -0.1475767 0.59755051
0.35349 -0.038600091 0.63282442
0.35339621 -0.032250758 0.63812649
0.096889824 -0.349363 0.70732123
0.090050407 -0.3541328 0.69988269
0.1789283 -0.028140871 0.6126771
0.1425834 -0.111284 0.60128659
0.13995621 0.056347001 0.60467982
0.14329959 -0.03784778 0.59943789
0.14110181 0.033296369 0.60670358
0.1408726 0.060891621 0.60925448
0.1854244 -0.02634714 0.60014099
0.1410251 0.083496884 0.60690868
0.1024941 -0.02119112 0.60052121
0.099006116 0.085280731 0.60344541
0.09783522 -0.14398991 0.60016
0.1682895 0.060240529 0.61397308
0.262676 -0.37308851 0.75779277
0.25915691 -0.3567344 0.53911668
0.1386949 0.041411869 0.60276228
-0.01513258 -0.2349551 0.58013338
-0.01376906 -0.25395769 0.57217407
-0.01694138 -0.1660832 0.56969702
0.0127611 -0.2521261 0.57021898
-0.001132593 -0.2563087 0.57993388
0.027954981 -0.1587377 0.57779223
0.25412399 -0.3298879 0.36680111
0.1423901 -0.2328188 0.59465152
0.16748179 0.058036279 0.6154145
0.089366563 -0.35503891 0.7039271
0.1488785 0.02898605 0.60701668
0.1432807 -0.093858443 0.59332663
0.1427695 -0.040487058 0.60529721
0.099511057 -0.1445054 0.59087998
0.14002331 0.060645189 0.59748322
0.1383481 0.079216771 0.60441428
0.083914712 -0.3533988 0.70754713
0.096927457 0.083474644 0.59778988
0.095352918 -0.14055011 0.59202862
0.094441257 -0.027605951 0.59598333
0.038418941 -0.14438321 0.57959402
0.03749188 -0.1526926 0.57795542
0.027897051 -0.15826011 0.57813179
0.2351575 -0.21815629 0.61715251
0.2106327 -0.12972081 0.61422151
0.2063695 -0.1580352 0.6178301
0.2035999 -0.2036078 0.60920447
0.20258801 -0.1806872 0.61136591
0.1957195 -0.1571566 0.59581578
0.2255255 -0.1532928 0.60121298
0.2264594 -0.1210711 0.61315972
0.1848107 -0.092393473 0.59338951
0.1784929 -0.077270001 0.6106109
0.1084594 -0.0037723321 0.59018868
-0.02058262 -0.1674604 0.57419568
0.1161225 -0.035679389 0.59886861
0.096677847 0.083382577 0.59548891
-0.02059635 -0.1668909 0.57283539
-0.12913869 -0.34768161 0.3411243
-0.1163182 -0.1558208 0.43482441
-0.1524421 -0.070557609 0.55985999
-0.1538419 -0.06034945 0.563815
-0.1184957 -0.037311129 0.57578772
0.01675305 -0.33373249 0.2514708
-0.003590554 -0.37134129 0.44259211
-0.064975448 0.016731611 0.59362888
-0.07220798 0.01113405 0.59648621
-0.070630498 -0.1313882 0.4513756
-0.07941968 -0.13636801 0.45571959
-0.078504972 -0.1495069 0.43650949
-0.1049035 -0.1009144 0.57216549
-0.099849284 0.02661027 0.57302278
-0.1051608 -0.043974839 0.57212329
-0.085546918 -0.1468837 0.4404493
-0.1103619 -0.062319331 0.57096422
0.070923448 -0.35368219 0.32665589
0.06107359 -0.35559091 0.28477091
0.027061909 -0.35069051 0.34065211
0.023856601 -0.349641 0.35419121
0.021998391 -0.3477284 0.37339291
0.055144891 -0.33616751 0.3467423
0.089313097 -0.35418329 0.30447379
0.092416927 -0.3491042 0.3377662
0.2484276 -0.35188371 0.52762061
0.25053129 -0.35690859 0.54647899
0.1461851 0.02842401 0.59417433
0.13635451 0.083918303 0.59476608
0.1360355 0.05546153 0.5935232
0.1639495 0.056603741 0.59277022
0.1212831 -0.34618431 0.70253062
0.09448535 -0.02240259 0.5810194
0.095493451 -0.1500172 0.61792511
0.087950058 -0.34210029 0.67057347
0.090757482 -0.02735585 0.61834562
0.091533966 -0.14509229 0.61243892
0.03440832 -0.15453281 0.58723158
0.083190054 -0.3568109 0.71265513
0.02118683 -0.1637408 0.60420692
0.01125848 -0.1544645 0.58274072
0.01003546 -0.25449309 0.57699412
0.040847261 -0.15591291 0.57784522
-0.0057912772 -0.25788179 0.58597362
-0.01387961 -0.3552478 0.51804942
-0.02087681 -0.1764622 0.59051007
-0.02184242 -0.2373105 0.59220493
-0.03172341 -0.1980506 0.57655799
-0.03797422 -0.17004301 0.56198031
-0.044647101 -0.061334699 0.56845528
-0.0054420079 -0.35613799 0.51793307
-0.027269149 -0.1789573 0.60196823
-0.026665291 -0.2336372 0.59458238
0.05226969 -0.1636045 0.57827371
0.22303779 -0.1221008 0.61256373
0.2032754 -0.1072415 0.59766668
0.20245691 -0.1572189 0.60735238
0.1409433 -0.040934779 0.59831411
-0.042740852 -0.2534208 0.56784397
0.082737617 -0.0343161 0.61286038
0.081180058 -0.13936169 0.63119203
-0.0042249858 -0.36280021 0.43099979
-0.080710128 -0.25155199 0.55751997
-0.05269447 -0.1030282 0.55122441
0.095898896 0.082979538 0.59329867
0.020714041 -0.34429619 0.3680025
0.1151385 -0.03611939 0.59076762
-0.1181505 -0.1463089 0.31124061
-0.097932659 -0.057966981 0.4545911
-0.15195841 -0.06951201 0.56240219
-0.14035439 -0.055447031 0.4489778
-0.1547948 -0.031289991 0.55745399
-0.074963547 -0.1270963 0.33034521
-0.03037153 -0.24446329 0.44140491
-0.01710484 -0.2431262 0.43821731
-0.0048460811 -0.22500201 0.44692701
0.022512291 -0.2441446 0.44064319
-0.0053194761 -0.2442033 0.44073281
0.0093666464 -0.244881 0.44347459
-0.032222308 -0.056673139 0.44679031
-0.004341125 -0.1654781 0.44382721
-0.060190741 -0.05672672 0.44638881
-0.092212513 -0.039201681 0.45520791
-0.0092793554 -0.1595588 0.44037291
-0.037008081 -0.05031516 0.43792549
0.0236391 -0.14755739 0.44935799
-0.0086943433 -0.22165211 0.44976389
0.035765748 -0.2432957 0.43831271
-0.060762979 -0.15908889 0.43677109
-0.05697456 -0.1543472 0.44220909
-0.04817082 0.0094755664 0.44414109
0.1090544 -0.017341049 0.44431889
0.1095119 -0.13893721 0.44611189
0.1053017 -0.020947279 0.4509283
0.1056915 -0.136371 0.45273739
0.1084321 -0.33423379 0.229691
0.14976171 -0.2225273 0.4330264
0.13096809 0.1085952 0.44955689
0.1474562 0.1024492 0.45362321
0.1056767 0.1188294 0.45139799
0.105302 0.1146219 0.45197591
0.2106937 -0.21927071 0.45052919
0.21171141 -0.1957254 0.44953421
0.45985851 -0.2444956 0.44898701
0.23889621 -0.20864961 0.44542131
0.4665111 -0.23413651 0.45865861
0.2097453 -0.1741489 0.45450959
0.22005101 -0.33132929 0.2090144
0.2641454 -0.33526391 0.2103246
0.201838 -0.3286972 0.2133598
0.1822302 -0.3315188 0.2190247
0.20936731 -0.3312324 0.21787301
0.2828126 -0.33195069 0.21107601
0.26420689 -0.33320689 0.2148062
0.282857 -0.33429089 0.2061605
0.249164 -0.17578781 0.4451181
0.2274726 -0.1665584 0.4277409
0.35014731 0.1206526 0.4669145
0.1907156 -0.3329263 0.222087
0.1453363 0.060282271 0.44758761
0.1462203 0.088082731 0.44377199
0.1068324 -0.13570081 0.43452281
0.1057576 -0.016905339 0.435467
0.1174399 0.1144542 0.4483169
0.1055136 0.087019883 0.44571769
0.1040204 0.1139121 0.44515789
0.1497546 -0.22472291 0.4431628
0.1020414 -0.1314116 0.4300088
0.1019793 -0.02062363 0.43557009
0.065951683 -0.32239881 0.21409141
0.046919551 -0.1360088 0.43196461
0.045307789 -0.1438465 0.4345448
0.1561836 0.033241961 0.444563
0.035668358 -0.14851581 0.43037361
0.02076228 -0.239958 0.42815581
0.021988271 -0.1424274 0.42537621
0.0085069165 -0.2394793 0.42586029
0.050547849 -0.14743359 0.43967959
-0.0054005529 -0.2419486 0.43262029
-0.0058880448 -0.1610762 0.42412719
-0.0087278495 -0.1592097 0.44014049
-0.017425179 -0.1878688 0.43685091
-0.009803988 -0.1655831 0.44030571
-0.03221469 -0.0557402 0.44444221
0.1430607 -0.3366096 0.56264287
0.1051479 -0.33204499 0.53765291
-0.01003896 -0.21663029 0.43337131
-0.05135889 -0.203161 0.44424599
-0.04170296 0.01391843 0.43820071
-0.05609566 -0.060839191 0.4239108
-0.055506419 0.03126337 0.44713849
0.1102419 -0.3364788 0.54162389
-0.0057979668 -0.2173211 0.421745
-0.034780279 0.021317611 0.45173439
-0.1386133 -0.022027761 0.4399873
0.20655771 0.1152815 0.45170021
-0.0099403709 -0.1602605 0.4438135
0.0090457201 -0.2431789 0.43772361
0.02253649 -0.2397902 0.4281351
0.04868735 -0.13629059 0.4359588
0.0471729 -0.14228781 0.42755261
0.038236778 -0.1504885 0.44075871
0.1100166 -0.33669421 0.53904903
