# .PCD v0.7 - Point Cloud Data file format
VERSION 0.7
FIELDS x y z
SIZE 4 4 4
TYPE F F F
COUNT 1 1 1
WIDTH 176
HEIGHT 1
VIEWPOINT 0 0 0 1 0 0 0
POINTS 176
DATA ascii
-0.51602119 -0.69795018 1.1096801
-0.48792309 -0.72809643 1.183197
-0.21662889 -0.45818099 0.75338268
-0.2203905 -0.47064379 0.7784754
-0.2335864 -0.44995469 0.659477
-0.1728024 -0.4877947 0.4192014
-0.15659849 -0.4776113 0.48426819
-0.1516256 -0.46342099 0.47215679
0.33288109 -0.53909153 0.91998148
0.2336641 -0.47179279 0.80157149
0.29825449 -0.5256573 0.89817041
0.1149328 -0.40119749 0.8224594
0.06038719 -0.45945889 0.79794699
0.0625512 -0.48050281 0.77937698
0.0058820401 -0.4400185 0.86642373
-0.057766259 -0.4723722 0.79267401
-0.082573406 -0.47424811 0.73923743
-0.05108266 -0.45818639 0.86531413
-0.16693661 -0.61528772 1.101387
-0.074139237 -0.47356829 0.73989761
0.034047142 -0.25561851 0.83925551
0.029676169 -0.4526836 0.84958482
0.095270902 -0.4514429 0.85769928
0.0363383 -0.4710905 0.85339642
0.079156883 -0.2425832 0.78315699
0.4300079 -0.52667439 1.090269
0.047779411 -0.4727596 0.79740572
0.01097021 -0.4322376 0.86718512
0.3948105 -0.53443819 1.071651
0.1043441 -0.3882615 0.81029332
0.1066241 -0.421691 0.81626368
0.3515476 -0.54348153 1.038805
0.43828279 -0.51560879 1.108094
0.072084486 -0.2229006 0.78774148
-0.080230281 -0.47123221 0.76232338
0.0358794 -0.20364819 0.80389041
0.085098833 -0.44658899 0.80615252
0.063455909 -0.4787257 0.78538811
-0.05311105 -0.4611285 0.77615058
0.37671781 -0.54669827 1.043137
0.26152009 -0.4715398 0.71217078
0.008138597 -0.4586986 0.72939622
0.1876491 -0.4499979 0.64448792
0.089926839 -0.44780889 0.82895458
0.028158721 -0.2416921 0.72962731
0.076896347 -0.2484552 0.82536268
0.09320876 -0.25091839 0.7898317
0.09716253 -0.25402519 0.83054882
0.01996831 -0.4412798 0.83500892
0.03451008 -0.24059869 0.81705672
0.021755019 -0.28408191 0.86016887
0.033846051 -0.2592667 0.82925987
0.1074663 -0.4414849 0.82786888
0.1024162 -0.3920137 0.80799937
0.0884372 -0.2495908 0.824669
0.0086762086 -0.45279989 0.85049158
0.083957613 -0.2047905 0.84100032
0.095552437 -0.45056531 0.83421481
0.071163177 -0.2218527 0.85394228
0.087086141 -0.26644361 0.83005172
-0.22736 -0.44859529 0.42930681
0.036135659 -0.45322001 0.77376652
0.05736959 -0.44718331 0.54066157
-0.1824889 -0.45289111 0.39364049
0.1032909 -0.39601621 0.802387
0.090833902 -0.2443336 0.81168908
0.020632129 -0.27212819 0.87200111
0.032802641 -0.25619921 0.8449744
0.0085333288 -0.42552111 0.84404987
-0.082924947 -0.45212239 0.72469991
0.034670029 -0.26044449 0.83242983
0.045677289 -0.2265545 0.85388672
0.081015937 -0.1827102 0.83184499
0.076712906 -0.227773 0.8161943
0.058055099 -0.32294449 0.94287652
0.089019567 -0.24516641 0.81388849
0.087777697 -0.26126739 0.81342888
0.09140715 -0.2063904 0.85306561
0.089053258 -0.2763975 0.8262291
0.03438041 -0.2146844 0.85105503
0.1169022 -0.41683891 0.83322281
0.02149345 -0.44095629 0.83286911
0.03738958 -0.2404512 0.81595331
0.0089614261 -0.4330489 0.86032408
0.036848161 -0.2672154 0.8434099
0.074825481 -0.2597234 0.82527041
0.02611934 -0.226954 0.80447841
0.037778761 -0.21493369 0.81504059
0.029083731 -0.24742991 0.83419752
0.081406914 -0.2393114 0.82033831
0.064114928 -0.2093762 0.81435031
-0.0058471709 -0.4482621 0.54067892
0.093769044 -0.4449442 0.82792288
0.003115498 -0.4457666 0.86493748
0.02822894 -0.4530625 0.80890012
0.02814254 -0.24729089 0.82829428
0.02276421 -0.44894019 0.85446572
0.078846112 -0.25742659 0.79208922
0.078486003 -0.2325097 0.81018168
0.1125286 -0.41080239 0.82453841
0.098744273 -0.39482611 0.79965103
0.085241757 -0.4440836 0.81653619
0.039892051 -0.26236069 0.8403644
0.078750253 -0.19804861 0.85860097
0.03555062 -0.4526085 0.86175638
0.034105878 -0.2883853 0.86919868
0.03964657 -0.2143729 0.83149379
0.027219649 -0.25417179 0.85349947
0.031538431 -0.21348719 0.81768888
0.1065664 -0.43659529 0.81292588
0.038597111 -0.2433798 0.82264543
0.080399349 -0.2313149 0.8292945
0.0335516 -0.19857541 0.85490882
0.1129683 -0.2183437 0.85069913
0.034203321 -0.2473032 0.84636772
0.046716511 -0.235579 0.82836908
0.062940359 -0.20894919 0.82065499
0.042189781 -0.24286389 0.82496673
0.035289422 -0.25813961 0.83275193
0.01085415 -0.44514009 0.8848961
0.089781813 -0.4423027 0.8242138
0.029285461 -0.44999811 0.84823912
-0.000718683 -0.45198411 0.70043802
0.020223569 -0.27671069 0.84981477
0.03731817 -0.2160469 0.82804209
0.02712303 -0.25295499 0.82303572
0.114044 -0.44648531 0.84939408
0.035795748 -0.2617735 0.84356368
0.071047589 -0.2215849 0.8525939
0.018297261 -0.44436541 0.82455641
-0.0067547262 -0.45175189 0.82243621
-0.1035991 -0.45018589 0.80227488
0.036985729 -0.25786671 0.83443779
0.089559257 -0.1903546 0.84722352
0.071645953 -0.1859657 0.85837829
0.042636719 -0.1962878 0.85343099
0.096637219 -0.20370591 0.87246943
0.086970277 -0.2642597 0.81224853
0.1075146 -0.205659 0.85721648
0.084796786 -0.25623459 0.80469519
0.030676389 -0.2055323 0.85914743
0.083785526 -0.2356628 0.81877333
0.099277817 -0.2226765 0.83363622
0.1172332 -0.25213629 0.83462012
0.1156847 -0.207689 0.84679008
0.048449669 -0.2392446 0.87295628
0.02453476 -0.2041239 0.85695058
0.043667171 -0.24187779 0.87501901
0.04488292 -0.25221339 0.8515923
0.073680669 -0.2118012 0.86078298
0.036285639 -0.26347369 0.87650168
0.01528913 -0.2434136 0.85962993
0.036360499 -0.23164409 0.88357449
0.03937545 -0.2240285 0.85274768
0.073604196 -0.2768037 0.81505251
0.03612566 -0.2165916 0.82771528
0.06136084 -0.218413 0.83581889
0.078476816 -0.25589919 0.82540143
0.041905519 -0.1962675 0.84281248
0.050692052 -0.22465611 0.88201791
0.1090742 -0.44778639 0.81513298
0.042376488 -0.2568762 0.86912328
0.068269491 -0.2465802 0.84869611
0.6935724 -0.43100959 1.16945
0.075331517 -0.194607 0.84728789
0.04266993 -0.2460867 0.8279587
0.026834439 -0.44979349 0.84612399
0.090075552 -0.442433 0.82241511
0.022137821 -0.45182791 0.85396391
0.034561761 -0.25915369 0.82894492
0.030870991 -0.24534351 0.83928978
0.066587336 -0.21527401 0.83432668
0.01137188 -0.43347761 0.86363798
0.168516 -0.4504638 0.78457379
-0.0023915989 -0.43615469 0.68292218
0.1177565 -0.4220188 0.70107788
