# .PCD v0.7 - Point Cloud Data file format
VERSION 0.7
FIELDS x y z normal_x normal_y normal_z curvature
SIZE 4 4 4 4 4 4 4
TYPE F F F F F F F
COUNT 1 1 1 1 1 1 1
WIDTH 227
HEIGHT 1
VIEWPOINT 0 0 0 1 0 0 0
POINTS 227
DATA ascii
-0.0023915989 -0.4583368 0.68292218 0.73550349 -0.51944673 -0.43498242 0.055300824
0.00047784607 -0.45838568 0.70014536 0.73550349 -0.51944673 -0.43498242 0.055300824
-0.081115879 -0.45811215 0.72464275 -0.83659726 0.37936884 0.39520156 0.01209551
0.0081427479 -0.45858452 0.72936529 -0.056761704 -0.99715012 -0.049696252 0.0091979727
0.028158721 -0.4583368 0.72962731 -0.22882411 -0.97298431 0.030677566 0.01326741
-0.080658242 -0.45809898 0.73917693 -0.83659726 0.37936884 0.39520156 0.01209551
-0.080501489 -0.45912683 0.74009866 -0.83659726 0.37936884 0.39520156 0.01209551
-0.21662889 -0.4583368 0.75338268 -0.98895836 0.00015408559 -0.1481932 0
-0.071817599 -0.46419618 0.75841182 -0.83659726 0.37936884 0.39520156 0.01209551
-0.2203905 -0.4583368 0.7784754 -0.98895836 0.00015408559 -0.1481932 0
-0.054374725 -0.45660701 0.77725422 0.078722931 -0.99643362 -0.030378198 0.017797289
0.037223548 -0.45595089 0.77388483 0.035346884 -0.99609172 0.080943979 0.015314323
0.062561035 -0.4640044 0.7809279 0.070926473 -0.99552691 0.062415436 0.022781173
0.063516401 -0.46223387 0.78611845 0.12400451 -0.99216205 0.015408669 0.059125453
0.076565102 -0.46355695 0.78702319 0.2121682 -0.9768737 -0.02650225 0.097930454
0.093496747 -0.460502 0.79054356 0.46160069 -0.84177315 -0.27989778 0.13566102
-0.053781573 -0.46379131 0.78919405 0.42402959 -0.84703594 -0.32051352 0.012084876
0.047646843 -0.46051043 0.79763091 0.016405713 -0.99697721 0.075942554 0.022477398
0.060431819 -0.45992589 0.79818112 0.11666401 -0.99220043 0.043907281 0.06840463
0.079377018 -0.46141535 0.79292369 0.27741101 -0.95865786 -0.063389897 0.12730844
0.098454133 -0.45502034 0.79927331 0.46159452 -0.84156144 -0.28054377 0.13176826
0.0274934 -0.45605108 0.80658376 -0.025956422 -0.99666774 0.077328905 0.017610069
0.036363274 -0.45663106 0.80386621 0.0047141602 -0.99701279 0.077092677 0.023230346
0.084534757 -0.45607433 0.80519229 0.25427949 -0.96640575 -0.037442751 0.11417834
0.10026987 -0.45046228 0.80497378 0.4372648 -0.86056215 -0.26121309 0.13299724
0.035670616 -0.45663375 0.8164649 0.014305762 -0.99445999 0.10413806 0.026574943
0.064046726 -0.45762214 0.81427103 0.13338138 -0.98991752 0.047674745 0.085569486
0.076043755 -0.4572956 0.81372136 0.20927161 -0.9777751 0.012699556 0.10087744
0.086011022 -0.45486975 0.81490636 0.23495728 -0.97183317 -0.018315692 0.10651989
0.090219125 -0.45429096 0.81157792 0.26057789 -0.96432418 -0.046669241 0.11546327
0.10279338 -0.4487395 0.81535047 0.40318546 -0.89349771 -0.19774598 0.1327576
-0.0069614975 -0.45631683 0.82233602 -0.076675653 -0.98689336 0.14199395 0.019844994
0.019833535 -0.45325127 0.82458919 -0.061847452 -0.99380308 0.092359968 0.017002041
0.027900128 -0.4563359 0.82560354 -0.020326305 -0.99543583 0.093244158 0.020181274
0.036303289 -0.45694482 0.82731777 0.0035386162 -0.99576479 0.091869235 0.026105726
0.04396503 -0.45747998 0.82707864 -0.00022191081 -0.99602693 0.089052118 0.024371946
0.062771976 -0.45675206 0.82060921 0.12278244 -0.9901014 0.067998677 0.083095685
0.076371737 -0.45612943 0.82531911 0.20459078 -0.97868383 0.017904032 0.098068595
0.08608593 -0.45520943 0.8257339 0.21325541 -0.9769907 0.0033501703 0.10021303
0.091444023 -0.45439982 0.82533723 0.2387373 -0.97099525 -0.013140495 0.1060006
0.10528348 -0.45053291 0.82934242 0.35950255 -0.9329865 -0.01714791 0.12960865
0.1104198 -0.44816524 0.82507652 0.50919479 -0.83444333 -0.21077214 0.14655431
0.021946078 -0.45346421 0.83488756 -0.063721307 -0.99382073 0.090883665 0.016745893
0.025919113 -0.45479801 0.83370495 -0.035106532 -0.9950738 0.092712007 0.018297046
0.035508282 -0.45644766 0.83503354 1.4358322e-05 -0.99604094 0.088895671 0.025749132
0.063801438 -0.45587036 0.8350988 0.10055038 -0.99139369 0.083834 0.070888087
0.08370167 -0.45553035 0.83112806 0.2046023 -0.97868025 0.017966548 0.098061748
0.096835107 -0.45405349 0.83317018 0.26593521 -0.9639895 -0.0016109298 0.11124631
0.11723797 -0.4542588 0.83422416 0.67101777 -0.68759155 -0.27740374 0.13056368
0.012776163 -0.44901019 0.84326148 -0.12034056 -0.98955965 0.079308197 0.019367229
0.028285474 -0.45473242 0.84867865 -0.05102735 -0.99470592 0.089198276 0.017332803
0.036067083 -0.45661318 0.84381974 -0.014585983 -0.99591702 0.089087218 0.01949084
0.042028613 -0.45696425 0.84286886 -0.00026683605 -0.99603683 0.088941306 0.024447743
0.068130262 -0.45628083 0.84882128 0.071820192 -0.98916405 0.12804812 0.048332971
0.075255252 -0.45690438 0.8474074 0.090282336 -0.98924255 0.11510117 0.063573845
0.086549647 -0.45628187 0.84431481 0.20831211 -0.97768688 0.027100578 0.10201374
0.11494108 -0.45622754 0.84842634 0.46158284 -0.88473266 -0.06472566 0.15113522
0.013080093 -0.44897231 0.84992754 -0.14275667 -0.9877879 0.062414654 0.017627673
0.019840807 -0.45094672 0.85993451 -0.11304706 -0.99094069 0.072504252 0.016377868
0.026400585 -0.45417899 0.85479939 -0.063157782 -0.99422979 0.086707659 0.018787278
0.035453923 -0.45587143 0.85423714 -0.032883301 -0.9944995 0.099445321 0.018637892
0.044453047 -0.45757467 0.85300583 -0.00026683605 -0.99603683 0.088941306 0.024447743
0.073063485 -0.4571012 0.85595566 0.071711458 -0.98918885 0.12791771 0.050246771
0.093280457 -0.4574385 0.85554069 0.15350929 -0.98410523 0.089285038 0.052791916
0.1073985 -0.45624104 0.85742372 0.22933556 -0.97244734 0.04185009 0.067869686
0.11303283 -0.45656288 0.85098028 0.34569663 -0.93787163 -0.029844727 0.12534408
0.013682988 -0.44746086 0.8651588 -0.15787245 -0.98455364 0.075700007 0.021040376
0.016593516 -0.44947132 0.8661952 -0.14428869 -0.98670942 0.074735314 0.019607428
0.024487715 -0.45325461 0.86026782 -0.077158555 -0.99498731 0.063614622 0.01662189
0.035483405 -0.45577633 0.86545295 -0.06018417 -0.99666166 0.055167723 0.014894095
0.042434178 -0.45745838 0.86912137 -0.036573626 -0.99778044 0.055647064 0.016972095
0.073658586 -0.45727813 0.86081344 0.06992799 -0.99013609 0.12141123 0.050907083
0.023094846 -0.45221698 0.87132865 -0.12807778 -0.98879743 0.076653861 0.017555706
0.036503293 -0.45774981 0.87647408 -0.076459892 -0.99571002 0.052109405 0.016778264
0.046086669 -0.45800558 0.87399578 -0.036573626 -0.99778044 0.055647064 0.016972095
0.096588865 -0.45777011 0.8725121 0.12464335 -0.98967278 -0.070793897 0.060586836
0.016622309 -0.44642773 0.88231665 -0.2069618 -0.97428405 0.089092337 0.026117086
0.036370117 -0.45830956 0.88357443 -0.099849045 -0.99281609 0.065926552 0.017933281
0.050692759 -0.45815873 0.88201493 -0.051739778 -0.99805546 0.034760416 0.017508317
-0.21662889 -0.45818099 0.75338268 -0.98895836 0.00015408559 -0.1481932 0
-0.2203905 -0.47064379 0.7784754 -0.98895836 0.00015408559 -0.1481932 0
0.11277395 -0.40114391 0.82368648 0.80281949 -0.52165711 -0.2887122 0.12948363
0.060401 -0.45995057 0.79801941 0.11666401 -0.99220043 0.043907281 0.06840463
0.060689393 -0.48015037 0.78805023 0.068701968 -0.99429768 0.081560425 0.023935728
0.0052602063 -0.44078144 0.86629498 -0.20646085 -0.97469479 0.085697249 0.024940299
-0.060278948 -0.4689132 0.79385161 0.53632647 -0.75061494 -0.38591594 0.014609166
-0.078714408 -0.47376892 0.73911548 -0.83659726 0.37936884 0.39520156 0.01209551
-0.078640707 -0.47412726 0.74003983 -0.83659726 0.37936884 0.39520156 0.01209551
0.033583049 -0.25535676 0.83929473 -0.62099653 0.21451272 -0.75388831 0.17945231
0.029043347 -0.454267 0.84958035 -0.05102735 -0.99470592 0.089198276 0.017332803
0.0956643 -0.45747611 0.85663635 0.15727749 -0.98619437 0.051811449 0.052619349
0.037464183 -0.45725733 0.8541007 -0.013793034 -0.99485779 0.10033822 0.020986652
0.079506353 -0.24246629 0.78310937 -0.1020772 0.40960592 -0.90653366 0.17180753
0.048892967 -0.46072033 0.79613972 0.028933067 -0.99719113 0.069084801 0.021125196
0.0044669076 -0.44070435 0.86516559 -0.20646085 -0.97469479 0.085697249 0.024940299
0.10552021 -0.38835156 0.80957872 0.8403874 -0.30572528 -0.44752783 0.070517525
0.1048206 -0.42115933 0.81806153 0.56075698 -0.77916837 -0.28008616 0.14206715
0.069333881 -0.22453265 0.78823632 -0.1641482 0.45205396 -0.87675691 0.15572113
-0.077142693 -0.473584 0.76089001 -0.83659726 0.37936884 0.39520156 0.01209551
0.033432867 -0.2020337 0.80862421 -0.55487961 0.52701169 -0.64371359 0.15960193
0.087160528 -0.45350432 0.80617172 0.26056716 -0.96432656 -0.046681162 0.11545777
0.064114131 -0.46344221 0.78250551 0.14659874 -0.98914623 0.0099259047 0.064916767
-0.055425584 -0.45796022 0.77817196 0.53632647 -0.75061494 -0.38591594 0.014609166
0.00813678 -0.45859018 0.72940975 -0.056761704 -0.99715012 -0.049696252 0.0091979727
0.09114138 -0.45374933 0.82831103 0.2302597 -0.97307181 -0.010565225 0.10311086
0.076355815 -0.2463769 0.82226962 -0.50414217 0.40622571 -0.76211637 0.18436049
0.084935844 -0.25345394 0.78996497 -0.15589333 0.41047156 -0.89844888 0.19085261
0.096995719 -0.25404125 0.83077431 -0.43593216 0.56761414 -0.69841063 0.17469396
0.015864838 -0.45061424 0.83568013 -0.086226732 -0.9926644 0.084748656 0.017198469
0.032738861 -0.24021891 0.81757396 -0.62109971 0.21405376 -0.75393379 0.17424758
0.023192503 -0.28480572 0.86007941 0.76292151 0.035307873 0.64552623 0.19175348
0.036127403 -0.259276 0.83007365 -0.63848925 0.16181107 -0.75242847 0.17671813
0.1063282 -0.44059208 0.82835662 0.45603332 -0.88685346 -0.074326515 0.13808984
0.10377176 -0.39211753 0.80717576 0.78645998 -0.34584975 -0.51173097 0.08522553
0.085891306 -0.24953163 0.82493287 -0.43805203 0.46450135 -0.76964206 0.18557185
0.010954112 -0.44795612 0.85019982 -0.14090513 -0.98762643 0.068845838 0.018636724
0.081996858 -0.20804825 0.84426278 -0.32029051 0.52555728 -0.78816468 0.17544545
0.096084528 -0.45216322 0.83399451 0.26593521 -0.9639895 -0.0016109298 0.11124631
0.068391331 -0.21547762 0.84839213 -0.43811285 0.46452352 -0.76959401 0.18559493
0.088249594 -0.26632482 0.82978535 -0.53128517 0.5499416 -0.64443785 0.17752351
0.03529596 -0.45506158 0.7736752 -0.00087163865 -0.99692315 0.0783801 0.010329035
0.10130744 -0.39586431 0.80359215 0.75764847 -0.42251661 -0.49744195 0.09661372
0.084677123 -0.24429852 0.81414741 -0.35822821 0.51328737 -0.77987736 0.17826836
0.028593648 -0.27466002 0.87186098 0.63711852 -0.15007359 0.75601441 0.15482511
0.033414368 -0.25655466 0.84491378 -0.62099653 0.21451272 -0.75388831 0.17945231
0.0026714911 -0.42945415 0.84371543 -0.19344229 -0.97857809 0.070463084 0.019430151
-0.082579277 -0.45206815 0.72467238 -0.83659726 0.37936884 0.39520156 0.01209551
0.03076072 -0.25558105 0.83464408 -0.63859361 0.16182189 -0.75233757 0.17676197
0.04445833 -0.22625822 0.85403204 -0.44480705 0.35061672 -0.82414478 0.18445496
0.075710356 -0.18205571 0.83435714 -0.10973623 0.73597848 -0.66805202 0.19091882
0.073280536 -0.22947997 0.81613743 -0.39306036 0.49000439 -0.77807409 0.18192466
0.085180923 -0.24514453 0.81542122 -0.35822821 0.51328737 -0.77987736 0.17826836
0.085390113 -0.26144657 0.81412935 -0.33769399 0.56708932 -0.75124717 0.18968311
0.091879472 -0.20527916 0.85091674 -0.30925941 0.55490559 -0.77229434 0.1791741
0.088616759 -0.27622223 0.82692212 -0.51992446 0.63732934 -0.56876177 0.19061926
0.043115843 -0.21576181 0.85044885 -0.41863689 0.32353052 -0.84857005 0.19004802
0.1166857 -0.41675192 0.83339059 0.77796185 -0.5413391 -0.31894737 0.11953987
0.016968928 -0.45124853 0.83360922 -0.061810337 -0.99379635 0.092456512 0.017044406
0.031856474 -0.23878305 0.81884736 -0.65174973 0.22439943 -0.72447723 0.16455106
0.0050733485 -0.436423 0.85912484 -0.19869395 -0.97692943 0.078291424 0.022786496
0.031220777 -0.26110289 0.84625661 -0.6164254 0.11768004 -0.77856994 0.17972609
0.074112907 -0.26006982 0.82332855 -0.5149551 0.42776686 -0.74285716 0.18581386
0.030423403 -0.22761038 0.80323887 -0.57101953 0.28799886 -0.76876092 0.17081775
0.042509768 -0.21716632 0.81414038 -0.39313644 0.49014872 -0.77794468 0.18195955
0.034507897 -0.24798362 0.83399391 -0.60283172 0.26142767 -0.75382328 0.17695521
0.077287324 -0.24099803 0.81977075 -0.43805286 0.4644914 -0.7696476 0.18557233
0.062173583 -0.21730131 0.82301718 -0.39305365 0.49002773 -0.7780627 0.18192528
0.096273996 -0.44978639 0.82688403 0.26359209 -0.96458125 -0.01010816 0.11134323
0.0068988986 -0.44176933 0.86601132 -0.19868608 -0.97692895 0.078317121 0.024228413
0.02782885 -0.455971 0.80906785 -0.021272762 -0.99577135 0.089369819 0.019621622
0.034358732 -0.24800992 0.82829434 -0.60279536 0.26156175 -0.75380582 0.17694408
0.021236932 -0.45150656 0.8543244 -0.077158555 -0.99498731 0.063614622 0.01662189
0.08326599 -0.25696644 0.79214352 -0.19741274 0.42957693 -0.88118774 0.19434756
0.075913996 -0.23395675 0.81023926 -0.34845904 0.49928373 -0.79327929 0.17614239
0.11342813 -0.41116247 0.82364613 0.77793604 -0.5412935 -0.31908768 0.11953118
0.098735452 -0.39482546 0.79965663 0.76299661 -0.4006488 -0.5072639 0.093639597
0.087808788 -0.45378053 0.81653136 0.23495728 -0.97183317 -0.018315692 0.10651989
0.036003072 -0.25596207 0.84333175 -0.60047108 0.27025816 -0.75259227 0.18193184
0.080448292 -0.19930682 0.84973246 -0.31615844 0.5382477 -0.78123826 0.18243244
0.034852713 -0.4555051 0.86180001 -0.052018292 -0.9973256 0.051340077 0.016185813
0.024233144 -0.28292197 0.86967927 0.77158636 0.079733528 0.63110775 0.19385931
0.044287048 -0.21600336 0.83156967 -0.5040043 0.40601224 -0.76232135 0.18431623
0.033984978 -0.25632966 0.85332322 -0.53317201 0.19409016 -0.82344192 0.1766026
0.042168885 -0.21850386 0.81566608 -0.39313644 0.49014872 -0.77794468 0.18195955
0.10189009 -0.43428749 0.81495452 0.44438377 -0.86366123 -0.23793323 0.13746582
0.035632655 -0.24045116 0.82993048 -0.5923 0.29703239 -0.74896753 0.17489024
0.077784538 -0.23251395 0.82998478 -0.43813339 0.46449006 -0.76960254 0.18559907
0.03166936 -0.19935749 0.85438097 -0.70772588 0.61603278 -0.34587225 0.18273687
0.11119606 -0.2199003 0.85217518 -0.14601158 0.62238199 -0.76897413 0.17005661
0.036549542 -0.24790649 0.84617317 -0.55885196 0.33251813 -0.75968164 0.18121168
0.046969887 -0.23495525 0.83090276 -0.50396651 0.4059377 -0.76238596 0.1842932
0.060550351 -0.21655113 0.82744086 -0.43802637 0.4646278 -0.76958036 0.18553282
0.043340351 -0.24099201 0.83217657 -0.50396651 0.4059377 -0.76238596 0.1842932
0.032420035 -0.25654754 0.83300263 -0.63859361 0.16182189 -0.75233757 0.17676197
0.011843017 -0.44335938 0.8845048 -0.21705665 -0.9710139 0.10009164 0.027868273
0.094333217 -0.45067358 0.82348526 0.24397598 -0.96955603 -0.020899668 0.10715745
0.027694004 -0.45380443 0.84815097 -0.050206274 -0.99469709 0.089760818 0.017807748
0.0007222665 -0.45204297 0.70008558 0.73550349 -0.51944673 -0.43498242 0.055300824
0.03081008 -0.27724484 0.85041332 0.63416654 -0.032320645 0.77252066 0.15620644
0.042268321 -0.21770167 0.82942915 -0.5040791 0.40628383 -0.7621271 0.18431966
0.036151815 -0.25268087 0.82503963 -0.62084794 0.21465105 -0.75397134 0.17940766
0.11489461 -0.44804233 0.84892249 0.51917958 -0.8459143 -0.12199021 0.16158809
0.0323953 -0.26011798 0.84399462 -0.64463621 0.12497113 -0.75420582 0.17935519
0.068188839 -0.21547861 0.84615713 -0.43811285 0.46452352 -0.76959401 0.18559493
0.015797304 -0.45209423 0.82514006 -0.054259412 -0.99301785 0.10474516 0.016931126
-0.0038427187 -0.4602682 0.82649004 -0.080765299 -0.98741448 0.13597657 0.01996023
0.03434268 -0.2559889 0.83431208 -0.62099653 0.21451272 -0.75388831 0.17945231
0.089164168 -0.19080053 0.85169989 -0.16317174 0.54086363 -0.82513118 0.20292461
0.074872002 -0.19124345 0.84611619 -0.25142831 0.51777685 -0.81773525 0.18456642
0.042404734 -0.19835298 0.85606349 -0.58150047 0.621099 -0.52544576 0.19120207
0.095650971 -0.20382936 0.85342485 -0.24030919 0.45520183 -0.85734636 0.18489261
0.085210763 -0.26439175 0.81276476 -0.32470807 0.59436864 -0.73572451 0.17241749
0.10759684 -0.20415273 0.85565805 -0.08411406 0.52317578 -0.84806359 0.14872412
0.083382025 -0.2564193 0.80478811 -0.28305691 0.51209819 -0.81094646 0.18296047
0.035784665 -0.20426224 0.85911071 -0.51159453 0.55475712 -0.65613699 0.18977591
0.078573771 -0.23778108 0.81858891 -0.39289671 0.48968059 -0.77836049 0.18188101
0.097917162 -0.22610828 0.83802664 -0.32029051 0.52555728 -0.78816468 0.17544545
0.10757959 -0.25134 0.84202075 -0.39829558 0.55879503 -0.72739851 0.15638761
0.11213185 -0.21459761 0.84994948 -0.085244313 0.64541501 -0.75906044 0.16971746
0.044715136 -0.23546368 0.87205285 0.34560728 -0.26852834 0.89913744 0.18185052
0.034369435 -0.20258935 0.85808128 -0.51159453 0.55475712 -0.65613699 0.18977591
0.040924173 -0.24075308 0.87521213 0.33236885 -0.2528508 0.90862393 0.18519305
0.036504436 -0.24908969 0.85170627 -0.56256992 0.27999726 -0.77789247 0.17447671
0.071605176 -0.21021712 0.85221237 -0.43811285 0.46452352 -0.76959401 0.18559493
0.032417614 -0.26218212 0.8765046 0.62707329 -0.11632597 0.77022552 0.17041907
0.035654493 -0.24762084 0.85824621 -0.47094139 0.24791329 -0.84661275 0.17683923
0.046153937 -0.23283686 0.87802106 0.31529912 -0.23326324 0.91987759 0.18837351
0.044380415 -0.22515053 0.8516621 -0.50402957 0.40591332 -0.76235723 0.18433399
0.079977714 -0.2779026 0.81388152 -0.48771659 0.23259889 -0.84144533 0.20345277
0.042001657 -0.21855587 0.8293618 -0.5040791 0.40628383 -0.7621271 0.18431966
0.061262615 -0.21931776 0.83680093 -0.46922097 0.43435749 -0.76887268 0.1843417
0.077127241 -0.25674036 0.82382429 -0.50414217 0.40622571 -0.76211637 0.18436049
0.043310471 -0.20904253 0.84642482 -0.44778538 0.3672795 -0.81522632 0.19162023
0.04895027 -0.23375252 0.86874092 0.37247089 -0.29834157 0.87878197 0.17635168
0.10092884 -0.44246644 0.81900078 0.3402791 -0.93769258 -0.070305385 0.12815072
0.036010541 -0.25421566 0.86918736 0.48234028 -0.21442974 0.84933376 0.17991683
0.062443934 -0.23877224 0.83962381 -0.50419581 0.4061234 -0.76213539 0.18437384
0.073290117 -0.20140155 0.85108966 -0.36629784 0.53499448 -0.76131916 0.18993688
0.042359371 -0.24471079 0.83378065 -0.50419581 0.4061234 -0.76213539 0.18437384
0.025246771 -0.45294651 0.84601772 -0.067100167 -0.99389714 0.087556489 0.016417438
0.094608866 -0.45034865 0.82145315 0.26370081 -0.96380055 -0.039375182 0.11255327
0.022052355 -0.45197153 0.85395598 -0.070516944 -0.99573821 0.059437662 0.016386798
0.036308281 -0.25916082 0.82956791 -0.63830417 0.161911 -0.75256407 0.17666085
0.036119901 -0.24620102 0.83823889 -0.59244257 0.29697707 -0.74887675 0.17494829
0.06653095 -0.21692772 0.83669317 -0.43811285 0.46452352 -0.76959401 0.18559493
0.005654613 -0.43951806 0.86201525 -0.19869395 -0.97692943 0.078291424 0.022786496
-0.0023915989 -0.43615469 0.68292218 0.73550349 -0.51944673 -0.43498242 0.055300824
