# .PCD v0.7 - Point Cloud Data file format
VERSION 0.7
FIELDS x y z
SIZE 4 4 4
TYPE F F F
COUNT 1 1 1
WIDTH 997
HEIGHT 1
VIEWPOINT 0 0 0 1 0 0 0
POINTS 997
DATA ascii
-0.071943127 -0.30390051 1.0452729
-0.1241924 -0.3264592 0.93341619
-0.1622614 -0.3158614 0.99199861
-0.1892719 -0.31691051 1.0390739
0.2202798 -0.31449941 0.75543702
0.16679139 -0.28850809 0.87276262
0.1855942 -0.2885696 0.91588169
0.062207822 -0.30451381 1.0413049
0.36951041 -0.3186546 1.019232
0.1815864 -0.31801549 0.9489978
0.114783 -0.3022483 1.002142
-0.01136225 -0.2364573 0.26986021
-0.0113146 -0.1957601 0.27015829
-0.07984674 -0.31810641 1.059474
-0.082264543 -0.32027581 1.0172369
-0.094382353 -0.3288987 0.87276
-0.1274963 -0.32382941 1.067569
-0.1197437 -0.32569441 0.90669268
-0.1285167 -0.33045471 0.84246892
-0.052493479 -0.3108061 0.29518309
-0.09669815 -0.3293924 0.88334978
-0.1401737 -0.3244186 0.78080732
-0.01136619 -0.25560409 0.2872
-0.1745936 -0.33055791 0.98853868
-0.1039528 -0.310619 0.35190669
-0.17230511 -0.3300676 0.75208062
-0.14613681 -0.3276751 0.76498312
0.27372229 -0.3263385 1.056191
0.1021534 -0.29278389 0.99479598
0.078559831 -0.31549251 1.068656
-0.02253836 -0.32702711 1.0053051
-0.0402955 -0.33345091 0.99499238
-0.0334934 -0.1017682 0.31416351
-0.052538 -0.3283492 1.026933
-0.063646652 -0.33664039 0.97938401
-0.036131021 -0.184433 0.26673841
-0.01210454 -0.1866561 0.27275401
-0.036989111 -0.1219947 0.28076369
-0.035385638 -0.1247986 0.27834389
-0.057948738 -0.27115881 0.2782023
-0.032918502 -0.1246696 0.28361011
-0.05545241 -0.25881901 0.2744028
-0.151454 -0.30681881 0.2663357
0.61311293 -0.30944821 0.65163612
0.60260081 -0.2786487 0.62516117
-0.045258701 -0.186102 0.26648399
-0.03476876 -0.1371194 0.27209511
-0.05163759 -0.2879414 0.31148279
0.6809482 -0.3103857 0.58539963
0.63045931 -0.30502239 0.52998769
0.6899786 -0.29873759 0.57131308
0.66311818 -0.30754489 0.55799252
0.6593616 -0.30382711 0.4687894
0.68311352 -0.29459581 0.45545691
0.67486972 -0.30188999 0.45772561
-0.068222217 -0.19440611 0.26266879
0.73209101 -0.29608569 0.43825889
-0.056271199 -0.2624405 0.27563551
-0.058355208 -0.16222221 0.29702789
-0.2223064 -0.31186059 0.3755734
-0.02609944 -0.1169512 0.27482989
-0.028214481 -0.1255849 0.28854159
-0.05938876 -0.26027441 0.29771471
0.60283422 -0.30160141 0.28078929
0.63338578 -0.28996199 0.28291079
-0.032803789 -0.1287142 0.25421521
-0.059412722 -0.26938209 0.29811081
-0.1970588 -0.30892441 0.25004169
-0.02503386 -0.095534623 0.2838102
-0.18845899 -0.3107067 0.26841101
0.63065249 -0.29556769 0.23374531
0.65833437 -0.3077423 0.27388439
-0.043076068 -0.1625458 0.26767501
0.38550219 -0.31387681 0.50551748
0.49887151 -0.31518161 0.2043366
0.67327279 -0.30504131 0.2037908
0.60936183 -0.3022379 0.26906881
0.37075299 -0.31284961 0.4963899
-0.061493311 -0.31308419 0.21768139
-0.058046099 -0.2764304 0.29440969
-0.040705439 -0.30873641 0.33320469
-0.05923954 -0.2489637 0.29935369
0.63482368 -0.30143681 0.2660355
-0.038492769 -0.3159757 0.2042457
-0.023020981 -0.1015438 0.30384299
0.66559333 -0.28391889 0.47261149
0.64608008 -0.2967191 0.52288651
0.7027567 -0.29283369 0.56285208
-0.065148383 -0.30271551 0.2782346
-0.04131579 -0.1570918 0.2754986
-0.043134209 -0.12677979 0.26912281
-0.034792662 -0.16193441 0.27788979
-0.037658721 -0.1034761 0.2609604
-0.032871261 -0.1386247 0.2533702
-0.036140438 -0.13423251 0.2700029
-0.063340351 -0.29681939 0.24120399
-0.071285807 -0.2797491 0.2645984
-0.069090202 -0.1899713 0.26821929
-0.035272758 -0.1592094 0.2558859
-0.062892146 -0.29206011 0.2412453
-0.03474522 -0.1357013 0.25080851
0.60289121 -0.3089413 0.25387231
-0.069920689 -0.1999528 0.2608549
-0.070552871 -0.2911469 0.26271781
-0.07002382 -0.30515531 0.2595672
-0.06560798 -0.305002 0.2448543
-0.055879921 -0.2171666 0.2314021
-0.03706041 -0.126119 0.25477639
0.73601848 -0.28083679 0.56294519
-0.060969919 -0.2142286 0.23687799
-0.03961787 -0.1554077 0.25058699
-0.05498508 -0.1935192 0.23368379
-0.061532259 -0.30749121 0.235669
0.6748895 -0.27159119 0.58634287
0.57312459 -0.3069804 0.5917064
-0.037980769 -0.29004091 0.2354971
-0.070629098 -0.29902741 0.26298839
0.68915713 -0.30115229 0.52916098
0.64928001 -0.274012 0.59955031
0.61461371 -0.2737788 0.59825629
0.71557558 -0.2861191 0.64453852
0.66989148 -0.2623592 0.63283819
0.62865472 -0.29025519 0.63077182
0.65063012 -0.26921639 0.63513678
0.64210248 -0.2979697 0.67213088
0.73344052 -0.29039571 0.58210123
0.62351698 -0.2916474 0.63307518
0.66192609 -0.28183731 0.70214301
-0.067680873 -0.19094551 0.2473972
0.67831272 -0.31341901 0.46097851
0.50387502 -0.31100741 0.66043198
0.68985409 -0.3119776 0.74457347
0.60544461 -0.31859681 0.25632769
0.58979112 -0.3170526 0.2065143
-0.069198042 -0.1954885 0.26321879
0.65162373 -0.29261121 0.62516361
-0.03739943 -0.1352208 0.25500429
0.58143109 -0.3093915 0.5957185
-0.05707752 -0.19519681 0.2351277
-0.038877841 -0.107034 0.26083821
-0.040456239 -0.1039074 0.2600598
-0.041804489 -0.2594544 0.2283368
-0.051156349 -0.31388229 0.2304574
-0.056893609 -0.1996561 0.2337472
-0.067024633 -0.30613309 0.2449543
-0.03897813 -0.113418 0.2551907
-0.04806551 -0.1397727 0.25436389
-0.062999472 -0.29890329 0.24301369
-0.066119157 -0.3153826 0.24918561
-0.053702299 -0.29932231 0.238563
-0.03866059 -0.1563258 0.2565774
-0.065852173 -0.19451649 0.2432414
-0.038737461 -0.12566499 0.2583164
0.33870041 -0.30654839 0.82075697
0.1947981 -0.26342151 0.83500522
-0.02692458 -0.26410589 0.231455
-0.056447372 -0.29491511 0.23728231
0.1852918 -0.2652896 0.83469582
0.1566906 -0.2928032 0.80900669
0.16247889 -0.2889415 0.82366002
0.1468896 -0.31443009 0.81822538
-0.025636589 -0.154956 0.26339841
-0.0269475 -0.26159161 0.2310535
-0.02609268 -0.27517861 0.22966629
-0.02923956 -0.29037789 0.23057909
-0.01054159 -0.2310452 0.24545421
-0.027673701 -0.2213158 0.2316507
-0.038728129 -0.1062118 0.26003811
-0.01011816 -0.2617341 0.24507239
-0.041461039 -0.105319 0.26160121
-0.039870169 -0.1143079 0.25608489
-0.03035024 -0.1595059 0.27248299
-0.00494124 -0.2281177 0.25363171
-0.01075995 -0.23571829 0.2410787
-0.0090305936 -0.31039229 0.2446039
-0.03804623 -0.1056277 0.25940251
-0.0083930567 -0.27338919 0.24462549
-0.0095269009 -0.28980029 0.2440266
-0.0075437431 -0.31647351 0.26466289
-0.01041761 -0.27471459 0.241117
-0.006160893 -0.2232151 0.26643351
-0.0074057798 -0.2236229 0.27208769
-0.0055538341 -0.2240607 0.2610516
-0.006977811 -0.2257985 0.2539106
-0.00562758 -0.21260411 0.26482099
-0.0057664891 -0.22917201 0.25436321
-0.007299386 -0.2268393 0.27086079
-0.004993238 -0.24574649 0.25800729
-0.028199781 -0.19137169 0.22871201
-0.0079274625 -0.22635061 0.25186059
-0.0057754 -0.23643871 0.25388929
-0.01156062 -0.2353877 0.2401326
-0.0063907579 -0.25386399 0.25048959
-0.042414051 -0.15845031 0.25547749
-0.026226841 -0.2162423 0.2276969
-0.0053147902 -0.2716243 0.25369039
-0.0066372231 -0.27165461 0.2491394
-0.0059813042 -0.20810661 0.2669104
-0.01189788 -0.22456659 0.2421218
-0.0095612668 -0.230413 0.24200539
-0.0097265467 -0.2295882 0.2442763
-0.0064041242 -0.2464658 0.2501927
-0.0052543511 -0.2390894 0.25731599
-0.0062907259 -0.2440805 0.25170031
-0.01087394 -0.3146466 0.2411288
-0.02585206 -0.1587203 0.26863721
-0.043238919 -0.1366988 0.25241879
-0.029893599 -0.2135679 0.22845469
-0.01100218 -0.2424892 0.24263351
-0.02805607 -0.20055319 0.2307134
-0.037493091 -0.208398 0.22790881
-0.038472209 -0.1129726 0.2559644
-0.029332731 -0.15721621 0.27057701
-0.0098919636 -0.27120429 0.2478376
-0.0306351 -0.2344192 0.228663
-0.0091690198 -0.2191851 0.2749556
-0.005326279 -0.25948149 0.2478845
-0.0060908119 -0.26340571 0.25476539
-0.0077076629 -0.2285258 0.24901199
-0.0067836121 -0.2240085 0.2575039
-0.0457022 -0.15903939 0.2536597
-0.0091141686 -0.30895421 0.27560091
-0.045579311 -0.1387517 0.25669029
-0.041998371 -0.1287834 0.25216919
-0.03978182 -0.27393451 0.22680411
-0.2189424 -0.31619021 0.97863919
-0.0577171 -0.1987803 0.2328372
-0.03796697 -0.1383145 0.249135
-0.2890332 -0.28981069 1.201437
-0.27640909 -0.31436709 1.124301
-0.2415459 -0.27658561 1.053713
-0.066610433 -0.1903529 0.23861711
-0.044947691 -0.1386103 0.25008339
-0.02359155 -0.31414911 0.23139019
-0.028650559 -0.26536319 0.2296972
-0.055628851 -0.29532459 0.2332776
-0.038354859 -0.31690291 0.22710671
-0.062984288 -0.30814809 0.23384909
-0.061376721 -0.31256291 0.2327401
-0.026179541 -0.25546491 0.2306453
-0.034893289 -0.1419303 0.25129411
0.1887829 -0.2800101 0.84341252
0.1836832 -0.31254619 0.86052531
-0.05931833 -0.2172913 0.2328815
-0.066438258 -0.29052159 0.2367947
-0.05975857 -0.29803139 0.2356932
-0.049834032 -0.2181101 0.2285566
-0.063040257 -0.29605001 0.2332592
-0.04015559 -0.2479707 0.2273234
-0.037333742 -0.1277997 0.2545065
-0.058667541 -0.1928989 0.2312059
-0.071390882 -0.1938563 0.2499658
0.1614352 -0.27305171 0.83293521
-0.041220829 -0.1351122 0.25053611
-0.0404942 -0.1581783 0.2529726
-0.072212517 -0.19319969 0.25875229
-0.044293001 -0.15869971 0.2480351
-0.07196559 -0.3101458 0.25244409
-0.04326063 -0.1279832 0.24604119
-0.071444057 -0.1907008 0.24982481
-0.07352791 -0.27473 0.25665149
-0.072012827 -0.1920922 0.2575736
-0.04166783 -0.15699761 0.26459929
-0.045708582 -0.15388121 0.2428851
-0.073198393 -0.30287221 0.2556136
-0.041314632 -0.1261168 0.2493656
-0.04298228 -0.13168409 0.2467038
-0.047350042 -0.13635001 0.2493123
-0.071521416 -0.28371811 0.25656021
-0.038846388 -0.23333231 0.28695229
-0.039562311 -0.1052277 0.25487629
-0.05060963 -0.1371185 0.26022461
-0.039878719 -0.31201991 0.28775409
-0.056188028 -0.1876763 0.28303009
-0.07328026 -0.25751439 0.2565212
-0.042874958 -0.23581541 0.28851229
-0.04122813 -0.30887589 0.28936031
-0.043054089 -0.29703441 0.28854379
-0.04090298 -0.2460362 0.28946269
-0.035184029 -0.2260233 0.2877247
-0.03054202 -0.23192491 0.28707471
-0.042367581 -0.2486013 0.28886491
-0.040117711 -0.23080461 0.28704819
-0.044575781 -0.2475221 0.28632849
-0.0454075 -0.30895069 0.28819501
-0.032790229 -0.27013329 0.2864809
-0.01187863 -0.2243164 0.27505419
-0.01374221 -0.2982887 0.26957071
-0.01115267 -0.22527359 0.255068
-0.04209321 -0.29971761 0.29232529
-0.038620859 -0.284688 0.2932584
-0.039870549 -0.28309461 0.29173741
-0.01517813 -0.226026 0.2799634
-0.021790151 -0.2054643 0.28512019
-0.043356221 -0.2403565 0.29087839
-0.04094683 -0.2302032 0.2928364
-0.032515991 -0.26171219 0.2918185
-0.035122529 -0.2201184 0.2925745
-0.066948943 -0.317004 0.27935359
-0.06145509 -0.31539151 0.2826969
-0.058008239 -0.1900101 0.27790231
-0.04527935 -0.15971661 0.2394184
-0.076087236 -0.2803739 0.2525999
-0.04469502 -0.13064981 0.25979879
-0.077626333 -0.3024475 0.2477461
-0.068453267 -0.31829289 0.2659505
-0.076046087 -0.19366901 0.2511591
-0.045135569 -0.12591369 0.244073
-0.07777755 -0.192414 0.25226811
-0.078106493 -0.27609989 0.25431669
0.71611619 -0.31010139 0.2082594
-0.045082539 -0.1356371 0.2559939
-0.069016919 -0.29587981 0.2307626
-0.041827772 -0.1347973 0.25827059
0.62141109 -0.24748451 0.27855951
0.59521788 -0.3007521 0.27064559
0.6048829 -0.25537509 0.2692599
-0.071126573 -0.2874369 0.23073301
-0.075578481 -0.30992401 0.24550331
0.62545669 -0.2450774 0.2869598
-0.076718971 -0.1989467 0.2496862
-0.04430712 -0.1541343 0.2401927
-0.070157588 -0.2995564 0.2301254
-0.04397982 -0.1585992 0.2595925
0.63218492 -0.31561351 0.40268239
-0.07779561 -0.28755769 0.25250971
-0.074173599 -0.30010509 0.23435751
-0.075565703 -0.25046429 0.2435194
-0.077441163 -0.27568769 0.249832
-0.076787889 -0.18864261 0.25645429
0.62286383 -0.20755249 0.29194781
-0.063669428 -0.192204 0.2226782
-0.077556849 -0.211164 0.2499115
-0.04567131 -0.1390575 0.25575921
0.68459129 -0.29439369 0.4673247
-0.077930719 -0.2526122 0.25299281
-0.067005537 -0.1895176 0.22428571
0.63291973 -0.30852661 0.5024004
0.69592541 -0.2705006 0.53047448
-0.058949869 -0.1600122 0.2497841
-0.052247241 -0.1359891 0.25639561
-0.044451252 -0.12803669 0.2395726
-0.03089384 -0.15923139 0.24773049
-0.031933211 -0.1559898 0.24703141
-0.2551944 -0.2155513 1.334411
-0.045212369 -0.1126676 0.2459075
-0.150405 -0.24015079 1.244498
-0.01755606 -0.23414581 0.2309162
-0.0185473 -0.27808449 0.2352162
-0.01781787 -0.31273049 0.2301953
-0.0165026 -0.2735664 0.23520499
-0.0183644 -0.29017591 0.2349561
-0.03531158 -0.27699301 0.2211711
-0.03605118 -0.3064326 0.218017
-0.046239018 -0.31456921 0.2205836
-0.035965592 -0.219365 0.2211304
-0.03947724 -0.3117691 0.2201374
-0.041591231 -0.28990051 0.22003859
-0.017240809 -0.31029871 0.2342741
-0.035350829 -0.25115621 0.2223005
-0.03530167 -0.26000941 0.22167879
-0.04761982 -0.29518199 0.2215817
-0.031214571 -0.25608611 0.22477271
-0.051505301 -0.26165259 0.2218132
-0.045432139 -0.112284 0.2455931
-0.01631281 -0.2281803 0.2344453
-0.05650406 -0.1631899 0.24469499
-0.01160207 -0.30496669 0.2380456
-0.01482582 -0.1665867 0.25334921
-0.098817378 -0.31579211 0.73923528
-0.1092615 -0.31040159 0.98856157
-0.085877463 -0.31074291 0.93087298
-0.20091499 -0.31873351 0.92075819
-0.1371692 -0.1911995 0.82830948
-0.15525 -0.27716541 0.97413647
-0.115616 -0.2305662 1.1954041
-0.072860599 -0.29881489 0.92417169
-0.2103243 -0.27468139 1.130191
0.067657523 -0.30559909 0.83393651
-0.12999859 -0.2214421 1.203956
-0.018009961 -0.25621039 0.87298608
-0.090650558 -0.23284779 1.196296
-0.02381343 -0.26469901 0.96211457
-0.2000242 -0.24151149 1.275558
0.2059014 -0.27387819 0.92044312
0.16949899 -0.28638369 0.79121071
0.062970527 -0.212209 0.89115971
0.1148075 -0.2644977 0.95267677
0.04187895 -0.2346819 0.90725231
0.084400892 -0.29634649 0.83407688
0.090371072 -0.27831909 0.94989967
0.050615132 -0.31181699 0.92589033
0.026622521 -0.2066334 0.99507213
0.1069832 -0.28896591 0.85911781
-0.0082213506 -0.2482319 0.9513005
0.0099854469 -0.2465923 0.99394238
-0.047351301 -0.2298805 1.1559041
-0.1432953 -0.24043339 1.161225
-0.20659921 -0.2465093 1.203351
-0.0094724149 -0.28956729 0.83342481
-0.1712033 -0.30002439 0.82237369
0.27613521 -0.311373 0.96244311
0.2406048 -0.29811519 1.001344
0.21035729 -0.225474 0.97219223
0.2108345 -0.27939409 0.88053173
0.1728764 -0.3056201 0.82204092
0.088257007 -0.1920588 0.94935542
-0.1895074 -0.1984314 1.1706409
-0.1389357 -0.29880819 1.189449
0.02278341 -0.24776641 0.97158313
0.37385961 -0.2362954 0.8460418
0.3844496 -0.2508359 0.97260457
0.35819781 -0.28271061 0.85698408
0.34662679 -0.234525 1.2103291
0.358098 -0.27212241 1.096397
0.3621785 -0.31839401 0.7474364
0.34187901 -0.2954483 1.120528
0.32026139 -0.27992359 0.9151243
0.3174499 -0.30495781 0.91421503
0.31040129 -0.29144961 0.92164558
0.31659251 -0.31395689 0.87102628
0.3469153 -0.26213279 0.93849063
0.33717459 -0.31171831 0.90498382
0.2760191 -0.18912341 1.12085
0.3172403 -0.3101905 0.9326427
0.30343589 -0.30074251 0.98270142
0.1260058 -0.30741179 0.7904011
0.036321539 -0.20906579 1.001937
-0.053149581 -0.2360626 1.315658
-0.062121611 -0.22027139 1.24403
0.024928659 -0.30003089 0.85798991
-0.0026986969 -0.2749626 0.87961948
0.0076917042 -0.26133811 0.9601562
-0.092011899 -0.2157494 1.235974
-0.1462611 -0.2344702 1.2146
-0.0037616191 -0.30431631 0.88569897
-0.25315511 -0.31564739 1.005075
0.4487513 -0.26477051 0.63457698
0.4625046 -0.2718696 0.71478808
0.45547849 -0.2315826 0.77687281
0.50812101 -0.208092 1.102928
0.45711339 -0.25528249 0.81175041
0.44577661 -0.25251439 0.75715798
0.49191019 -0.2252994 1.115851
0.44366699 -0.2460476 0.81824541
0.45279771 -0.3158859 0.72034788
0.4256323 -0.2540842 0.81329107
0.41505009 -0.232619 0.82276338
0.47057331 -0.28691071 1.112733
0.4185046 -0.26197231 0.8207593
0.39744991 -0.1843815 0.91365951
0.40737799 -0.25494069 0.83617282
0.38868609 -0.2407985 0.81896323
0.41403541 -0.26206729 1.014303
0.41893741 -0.269842 1.071714
0.39348829 -0.24167331 1.044391
0.35245749 -0.2212839 0.83123338
0.41753939 -0.20166931 0.97280651
0.36799961 -0.24234229 1.0025899
0.34709099 -0.2327356 0.81919372
0.33863261 -0.2216716 0.82235008
0.35870391 -0.20648269 1.1055191
0.3456648 -0.18598761 1.095827
0.3355915 -0.23045 0.81835258
0.36792439 -0.25746259 1.07269
0.3469995 -0.2552284 0.84130859
0.34272879 -0.2142814 1.1152
0.33528629 -0.2034829 1.123333
0.4344019 -0.2340385 1.325051
0.31150979 -0.1996285 1.107913
0.38527629 -0.25570241 1.044154
0.29184231 -0.2212605 1.097995
0.3461335 -0.2455169 1.024349
0.3278282 -0.26803961 0.97022879
0.30055511 -0.27794921 1.11375
0.21596 -0.237047 1.091592
0.1662866 -0.2403055 0.83794498
0.1742081 -0.28372851 0.81078619
0.1327713 -0.28490019 0.95185882
0.12234 -0.25007081 0.93426019
0.31015801 -0.30407521 1.3364691
0.1746175 -0.28370389 0.82653463
0.097371429 -0.29302591 0.84910131
0.09339001 -0.27125341 0.83054203
0.1446604 -0.28641269 0.94830108
0.056635741 -0.30540991 1.013069
0.047463208 -0.25081599 0.98739499
0.051396299 -0.2981849 0.84068751
-0.01444112 -0.2286417 1.161422
0.017614771 -0.20320711 0.90596497
0.0068329349 -0.2369805 0.98374683
0.01089531 -0.26573309 0.89688522
-0.01758226 -0.29064709 0.87931299
-0.1342051 -0.2446509 1.207449
0.001089305 -0.27980009 0.87745953
-0.093599454 -0.2555277 0.94788551
-0.090144202 -0.26485649 0.93970722
-0.2223735 -0.2495179 1.348352
-0.25166401 -0.238851 1.37227
-0.26812971 -0.2773948 1.197575
-0.2206742 -0.2524057 1.037218
-0.2210671 -0.2863 1.0135289
-0.24799059 -0.2555795 1.0764
-0.2402371 -0.26253989 1.128232
-0.2174527 -0.30799881 0.87050033
-0.2208617 -0.257254 0.99281859
0.15122309 -0.30056581 0.81458408
0.1470826 -0.31062511 0.8017174
-0.046356142 -0.1562109 0.2457028
0.49589929 -0.31201881 0.63787788
-0.069674522 -0.29525349 0.234375
0.57715231 -0.30625871 0.64875638
-0.070276737 -0.28928179 0.2332314
-0.04654792 -0.1335666 0.25275341
0.61267662 -0.27254289 0.58555943
-0.075007141 -0.19328471 0.25326821
-0.059719712 -0.1939231 0.2238242
-0.073814422 -0.29941279 0.2354334
-0.04901104 -0.1601243 0.2442839
-0.078589618 -0.26101461 0.23413
-0.064693958 -0.31814101 0.26668221
0.64863718 -0.29995909 0.41987011
0.72791398 -0.27838439 0.53787571
0.70534748 -0.28257141 0.55173337
0.55580479 -0.3009547 0.56642199
-0.060835361 -0.2168355 0.223279
-0.038363989 -0.31111819 0.2132767
-0.069634654 -0.29210979 0.22692481
-0.049134109 -0.15179139 0.2647301
-0.074853003 -0.19329061 0.2536363
-0.075977057 -0.28790209 0.2536231
0.65237647 -0.31451491 0.50544578
0.62798351 -0.27741939 0.55786431
0.57035679 -0.27839381 0.59154779
-0.057665799 -0.29156911 0.2275717
0.49595699 -0.3122873 0.63340861
0.7478621 -0.2324259 0.2226555
0.67291099 -0.29686779 0.2119159
0.5733453 -0.2995176 0.2337053
0.61355388 -0.3156963 0.42786849
-0.05553773 -0.30233201 0.2202204
-0.077435523 -0.29507291 0.25338861
-0.077866733 -0.2510756 0.25386059
0.54445517 -0.27891251 0.64362198
0.46718001 -0.27208769 0.64455873
0.50081289 -0.2572377 0.66755158
0.47592199 -0.308835 0.66113281
0.6984936 -0.2311018 0.2771942
0.66161472 -0.29034269 0.21157821
-0.077260017 -0.2130207 0.23967621
-0.078438878 -0.18521591 0.25669599
-0.04846504 -0.26777679 0.2204477
-0.064433247 -0.2073269 0.2229355
-0.075691007 -0.1886497 0.2377554
-0.060092092 -0.27028379 0.2253038
-0.079820871 -0.1947113 0.2496766
-0.0782727 -0.30979091 0.25334519
-0.07776612 -0.27656439 0.2544674
0.59295708 -0.28174701 0.54307002
0.61080492 -0.29068059 0.63960367
0.64254433 -0.25790009 0.53318352
-0.046923552 -0.1622868 0.2345819
-0.028072439 -0.15817501 0.25775221
-0.028377861 -0.1584207 0.25330171
-0.05524379 -0.1913106 0.28294399
-0.040777531 -0.13499381 0.25515899
-0.05576269 -0.19420721 0.27820089
-0.05072337 -0.1367504 0.2454645
-0.04083338 -0.23313449 0.28298289
-0.03625207 -0.136709 0.2569589
-0.01886693 -0.2276895 0.27885011
-0.050029729 -0.20080259 0.27720249
-0.035867769 -0.1632053 0.2592378
-0.0082834363 -0.28571099 0.266096
-0.033180781 -0.1603815 0.2517674
-0.04078963 -0.27114591 0.2848407
-0.03729248 -0.3136031 0.28368801
-0.07384187 -0.1948394 0.25956661
-0.036655191 -0.2531867 0.28181991
-0.038317129 -0.1571753 0.2493185
-0.032524198 -0.1385583 0.25815311
-0.045898911 -0.13579001 0.245332
-0.073322393 -0.2975803 0.25541079
-0.074661173 -0.31762221 0.26220939
-0.0495519 -0.2178036 0.229454
-0.042809039 -0.1476507 0.27637079
-0.073442608 -0.2785227 0.25840309
0.59382969 -0.3042199 0.24116869
0.68525261 -0.27099031 0.2312295
-0.063213967 -0.1918201 0.2288167
-0.075255752 -0.19583189 0.2397562
-0.072795808 -0.3093175 0.2490817
0.7433328 -0.2985737 0.48599261
-0.059928238 -0.21843681 0.23696931
0.59725779 -0.25513741 0.2767559
0.68229783 -0.3062574 0.49477851
0.58990681 -0.31805441 0.25548881
-0.04798561 -0.1572582 0.2640132
-0.052832369 -0.1366109 0.25336871
-0.043837581 -0.15555491 0.25516149
-0.034372311 -0.26676261 0.23003121
-0.044476651 -0.1536483 0.25269029
-0.05380505 -0.21886121 0.2285727
-0.0364138 -0.20719039 0.2276645
-0.0346708 -0.22313429 0.2300083
-0.061529059 -0.1986132 0.2284233
-0.047384359 -0.216428 0.2247857
-0.03624998 -0.31283349 0.22406749
-0.04102654 -0.28984559 0.2250856
-0.03860468 -0.27103671 0.2285841
-0.03367791 -0.19988111 0.2252543
-0.034541659 -0.13532101 0.25247511
-0.05308735 -0.13844991 0.25569969
-0.05129426 -0.30366331 0.225843
0.31178871 -0.31276491 0.94351423
0.4291814 -0.265457 1.102895
0.3243148 -0.2385692 0.85957801
0.38524169 -0.21198741 1.019894
0.37829569 -0.25739571 1.062454
0.4232738 -0.2131826 1.135828
0.3356607 -0.27569729 0.93571848
0.3110528 -0.31387591 0.95079267
0.1870534 -0.1933817 0.89467639
0.3222563 -0.31626049 0.92229819
0.25484589 -0.31372529 0.94779909
0.1285298 -0.2809765 0.93757027
0.077320866 -0.31221801 0.88306302
-0.03777615 -0.3042016 0.22638179
0.35704079 -0.2210115 0.79810232
0.3574203 -0.26161131 1.0195839
0.18304271 -0.1978132 0.89502352
0.1151226 -0.29385191 0.97437572
0.1438785 -0.2405201 0.91519201
0.13531829 -0.28007919 0.94783747
0.05024381 -0.31138179 0.90955621
0.057658412 -0.2084893 0.88448131
0.045548301 -0.221365 0.89659208
0.016218441 -0.29371169 0.87930608
0.021406829 -0.2875286 0.92065042
-0.070917167 -0.28033879 0.25812119
0.139336 -0.28882119 0.78493398
0.10012 -0.29569161 0.92079532
0.06020892 -0.28395161 0.9989146
0.1026405 -0.2584798 0.94205582
0.01250131 -0.27554739 0.91529179
-0.034546349 -0.2575244 0.2239334
-0.01085353 -0.3172321 0.2391983
-0.045342889 -0.13305549 0.2563169
-0.024299661 -0.19235019 0.2345684
-0.034376781 -0.20675831 0.2250782
-0.042440351 -0.2039161 0.21876851
-0.04273903 -0.1431337 0.2478694
-0.051813491 -0.1130875 0.25380221
0.26893359 -0.2525613 1.042793
0.33795261 -0.2613422 0.80238509
-0.039473891 -0.2177664 0.2282248
0.31697291 -0.28931659 0.94755203
-0.049420521 -0.28578061 0.22367661
0.303368 -0.2271671 1.047269
0.1630355 -0.29442629 0.79432422
0.1412219 -0.26616129 0.96211141
0.17700639 -0.3108393 0.81684393
0.1146642 -0.30066779 0.83151913
-0.037885379 -0.29226691 0.86622989
-0.03472098 -0.28690809 0.95502841
0.01246617 -0.2667594 1.167984
0.02613089 -0.2428554 1.263772
-0.043818459 -0.2496665 0.9689883
0.02234171 -0.2189481 1.265746
-0.0353304 -0.28737909 0.92031783
-0.092536591 -0.25644201 0.87564731
-0.0084415451 -0.2317245 1.4057
0.2998867 -0.2987895 0.94534409
0.1998864 -0.19917069 0.88988888
0.1424938 -0.25410321 0.83395529
-0.058005959 -0.29510811 0.2377772
-0.026927371 -0.22978871 1.214449
-0.0098600024 -0.2096156 1.377647
-0.1030664 -0.31152311 0.94464952
-0.1160665 -0.31634179 0.93274021
0.023706369 -0.22584429 1.362131
-0.097799681 -0.26042631 1.012007
-0.05912618 -0.22461431 1.2769459
-0.058787759 -0.26749381 1.014114
-0.02870672 -0.25436339 0.22833709
-0.032933772 -0.1936264 0.2258119
0.40193611 -0.27019611 1.10694
0.1463827 -0.3141537 0.64867008
0.28820661 -0.21146341 1.122324
-0.043629918 -0.225144 0.2233614
-0.037096009 -0.1155218 0.2564933
-0.03869931 -0.1071935 0.25576061
-0.04772133 -0.2152853 0.2317699
-0.051158462 -0.26629081 0.22297551
-0.037382361 -0.1370061 0.2513766
-0.072171308 -0.31679949 0.23368999
-0.073586397 -0.27698541 0.25669271
0.0082539096 -0.28385401 0.8892982
-0.0002890006 -0.27228209 0.96392542
0.055551551 -0.24897841 1.298345
0.071333423 -0.29869881 0.96399629
-0.001698352 -0.3103433 0.91516799
0.3409346 -0.2288027 0.84407151
-0.05861631 -0.16243459 0.25600159
-0.088142186 -0.31228989 0.908391
-0.26934189 -0.2699171 1.111573
-0.015728479 -0.2266655 0.2366343
-0.2517333 -0.2601684 1.136515
-0.041078821 -0.1495425 0.24269401
-0.15351351 -0.27181929 0.96167082
-0.07970944 -0.2445801 0.87434208
-0.0524211 -0.25595751 0.97032118
-0.033276878 -0.2930977 0.86990941
-0.027407089 -0.3088043 0.98223948
-0.1056692 -0.29729211 0.9630816
-0.1162697 -0.31041151 0.88787162
0.063323833 -0.28161901 0.99501061
-0.034990851 -0.19915999 0.21601
-0.052237481 -0.2130674 0.2205893
-0.086208113 -0.30074701 0.84050751
0.0075134989 -0.2474082 1.02768
-0.03580606 -0.2166819 0.2274626
-0.039143238 -0.27817091 0.2134431
-0.2483598 -0.2693066 1.1662281
0.089897767 -0.2918047 0.99542499
0.1747081 -0.3127847 0.64188641
0.1461394 -0.30424991 0.79119933
0.020209869 -0.24281549 1.1386
-0.06832362 -0.28635061 0.2317607
-0.003774025 -0.29360679 0.86551189
0.1026272 -0.28475979 0.82817757
0.1103488 -0.26571459 0.96770078
-0.050022081 -0.13516369 0.2474294
0.29778409 -0.2456046 1.058872
0.251683 -0.16784699 1.0336699
0.1939404 -0.2797744 0.86473483
-0.03370491 -0.1275173 0.2525734
-0.035709281 -0.1386783 0.26140371
0.068077073 -0.287516 0.9203161
-0.037759941 -0.25646949 0.2138063
0.019088071 -0.2361344 0.95468581
-0.05374166 -0.1204424 0.24594361
0.36799669 -0.2906647 0.87915951
0.3615604 -0.2396607 1.004245
0.29852381 -0.30115259 0.84624207
0.36926281 -0.2440597 1.01377
0.27828231 -0.26321539 0.84975189
0.2937808 -0.2985318 0.75947839
0.27269641 -0.31675321 0.76281577
0.28475249 -0.27670759 0.85141909
0.2330903 -0.23641931 1.034853
0.29125619 -0.21349061 0.99746048
0.2137899 -0.227623 1.049605
0.27044219 -0.25305119 1.028354
-0.02123408 -0.28277111 0.81708509
-0.027658589 -0.1615054 0.2596547
0.1161561 -0.2882053 0.80816859
-0.099042468 -0.31749859 0.9599731
-0.1167656 -0.215425 1.14106
-0.03111757 -0.1316441 0.2666046
-0.051777281 -0.1210309 0.2394537
-0.210104 -0.2604678 1.103056
0.44192821 -0.2390832 0.79766399
0.42539471 -0.236022 0.79139912
0.42027149 -0.2403561 0.81808561
0.49491331 -0.20347971 1.082926
0.4025138 -0.2514405 0.79506892
0.4818652 -0.25575989 1.046946
0.46783081 -0.2094022 1.052393
0.38834029 -0.2279004 0.80629849
0.3932457 -0.2468511 0.81258082
0.46641979 -0.24721029 1.078086
0.35376701 -0.2188139 0.79232907
0.36520121 -0.25180721 0.82986778
0.39937341 -0.25369921 0.99535328
0.32306531 -0.1999716 0.78749847
0.32528111 -0.27367619 0.77917582
0.3195954 -0.2463347 0.7976737
0.39864099 -0.1941306 1.130129
0.32214481 -0.31157869 0.80026269
0.36845371 -0.26292241 1.029914
0.3582387 -0.2452054 0.82511842
0.32908961 -0.2611526 0.92263162
0.3433415 -0.21303131 0.81300378
0.34955251 -0.1995928 1.087253
0.3416335 -0.2452309 1.0315681
0.33272719 -0.269373 0.78423512
0.3220298 -0.28916141 0.94701362
0.38362819 -0.2100374 0.99866509
0.3431612 -0.2167996 1.129257
0.32791501 -0.2393312 0.86574048
0.3068572 -0.2119597 1.059854
0.2904748 -0.29525569 0.95517778
0.28973159 -0.31776181 0.96750373
0.28642371 -0.16396619 1.079591
0.29022601 -0.26313379 1.0876859
0.28640729 -0.2082959 1.111333
0.2413594 -0.28238961 0.9365539
0.2374001 -0.31088269 0.94311082
0.2278778 -0.26433629 0.99786532
0.2073101 -0.2775434 0.88720828
0.19673321 -0.2499475 0.86671942
0.1871797 -0.1934884 0.89351618
0.18441869 -0.25480431 0.84816122
0.2401322 -0.27544591 1.31083
0.1516684 -0.1939588 0.90729731
0.1377953 -0.24281541 0.80227071
0.1476057 -0.23863579 0.89941418
0.1282635 -0.27733591 0.92836303
0.14875031 -0.29224569 1.41935
0.098022267 -0.2934185 0.89627081
0.050447661 -0.2985388 0.84339219
0.24875361 -0.2152092 1.00831
0.029228341 -0.30239481 0.75980961
0.022128079 -0.27817741 0.89162368
0.03405324 -0.26030079 1.331524
0.055944432 -0.30938351 0.92453098
-0.0098734051 -0.20001531 1.333382
-0.01480381 -0.2632044 1.258041
0.2197198 -0.31807479 1.377085
-0.033912841 -0.25153121 0.2159114
-0.035008889 -0.25945181 0.884085
-0.04239928 -0.2477477 0.96195418
-0.053706519 -0.31285009 0.86820072
-0.059062179 -0.2251776 1.278663
-0.046788421 -0.2048362 0.2089645
-0.024010031 -0.3102853 0.2226669
-0.071919426 -0.26543999 0.9086203
-0.076990768 -0.31397629 0.84118032
-0.089909323 -0.28252211 1.096699
-0.094422877 -0.220746 1.176816
-0.057047188 -0.15694571 0.2476265
-0.060446471 -0.18686169 0.2197243
-0.103603 -0.2651445 0.97536021
-0.070426457 -0.3075386 0.2247341
-0.1136506 -0.3093482 0.91587973
-0.1173638 -0.30036879 0.93029302
-0.1447738 -0.23490161 1.2804821
-0.1559073 -0.2212732 1.268368
-0.09639214 -0.23742861 1.22802
-0.069877282 -0.3093195 0.22823291
-0.1480379 -0.3180342 0.64064747
-0.2007954 -0.2196576 1.220632
-0.2065738 -0.20237529 1.19115
-0.2109026 -0.24586441 1.204549
-0.23985571 -0.2173906 1.405879
-0.148131 -0.2289096 1.206367
-0.203215 -0.2578505 0.98151958
-0.2253686 -0.24766371 1.090028
-0.2101891 -0.24726561 0.98589897
-0.23439039 -0.26104769 1.0701261
-0.26653621 -0.30409661 1.0805351
-0.045529719 -0.1208733 0.2364655
-0.03523292 -0.20401341 0.2214721
-0.03458979 -0.1906262 0.22068749
-0.038383812 -0.31266311 0.22317471
-0.2351948 -0.249357 1.0965281
-0.26984021 -0.27364871 1.141492
-0.27400339 -0.27676541 1.13525
-0.01605531 -0.28895849 0.2384547
-0.21202239 -0.2198627 1.2707061
-0.05532233 -0.28198341 1.0485229
-0.027839281 -0.30216131 0.96194679
-0.01779931 -0.1723336 0.25394899
-0.25169471 -0.26051089 1.138581
-0.2255967 -0.25228721 1.111135
-0.1329392 -0.2143387 1.399459
-0.084944487 -0.2211047 1.242234
-0.2337331 -0.26579401 1.083066
-0.05379916 -0.13913549 0.2578443
0.1783696 -0.318477 0.64765412
0.089989923 -0.29612529 1.007184
0.1696505 -0.30568251 0.83407652
-0.0046672728 -0.2246124 1.451678
0.18627851 -0.19206379 0.88085461
0.2033938 -0.2063991 0.90579122
0.1659825 -0.30087781 0.7997092
0.2704404 -0.1868283 1.103869
-0.067767479 -0.19551849 0.242019
0.3506076 -0.2373988 0.86845142
-0.044324651 -0.30098909 0.93978459
0.55964279 -0.27236769 0.82558739
0.66179031 -0.29921871 0.69513679
0.6154117 -0.31250399 0.65615201
0.65932178 -0.28060859 0.77604872
0.71108937 -0.26664251 1.074819
0.57466602 -0.2782982 0.82415879
0.47222349 -0.27719671 0.69186431
0.55922079 -0.28374681 0.84331989
0.74488848 -0.31681111 1.1335109
0.4586308 -0.31878889 0.71610302
0.44838601 -0.31771511 0.71823353
0.31698069 -0.23896471 1.0847811
0.40974981 -0.2284658 1.066386
0.39128271 -0.26442161 1.076241
-0.05701473 -0.26671651 1.007622
0.0073279892 -0.2618044 1.057496
0.1213951 -0.31629279 0.77519077
0.068906799 -0.27951419 0.90273452
0.25411719 -0.2222164 1.025479
0.03012223 -0.2860752 1.1200351
0.3809053 -0.25611311 1.054427
0.34631431 -0.25727791 0.91691607
0.1031279 -0.28207561 0.82464647
0.0038018341 -0.25248829 0.92499048
0.33846921 -0.27030361 0.94939792
0.3007609 -0.2211407 1.160766
0.36712801 -0.23143139 0.86896372
0.45062399 -0.2364445 1.037171
0.36318469 -0.2492457 0.83406442
0.3215498 -0.2504535 1.0109071
-0.1086126 -0.31059599 1.115279
-0.08781112 -0.27042669 0.96041399
-0.20464671 -0.26897389 1.018837
-0.072678886 -0.29341441 0.91680223
-0.21221121 -0.25232351 1.234027
-0.1738406 -0.31741509 0.83763778
-0.21670391 -0.27691889 1.161451
-0.2117748 -0.25960749 1.028152
-0.038255218 -0.2737436 0.2322444
-0.04678512 -0.29816169 0.23380481
-0.060271829 -0.30196741 0.2449076
-0.055585589 -0.31312421 0.23618869
-0.036622912 -0.28247079 0.232126
-0.046793871 -0.26848131 0.23487569
-0.082352467 -0.296473 0.86051291
-0.019168859 -0.1811015 0.27312651
-0.1829793 -0.2284217 0.96790808
-0.051621161 -0.1371709 0.25361821
-0.045509432 -0.31426141 0.2352116
-0.034084499 -0.2064568 0.2272799
-0.033960149 -0.1607466 0.26900041
-0.1237264 -0.31707469 1.036623
-0.1463196 -0.27318111 1.076979
-0.057937451 -0.1640459 0.256001
-0.056769919 -0.16298071 0.25572559
-0.092925742 -0.26236981 0.94545019
-0.040465131 -0.1972231 0.2315688
-0.032444019 -0.19577339 0.2295939
-0.01472753 -0.2926445 0.2426146
-0.01377358 -0.3135477 0.2529802
-0.019059969 -0.242035 0.24519029
-0.01815684 -0.2337999 0.24932329
-0.041349221 -0.2805706 0.2281736
-0.03740551 -0.2151729 0.22533371
-0.044703651 -0.2987344 0.23155139
-0.02088083 -0.31142071 0.24427889
-0.052898418 -0.21961039 0.2300401
-0.02233267 -0.2290785 0.25509459
-0.01756452 -0.29478911 0.2455384
-0.2357496 -0.24404921 1.2798311
-0.245175 -0.31282279 0.89232433
0.076709397 -0.31722069 0.29353771
-0.15227389 -0.2359792 0.97119921
-0.038755011 -0.3165333 0.22751909
-0.03383255 -0.22212081 0.2259015
-0.033330899 -0.26148269 0.22621959
-0.039493959 -0.29146561 0.22696421
-0.050331101 -0.30759111 0.2278159
-0.046526492 -0.1544639 0.24901231
-0.053483378 -0.2159315 0.2262429
-0.071313351 -0.29006591 0.2377549
-0.051861759 -0.3186951 0.22935671
-0.056035191 -0.30346221 0.22663181
-0.04570432 -0.2587935 0.22441261
-0.050170749 -0.1362751 0.26171261
-0.061237339 -0.19850171 0.2290587
-0.070459321 -0.28654811 0.2372435
-0.072983637 -0.29957351 0.2406677
-0.02959262 -0.30629 0.2275978
-0.043827862 -0.13381781 0.25049919
-0.073689222 -0.3069247 0.2445167
0.61653858 -0.314836 0.5081203
0.5849117 -0.31805921 0.49224779
0.56632209 -0.30391869 0.57685977
-0.068610549 -0.2919766 0.2331233
-0.0199765 -0.2634849 0.2273238
-0.02714883 -0.29539171 0.2295
-0.059923381 -0.2110455 0.229197
-0.065886751 -0.21627671 0.2340143
-0.07603617 -0.19154499 0.2589058
-0.046408281 -0.30162489 0.2247797
-0.041645531 -0.13575891 0.24766891
-0.070281819 -0.1913292 0.2390659
-0.05278201 -0.1966131 0.2316931
0.61263418 -0.29125211 0.66035068
-0.040395711 -0.31454739 0.2256055
0.51123309 -0.2886368 0.74528933
-0.065725774 -0.30810419 0.2334675
-0.054829001 -0.2148771 0.22408441
-0.072150707 -0.2413594 0.23945691
-0.069800571 -0.1951585 0.2385578
-0.054137141 -0.1383862 0.2465985
-0.01363519 -0.2345749 0.2265594
-0.053293031 -0.29715601 0.2269848
-0.056760151 -0.29500091 0.2336389
-0.066035151 -0.3163496 0.2336176
