# .PCD v0.7 - Point Cloud Data file format
VERSION 0.7
FIELDS x y z normal_x normal_y normal_z curvature
SIZE 4 4 4 4 4 4 4
TYPE F F F F F F F
COUNT 1 1 1 1 1 1 1
WIDTH 591
HEIGHT 1
VIEWPOINT 0 0 0 1 0 0 0
POINTS 591
DATA ascii
0.32329658 -0.32205302 0.78742337 0.065965034 0.96719241 0.24533118 0.13912757
0.33277962 -0.32342491 0.78421807 -0.10408889 0.88890254 0.44611403 0.15979922
0.12606831 -0.32388327 0.79034156 0.013336081 -0.9996838 -0.021317625 0.14258298
0.14029412 -0.31849048 0.79850715 -0.00041877164 -0.99430758 0.1065471 0.1778007
0.15467419 -0.31460124 0.80522209 0.040438551 -0.95849329 0.28223291 0.18405579
0.32027823 -0.32011321 0.79687464 0.15200192 0.9771437 0.14861232 0.14183335
0.35531032 -0.32470238 0.79529673 0.13608897 0.98502254 0.10588002 0.10786734
0.4025138 -0.323827 0.79506892 0.03491272 -0.98720092 0.15561305 0.054374784
0.42539471 -0.323827 0.79139912 0.47052404 -0.80485094 0.36169332 0.098534383
0.44192821 -0.323827 0.79766399 0.80455953 -0.45369965 0.38319787 0.092271112
0.11696199 -0.31628653 0.80855995 0.11036246 -0.91936868 0.37759942 0.12960353
0.13604936 -0.319637 0.80418271 0.034913719 -0.99738234 0.063320793 0.16086799
0.14398454 -0.31971323 0.80521727 0.0095754471 -0.9954412 0.094895244 0.18045203
0.15302238 -0.32135046 0.81251299 0.014070876 -0.99400371 0.10843784 0.16935608
0.32284266 -0.32003143 0.79944599 0.13395539 0.98627716 0.096505277 0.14053878
0.33818954 -0.32281461 0.80219728 -0.062399346 -0.98824394 -0.13957192 0.12394515
0.38834029 -0.323827 0.80629849 0.028244231 -0.97688794 0.21187799 0.055006582
-0.02123408 -0.323827 0.81708509 -0.020669315 -0.98667824 0.16136573 0.083421595
0.1454123 -0.31959066 0.81916547 0.054704752 -0.99641514 0.064530246 0.16260397
0.15043148 -0.32290977 0.81544417 0.014070876 -0.99400371 0.10843784 0.16935608
0.16754089 -0.31770888 0.82295096 -0.42214444 0.78443414 0.45437557 0.17169935
0.33615431 -0.32063636 0.81803238 0.18470567 0.97922099 0.083726875 0.17626971
0.34545311 -0.32248425 0.81596398 -0.064581357 -0.99750304 -0.028584 0.14037749
0.38868609 -0.323827 0.81896323 0.066942498 -0.96632993 0.24844539 0.10433684
0.3932457 -0.323827 0.81258082 0.089058913 -0.9546743 0.28401667 0.087985143
0.42295188 -0.323827 0.81568837 0.4588142 -0.28370526 0.84202188 0.088358268
0.44366699 -0.323827 0.81824541 0.51577348 -0.27951533 0.80984503 0.081177451
0.45711339 -0.323827 0.81175041 0.53883648 -0.43521336 0.7212798 0.12801605
-0.16918299 -0.3186942 0.83107048 -0.10685926 -0.99325579 0.044991177 0.013333316
-0.13742809 -0.32596788 0.8284114 0.057268467 -0.99829543 -0.011250917 0.018297123
0.1045424 -0.32433003 0.82923943 -0.0013496643 -0.99833542 -0.057659313 0.078676499
0.16405079 -0.32440716 0.8218686 0.28373367 -0.90178931 -0.3259927 0.15463838
0.1683028 -0.32096484 0.82907516 0.32065031 -0.89010131 -0.32388717 0.15200028
0.33919185 -0.32084879 0.82125461 -0.129342 -0.99139386 -0.020219961 0.14233094
0.35830954 -0.32275331 0.82513458 -0.11511847 -0.99060941 -0.073760584 0.18399346
0.3652381 -0.32326633 0.82987553 0.00048677941 -0.98917824 0.14671759 0.19211799
0.41677734 -0.323827 0.82176137 0.51322043 -0.34687412 0.7850371 0.098688357
0.55964279 -0.323827 0.82558739 0.81021327 0.019102579 0.58582389 0.038536824
0.57466602 -0.323827 0.82415879 0.81021327 0.019102579 0.58582389 0.038536824
-0.17424746 -0.32486066 0.83588642 -0.11921337 -0.9926424 0.021193355 0.015652798
-0.012866571 -0.32344082 0.83458215 0.057607457 -0.9972837 0.04589745 0.086691767
0.068432637 -0.32361078 0.83842015 0.0048639877 -0.99773771 -0.067051835 0.060903691
0.084300458 -0.32387343 0.83767599 -0.075889438 -0.99415767 -0.076755807 0.059216253
0.093451679 -0.32126153 0.82834905 -0.059848703 -0.9910174 -0.11959355 0.06097614
0.11399859 -0.31938496 0.8296842 -0.0016396457 -0.99544972 -0.095273972 0.091076083
0.14274381 -0.31393152 0.83075392 0.14485963 -0.98315275 -0.11147344 0.17179039
0.16609749 -0.31813288 0.8351137 0.3169888 -0.91020876 -0.2665295 0.16776113
0.18531094 -0.31986386 0.83476782 -0.78654402 0.25342315 0.56313866 0.091559835
0.19160809 -0.32828587 0.83593726 -0.80249745 0.32670739 0.49925959 0.075163856
0.35252142 -0.32281023 0.83126312 -0.089349411 -0.99304181 -0.076710507 0.13223161
0.36323345 -0.32320476 0.83408445 0.059050493 -0.99598837 0.067232125 0.18892707
0.40737799 -0.323827 0.83617282 0.24176444 -0.80250764 0.5454644 0.10568824
-0.1285167 -0.323827 0.84246892 0.040412363 -0.99917787 -0.0032416587 0.01447183
-0.081200294 -0.32397687 0.84163713 0.11439856 -0.99340904 0.0071781748 0.088773631
-0.079194769 -0.31261754 0.84594512 0.21474186 -0.9634586 0.16010424 0.10205869
0.052040718 -0.32362476 0.84436238 0.017535252 -0.99622458 -0.085023642 0.060939882
0.092774384 -0.31298557 0.84708935 -0.059151296 -0.99674106 -0.054848168 0.043887038
0.18700512 -0.32158279 0.84594077 -0.80418587 0.37788579 0.45878893 0.093091577
0.27853379 -0.32379916 0.85095191 -0.034256909 -0.99941182 0.0015772076 0.034913141
0.29527014 -0.32073411 0.85317367 -0.11257855 -0.99204874 0.056261461 0.037970897
0.34403268 -0.32259744 0.84277678 -0.11291387 -0.99359256 -0.0049312823 0.10944767
0.37385961 -0.323827 0.8460418 0.081872314 -0.98748326 0.13481012 0.098945014
0.55922079 -0.323827 0.84331989 0.81021327 0.019102579 0.58582389 0.038536824
0.02637835 -0.3243244 0.85949987 -0.094589904 -0.99512613 0.027868915 0.086971916
0.095455647 -0.31800842 0.85558194 -0.091942862 -0.99263293 -0.078907147 0.038255613
0.28573087 -0.32464162 0.85009134 -0.1956421 -0.97945505 0.048907693 0.032507911
0.325084 -0.32017961 0.85992783 -0.018696237 -0.99684232 0.077174075 0.074677378
0.35819781 -0.323827 0.85698408 0.011894334 -0.9939782 0.10893082 0.059676901
-0.08288981 -0.31928828 0.86210126 0.17418976 -0.9812898 0.082026102 0.09358111
-0.054117363 -0.32336915 0.86895901 0.12469194 -0.99215621 0.0088349879 0.092547841
-0.036380481 -0.32354847 0.87238723 0.098747902 -0.99506485 0.0097440258 0.10550055
-0.0050135525 -0.31513426 0.86747861 -0.035389535 -0.99809211 0.050593745 0.1110432
0.18395784 -0.32158184 0.86057442 0.81012976 -0.4629626 -0.35966027 0.086383358
0.19537178 -0.32310808 0.8657338 0.86608446 -0.37641275 -0.32895473 0.091499999
0.32801509 -0.32187447 0.86548537 -0.02074792 -0.99625355 0.08395499 0.083526455
0.35003689 -0.31953925 0.86765325 -0.060117178 -0.99436659 0.087298259 0.080223262
0.36463642 -0.3156352 0.86623192 0.28170094 -0.93992484 0.19283631 0.11849762
-0.2174527 -0.323827 0.87050033 -0.63097799 -0.21908714 -0.74422282 0.0014275803
-0.094089486 -0.32072026 0.87404901 0.1492058 -0.98866242 0.01685993 0.079020776
-0.08031451 -0.32022196 0.87443626 0.15219797 -0.9879595 0.027781159 0.075381286
-0.01822581 -0.32347965 0.87789536 0.040954355 -0.99913746 -0.0068716374 0.091858812
-0.0024640555 -0.31650072 0.88109243 -0.056016795 -0.99806112 -0.027131436 0.12655395
0.00031054256 -0.31627104 0.88103414 -0.094828695 -0.99375224 -0.058855686 0.12729478
0.015268224 -0.31688735 0.88271362 -0.11310139 -0.99358189 0.0017854342 0.12385537
0.16791368 -0.31816813 0.87332439 0.26491952 -0.95162803 -0.15563311 0.10485547
0.31700268 -0.32055309 0.87115967 -0.055154424 -0.99670631 0.059451949 0.055552054
0.3595351 -0.31970617 0.87522107 0.073251247 -0.98598564 0.14988832 0.096272841
-0.1162798 -0.32334825 0.88777536 0.20188221 -0.97925794 -0.017248858 0.059975151
-0.0967189 -0.32009372 0.88351625 0.15526552 -0.98786944 0.0025764788 0.064944379
-0.03492301 -0.32110652 0.88630366 0.096618913 -0.99531621 -0.0032457372 0.095888324
-0.00356352 -0.31764171 0.88694257 -0.059475929 -0.99682081 -0.053018 0.10953781
0.0088645527 -0.31852275 0.8896606 -0.11225437 -0.99254626 -0.047443938 0.12109074
0.057513949 -0.32151106 0.88449329 -0.080574304 -0.99475366 -0.063031949 0.079335615
0.076557145 -0.32147735 0.88230723 -0.03582368 -0.99470276 -0.096348517 0.058296401
0.18631123 -0.32277346 0.88090122 0.64007413 -0.72774088 -0.24637023 0.11842919
0.1998979 -0.32325324 0.88992369 0.69502115 -0.62676442 -0.35229531 0.11233347
0.20731091 -0.32381734 0.88720882 0.25240457 -0.94408572 -0.21211807 0.1297974
0.21082962 -0.32388511 0.88052648 0.2749857 -0.9377532 -0.21213628 0.13823207
-0.245175 -0.323827 0.89232433 0.61856139 -0.00031293253 0.7857365 0
0.010978063 -0.3207044 0.89713877 -0.10446249 -0.98808777 -0.11300503 0.11248034
0.022255547 -0.32047558 0.8917228 -0.082990229 -0.99360466 -0.076566383 0.11209486
0.045396954 -0.32184386 0.89638865 -0.077374302 -0.99101555 -0.10909393 0.074085206
0.062946372 -0.32205081 0.89091301 -0.077724084 -0.99666834 -0.024719952 0.067203574
0.093144514 -0.31393489 0.89403462 0.11656363 -0.9922719 0.042535778 0.086300157
0.1476057 -0.323827 0.89941418 0.0096235676 -0.998469 0.054469861 0.069154479
0.18576235 -0.3233858 0.89443386 0.24175081 -0.95818245 -0.15311056 0.11254904
-0.12003362 -0.32217425 0.90640354 -0.40659881 0.90886635 -0.092948571 0.088315368
-0.088887051 -0.31894609 0.90795785 0.11115333 -0.99211937 0.057828236 0.11398414
-0.072010495 -0.31931642 0.9076609 0.032211859 -0.99947757 -0.0026615423 0.099580802
0.018057445 -0.31879589 0.90456223 -0.11080927 -0.99187034 -0.062566832 0.11207213
0.041790001 -0.32135576 0.90687132 -0.027699925 -0.99753588 -0.06445913 0.075462908
0.04984881 -0.32028311 0.90904456 -0.037827633 -0.99702471 -0.067163333 0.071714789
0.069058642 -0.32099697 0.9024803 -0.011585305 -0.99980009 -0.016295064 0.057142973
0.1516684 -0.323827 0.90729731 0.0072155907 -0.99864084 0.051618535 0.090902813
0.2033938 -0.323827 0.90579122 0.17543085 -0.97491765 -0.1369656 0.10337999
0.33744764 -0.32183647 0.90494633 0.47346196 -0.85423332 0.2147539 0.097286269
-0.11353867 -0.31974435 0.9156484 0.23468044 -0.95897007 0.15906414 0.13009514
-0.071951441 -0.31614283 0.92029202 0.00089306611 -0.99810773 0.061483264 0.10188025
-0.0015082458 -0.3218058 0.915281 -0.08489535 -0.9928627 -0.083764873 0.12407225
0.013198663 -0.31878251 0.91474205 -0.12799947 -0.98256069 -0.13487305 0.11630684
0.1438785 -0.323827 0.91519201 -0.045230266 -0.98631644 0.15853725 0.10222927
0.18579689 -0.31951982 0.91549999 -0.0446846 -0.99891323 -0.013252475 0.1043487
0.32227623 -0.31461987 0.91769129 0.49860898 -0.83882731 0.21853562 0.0989675
0.32360628 -0.31570232 0.91744918 0.49860898 -0.83882731 0.21853562 0.0989675
0.34656855 -0.32219055 0.91715604 0.79351074 -0.50662816 0.33714795 0.10816215
-0.073357038 -0.31620985 0.92516148 -0.021180129 -0.99928433 0.031340867 0.10998541
-0.035678215 -0.317996 0.91955513 0.12140986 -0.98985529 -0.073798135 0.1101495
0.0038425166 -0.32283124 0.92500889 -0.061456885 -0.99599862 -0.064882591 0.11894268
0.02105643 -0.31819659 0.91962177 -0.10741752 -0.9922682 -0.062171724 0.10288097
0.048995782 -0.31517276 0.91858208 -0.061368916 -0.99335742 -0.097338602 0.07889159
0.068969868 -0.31873164 0.91945171 0.10236792 -0.99472433 -0.0066617993 0.077630371
0.099056914 -0.31768268 0.92302781 0.16507207 -0.98484415 0.053227212 0.12073687
0.1282635 -0.323827 0.92836303 -0.057233635 -0.99099618 0.12104093 0.12101848
0.20591998 -0.32330212 0.92042375 0.16152294 -0.97584689 -0.1470823 0.095665202
0.31682497 -0.31411073 0.92618001 0.38933024 -0.90088278 0.19191699 0.10937705
0.3275938 -0.31916127 0.92379999 0.35826916 -0.9163993 0.17848122 0.12608556
-0.12326892 -0.31806263 0.93310696 0.28306884 -0.9372912 0.20336501 0.13089222
-0.11692873 -0.32029554 0.93168497 0.19849904 -0.96694505 0.16004774 0.13626455
-0.089968383 -0.31872928 0.9398737 0.049239211 -0.99834698 0.029643327 0.11598223
-0.086325318 -0.31715235 0.93202281 0.054004673 -0.99564689 0.075965948 0.11399138
-0.044590991 -0.32011333 0.93970084 0.010454968 -0.99991882 0.0072851847 0.11078038
0.12543491 -0.323827 0.93591523 -0.023129787 -0.99285734 0.117044 0.1309173
0.24001673 -0.3246173 0.93909854 0.02343172 -0.99871057 -0.045034543 0.043347485
0.32206172 -0.31754863 0.93458819 0.47908181 -0.85804766 0.18502671 0.13720457
0.33608088 -0.32192203 0.93581969 0.21346609 -0.97673595 0.020473367 0.14718775
0.34670678 -0.32498062 0.93841344 -0.029271368 -0.99763393 -0.062206868 0.14210859
-0.10226573 -0.31895745 0.94457209 0.047920998 -0.99880123 0.0099839969 0.11989339
-0.093216546 -0.3186399 0.94681507 -0.00027505372 -0.9999131 0.013177352 0.1295267
0.088941894 -0.32022488 0.94881493 0.18616693 -0.97971684 0.074139215 0.1066684
0.090998434 -0.32052743 0.9494046 0.18616693 -0.97971684 0.074139215 0.1066684
0.10297927 -0.32017523 0.94302309 0.042879295 -0.99168909 0.12130196 0.12462802
0.12956579 -0.31959665 0.94448262 -0.082275733 -0.99573666 0.041701742 0.16348775
0.14421076 -0.31987438 0.94804883 0.20549825 0.97195393 0.11435073 0.13287517
0.18159439 -0.32272032 0.94897842 -0.055428233 -0.99659359 0.061064374 0.089378223
0.23699749 -0.32026899 0.94309217 0.035451613 -0.99665093 -0.073689312 0.048467491
0.25543499 -0.32308787 0.94643784 0.041798275 -0.99880731 -0.02523642 0.038301796
0.30212986 -0.31588599 0.94637829 0.27351418 -0.96143597 0.028823907 0.16754445
0.31700447 -0.31918633 0.94686943 0.23190594 -0.96740687 -0.10170291 0.16282259
0.32305557 -0.31970081 0.94745165 0.19335558 -0.96458852 -0.17939541 0.16259183
0.33888385 -0.3213715 0.94917572 -0.045506019 0.96949822 0.24083695 0.14177103
-0.099316821 -0.31874257 0.95958787 0.019545779 -0.99972057 0.013297874 0.13946196
-0.035701983 -0.31743228 0.95629668 -0.006295661 -0.9992668 -0.037766315 0.15331616
-0.0079998104 -0.32090026 0.95133358 -0.028631873 -0.99098295 -0.13089278 0.11853582
0.019088071 -0.323827 0.95468581 -0.0086379312 -0.9988814 -0.046489023 0.12615298
0.11491901 -0.3211531 0.95193028 0.004555265 -0.99732447 0.072959617 0.1361047
0.12712605 -0.31967553 0.9485665 -0.060293309 -0.99802572 0.01759317 0.15928927
0.29036582 -0.31666914 0.95413214 0.078140438 -0.99429888 -0.072552517 0.11332105
0.31230614 -0.31773961 0.95132154 0.20031959 -0.96190751 -0.18602705 0.15675634
-0.18296511 -0.32326862 0.96789753 0.47818324 0.50694621 0.71717942 0.10070709
-0.15361746 -0.32312465 0.96162057 0.039589901 -0.99909532 0.015531475 0.028220477
-0.10515296 -0.31878465 0.9624365 0.096869521 -0.99475002 -0.032995645 0.12148604
-0.087213561 -0.32167834 0.96055073 0.055751499 -0.99683172 -0.056728814 0.12342782
-0.0441598 -0.32030207 0.96697551 -0.058172803 -0.99520445 -0.078638695 0.16032396
-0.025113247 -0.31785691 0.96446431 0.012353899 -0.99721062 -0.073608741 0.1439538
3.1523268e-06 -0.32218888 0.96384758 -0.0026471382 -0.99792928 -0.064266898 0.13078143
0.0076917042 -0.323827 0.9601562 0.087399684 -0.99616671 0.0036200772 0.12494275
0.072361603 -0.31862992 0.96483952 0.17508651 -0.98450875 0.0093420865 0.089467861
0.11027158 -0.32170796 0.96754408 -0.012418905 -0.99964035 0.023767488 0.15749779
0.1412219 -0.323827 0.96211141 0.32114068 0.8846373 0.33806124 0.14885241
0.27581212 -0.31955308 0.96388465 0.041129254 -0.99337369 -0.10731856 0.067211524
0.29185286 -0.31631356 0.96908563 0.031108785 -0.99405485 -0.10434196 0.073917657
-0.21849832 -0.3207601 0.97905046 0.62818158 0.24853462 0.73730475 0.17750582
-0.15397391 -0.32239479 0.97256541 0.074466601 -0.99661183 0.034922153 0.03766679
-0.10042473 -0.32203251 0.97578984 0.073042318 -0.99706441 -0.022963986 0.12787409
-0.063295983 -0.32628271 0.97929746 -0.0066084121 -0.99701285 -0.076953799 0.14052822
-0.052652344 -0.32289574 0.97053987 -0.030338112 -0.99733377 -0.066369273 0.1482437
0.02278341 -0.323827 0.97158313 0.020670149 -0.99978465 0.0018458971 0.12047561
0.1147368 -0.31747246 0.97259241 0.34823728 0.84037262 0.41533694 0.17619582
0.2104032 -0.32295427 0.9722054 0.074707314 -0.98885745 -0.12876211 0.050772108
0.32807031 -0.31864035 0.96940076 -0.080380641 0.96689528 0.24218273 0.10012546
0.3844496 -0.323827 0.97260457 0.40722552 -0.82635182 -0.38898596 0.1217979
0.41753939 -0.323827 0.97280651 0.20577066 -0.96644175 -0.15378205 0.15375108
-0.21006033 -0.32269177 0.98597795 0.60638392 0.20853807 0.76733977 0.16269739
-0.20314045 -0.32316983 0.9815653 0.56089807 0.16909374 0.81043237 0.17291556
-0.17461543 -0.32324544 0.98850524 -0.16460161 -0.96381992 -0.20966068 0.12225212
-0.10253401 -0.31544062 0.98781866 0.042704172 -0.99663991 -0.069893971 0.12681372
-0.027442805 -0.32331032 0.98230016 0.0078866817 -0.9934178 -0.1142754 0.14568143
0.0068553523 -0.32341561 0.98375076 0.16382606 -0.98200566 -0.093946569 0.15261871
0.047367886 -0.32253087 0.98716187 0.095075428 -0.9954685 0.0017611856 0.07028307
0.30374739 -0.31994215 0.98257697 0.061246693 -0.99237621 -0.10695013 0.068438128
-0.22069918 -0.32204467 0.99290371 0.71914196 0.28747386 0.63260853 0.16013817
-0.16249128 -0.3222737 0.99188757 -0.084309578 -0.99480319 -0.057083182 0.067302309
-0.040210132 -0.32437167 0.99498492 -0.018339515 -0.99728668 -0.071294941 0.11709437
0.0099896295 -0.32410267 0.99393946 -0.11441951 0.9839552 0.13689536 0.11645467
0.026511533 -0.32252896 0.99499321 0.078768566 -0.99687642 -0.0057457262 0.12397413
0.061650828 -0.32010701 0.99428612 0.12443023 -0.9914766 -0.038617648 0.087473832
0.087983951 -0.31843194 0.99146968 0.12929133 -0.98825043 -0.081515566 0.12603757
0.10174397 -0.32383233 0.99450797 0.17878933 -0.98354411 -0.025986653 0.11865716
0.22713041 -0.32314175 0.99831599 0.026192082 -0.99570096 -0.088845886 0.027858892
0.29086086 -0.32134175 0.9976514 0.047623854 -0.99781698 -0.045752492 0.085690334
0.38363236 -0.32353961 0.99866033 0.25155327 -0.94612294 -0.20389314 0.095842101
0.39937708 -0.3236618 0.99534929 0.25197566 -0.92808694 -0.27415866 0.11675788
-0.25261816 -0.31974056 1.005087 -0.87931418 -0.1553718 -0.45018461 0.18066737
-0.057040907 -0.32524258 1.0077094 -0.1166058 -0.99234843 -0.040591411 0.12461411
-0.022536378 -0.32416007 1.0052679 -0.1283399 -0.97821409 -0.16317509 0.11363714
0.036088437 -0.32138634 1.0016899 -0.085762508 0.98835647 0.12568305 0.10454808
0.088976763 -0.32377434 1.0017333 0.16256578 -0.98668039 0.0058530853 0.10654584
0.1026969 -0.31992742 0.99261278 -0.05105501 0.986911 0.15297063 0.13041042
0.2429938 -0.31616724 1.008608 0.02502659 -0.998483 0.049044695 0.12199499
0.36477703 -0.32360643 1.0034128 -0.3377111 -0.92073649 0.19543724 0.17009224
-0.22043605 -0.31894857 1.0132524 -0.82283038 -0.27600077 -0.49676338 0.14410871
-0.20474997 -0.32269233 1.0188122 -0.79855806 -0.31410554 -0.51346165 0.14326605
-0.097618908 -0.32135639 1.012074 0.0097764265 -0.99990952 -0.0092343036 0.11350933
-0.081902601 -0.32161164 1.0165899 -0.049872391 -0.99606466 -0.07326524 0.13190287
-0.058804955 -0.32415649 1.0141732 -0.11892095 -0.99194068 -0.043720938 0.1314747
0.056800727 -0.31929973 1.0119108 0.12718773 -0.99166244 -0.020707475 0.085266188
0.3215498 -0.323827 1.0109071 0.0024224822 -0.99628812 -0.086047076 0.082524523
0.35741669 -0.32340369 1.0195851 -0.056092493 -0.99707824 -0.051850233 0.17891185
0.36938879 -0.32337582 1.0165035 -0.3128652 -0.87171406 0.37713382 0.26640755
0.38524547 -0.32350194 1.0198953 0.76461959 0.54304254 -0.34707606 0.27444679
0.41403541 -0.323827 1.014303 0.034788053 -0.98893577 -0.14420739 0.075595737
-0.21184176 -0.32291263 1.0281245 -0.87347019 -0.35030341 -0.33813816 0.14444597
-0.052423839 -0.32236862 1.0267073 -0.091615707 -0.99579185 0.0022916307 0.11086415
0.0075217169 -0.32408759 1.0276827 0.10338242 -0.96668768 0.23415139 0.081987515
0.25329283 -0.32104987 1.0266358 -0.086581483 -0.9959892 -0.022563472 0.12174206
0.27044183 -0.32401404 1.0283509 0.15138096 0.98594218 0.070723653 0.10033587
0.34612715 -0.32351431 1.02435 -0.013555148 0.98550349 0.16911264 0.14568754
0.36845344 -0.32344872 1.0299183 0.46706715 -0.83894169 0.27932966 0.27077967
-0.22069886 -0.32353756 1.0372053 -0.90361285 -0.29924187 -0.30649328 0.13027492
-0.18964374 -0.32037401 1.0387334 -0.17041843 -0.98305398 -0.067546383 0.12077943
-0.12271057 -0.32053173 1.0371587 0.064144976 -0.99732476 -0.035055108 0.054078598
0.2330903 -0.323827 1.034853 -0.032025848 -0.9980951 -0.052730758 0.016060054
0.25168118 -0.32404691 1.0336652 -0.095526949 -0.99490684 -0.032171514 0.12778251
0.34162897 -0.32370403 1.0315684 -0.029411525 0.98861903 0.14753756 0.16560639
0.45062399 -0.323827 1.037171 0.0090292655 -0.99464977 0.10290908 0.077891059
-0.071229078 -0.32010806 1.0449507 -0.051217534 -0.99770314 -0.044329982 0.12587391
-0.061337885 -0.32884687 1.0455087 0.017879017 -0.9996587 0.019048955 0.1023787
0.065792494 -0.32362163 1.0398977 -0.16880326 0.97798181 0.12270764 0.0950654
0.26893711 -0.32412064 1.0427814 -0.17739299 -0.98385936 -0.023503156 0.11015218
0.30336457 -0.32366842 1.0472709 -0.067128256 -0.99766618 -0.012492999 0.050083384
0.38527897 -0.3234413 1.044162 0.15605438 -0.9583776 0.23908034 0.24011166
0.39349389 -0.32352889 1.0443962 -0.10822825 -0.95613897 0.2721855 0.21632832
0.4818652 -0.323827 1.046946 -7.0616315e-06 -1 -4.5098324e-05 5.4758934e-06
-0.2415459 -0.323827 1.053713 -0.98878956 -0.092756376 -0.11701068 0.10355256
-0.07592243 -0.32029212 1.0619506 0.11617734 -0.99309069 0.016545521 0.097740248
0.27372527 -0.32414299 1.0561885 0.1671987 0.98454565 0.052100446 0.1355008
0.29778692 -0.32398394 1.0588726 -0.064576812 -0.99791241 -0.00086157495 0.067593463
0.30685744 -0.32383567 1.0598541 0.025776392 -0.9967289 0.076596074 0.042143401
0.38091138 -0.32353351 1.0544338 0.28761917 -0.92410529 0.25160405 0.20701131
0.46783081 -0.323827 1.052393 -0.12708429 -0.95003867 0.28508988 0.16825466
-0.12750505 -0.32394448 1.0675545 0.013927465 -0.99988472 -0.0060543721 0.007796823
0.078559831 -0.323827 1.068656 0.015430029 -0.999403 -0.030914037 0.031007586
0.37829569 -0.323827 1.062454 0.29935291 -0.92210978 0.24515599 0.19169678
0.40974981 -0.323827 1.066386 -0.018838972 -0.88589811 0.46349722 0.19289447
-0.24799059 -0.323827 1.0764 -0.96975601 -0.23268598 0.073692188 0.12964401
-0.23439039 -0.323827 1.0701261 -0.99612898 -0.036421467 -0.080003023 0.1110232
-0.1463196 -0.323827 1.076979 0.024525622 -0.99944115 -0.022713926 0.0051109013
0.28642944 -0.32415611 1.0795939 0.0099007823 -0.99760222 0.068495877 0.052123819
0.36792439 -0.323827 1.07269 0.32494512 -0.91892648 0.22357295 0.14808057
0.39128271 -0.323827 1.076241 0.43734387 -0.84126091 0.31782144 0.18218872
0.41893741 -0.323827 1.071714 0.13608514 -0.89287567 0.42924806 0.18784955
-0.2337331 -0.323827 1.083066 -0.96693975 -0.12738612 -0.22090805 0.10498574
0.29022926 -0.32404011 1.0876882 -0.0027401259 -0.99684477 0.079328023 0.052876297
0.31698069 -0.323827 1.0847811 0.035782609 -0.99333549 0.10956352 0.059316728
0.34955251 -0.323827 1.087253 0.26362443 -0.92853349 0.26139584 0.10414744
-0.2351948 -0.323827 1.0965281 -0.97112393 -0.077944838 -0.22548386 0.11783797
-0.2253686 -0.323827 1.090028 -0.97514051 -0.085953392 -0.20423763 0.10066027
-0.093726173 -0.32546344 1.0948801 0.16799483 -0.985313 0.030593796 0.041226041
0.29184231 -0.323827 1.097995 0.011776883 -0.99666762 0.080715053 0.07508973
0.34559134 -0.3228128 1.095589 0.22916627 -0.92505336 0.30291751 0.12619783
0.358098 -0.323827 1.096397 0.20566769 -0.95558053 0.21110778 0.1151187
-0.210104 -0.323827 1.103056 0.80889738 -0.051401481 0.58569866 0.21634075
0.2704404 -0.323827 1.103869 0.10101047 -0.99475336 0.016207729 0.067996345
0.31150979 -0.323827 1.107913 0.10906179 -0.99143481 0.071850777 0.11677579
0.35073611 -0.32328582 1.1012988 0.17110981 -0.95929903 0.22464818 0.09496285
0.40193611 -0.323827 1.10694 0.47935382 -0.45493206 0.75050437 0.16007125
0.4291814 -0.323827 1.102895 0.25501698 -0.60004389 0.75823069 0.12713774
-0.2255967 -0.323827 1.111135 -0.95434386 -0.05280675 0.29400542 0.053205676
-0.1052846 -0.3222973 1.1172892 0.11951323 -0.99283212 0.00092991249 0.012344771
0.28640729 -0.323827 1.111333 0.013213795 -0.99595326 0.088896386 0.096082062
0.30055511 -0.323827 1.11375 0.10906179 -0.99143481 0.071850777 0.11677579
0.34261382 -0.31868476 1.1136534 0.1899571 -0.93781352 0.29055443 0.14238809
0.03012223 -0.323827 1.1200351 0.024923325 -0.99937963 -0.024883395 0.0022639395
0.2760191 -0.323827 1.12085 0.073419131 -0.99581045 0.054508816 0.10659006
0.28820661 -0.323827 1.122324 0.013441036 -0.9958179 0.090365589 0.10716131
0.33406898 -0.31654492 1.1198001 0.026451044 -0.99022377 0.13695724 0.1095353
0.34049556 -0.31512481 1.1204214 0.2126815 -0.82890671 0.51737815 0.14532727
0.020209869 -0.323827 1.1386 0 -1 0 0
-0.12003971 -0.32595363 1.1383579 0.062752351 -0.99765593 0.027290862 0.022244206
-0.01444112 -0.323827 1.161422 0 -1 0 0
0.01246617 -0.323827 1.167984 0 -1 0 0
-0.066279508 -0.31010771 1.0487782 -0.097218789 -0.99152648 -0.086160868 0.11639036
-0.12285892 -0.31813568 0.93296969 0.21996816 -0.96241385 0.15929121 0.13359141
-0.16134341 -0.32206416 0.99244213 -0.052025646 -0.99612892 -0.070855126 0.054735031
-0.18891448 -0.32022962 1.0394013 -0.17041843 -0.98305398 -0.067546383 0.12077943
0.16955966 -0.28883424 0.87529469 -0.13501905 -0.99080294 0.0089096325 0.19675599
0.19357486 -0.29164457 0.91807485 0.19609188 0.94269001 0.26996952 0.14821
0.064836569 -0.30436322 1.040273 -0.080436543 0.95803595 0.27513111 0.14811371
0.36948761 -0.32339138 1.0192056 -0.046450336 -0.99401164 0.098910004 0.28039199
0.18155248 -0.32271826 0.94908011 -0.055428233 -0.99659359 0.061064374 0.089378223
0.10452693 -0.30353466 0.99188662 0.63860548 0.43775198 0.63289511 0.14167997
-0.018302795 -0.23515816 0.26542103 0.53340542 0.055175375 -0.84405828 0.12562674
-0.019610854 -0.19847274 0.26585534 0.83665037 0.12560971 -0.53314012 0.088130325
-0.078254439 -0.31667212 1.0604788 0.06639269 0.98522466 0.15787449 0.12546553
-0.082424343 -0.32125393 1.0175227 -0.10201942 -0.99388701 -0.042199541 0.11859285
-0.095947541 -0.32118034 0.87237573 0.1492058 -0.98866242 0.01685993 0.079020776
-0.12750487 -0.32394454 1.0675547 0.013927465 -0.99988472 -0.0060543721 0.007796823
-0.12034226 -0.32228222 0.90609574 -0.40659881 0.90886635 -0.092948571 0.088315368
-0.1285167 -0.33045471 0.84246892 0.040412363 -0.99917787 -0.0032416587 0.01447183
-0.048358973 -0.30747512 0.2916511 -0.9948203 -0.021220207 0.099409908 0.23215969
-0.096624956 -0.32352808 0.88295287 0.14636646 -0.98922968 -0.0012239713 0.068687677
-0.1401737 -0.3244186 0.78080732 -0.20203362 -0.97699106 0.06834399 0.02374311
-0.023161396 -0.25377044 0.27439436 0.90073359 -0.02544071 -0.43362638 0.12031787
-0.17486696 -0.32327697 0.98812038 -0.16460161 -0.96381992 -0.20966068 0.12225212
-0.17230511 -0.3300676 0.75208062 -0.14301145 -0.96567625 0.21683441 0.024872951
-0.14608139 -0.32599947 0.76475012 -0.20203362 -0.97699106 0.06834399 0.02374311
0.27370149 -0.32414335 1.0562085 0.1671987 0.98454565 0.052100446 0.1355008
0.099738367 -0.29339042 0.99267095 0.62599462 0.36469227 0.68929696 0.14039201
0.078559831 -0.31549251 1.068656 0.15122217 0.9813028 0.11906532 0.060174149
-0.022555191 -0.32419962 1.005621 -0.1283399 -0.97821409 -0.16317509 0.11363714
-0.041682117 -0.32460415 0.99511373 0.00083668297 -0.99870986 -0.050773405 0.11013663
-0.02952631 -0.10295291 0.31456506 -0.94950527 -0.00041905683 0.31375074 0.03464371
-0.052080177 -0.32250065 1.026028 -0.087166265 -0.99459046 0.056497537 0.11998059
-0.063835047 -0.32601467 0.97966516 -0.0066084121 -0.99701285 -0.076953799 0.14052822
-0.035269033 -0.18509305 0.26436415 0.766092 0.092674896 -0.6360144 0.082131043
-0.018504534 -0.19006428 0.26607805 0.81532639 0.12873261 -0.56450939 0.086875252
-0.03296198 -0.12210831 0.27930385 0.91230845 -0.061200153 -0.40490457 0.053523548
-0.031611197 -0.12493312 0.27650931 0.89785653 -0.10877182 -0.42664069 0.065006338
-0.057013415 -0.2712341 0.27744073 -0.97482449 0.083266228 0.2068428 0.14783211
-0.031458057 -0.1246798 0.28308252 0.90674871 -0.074596561 -0.41502064 0.055242985
-0.056295719 -0.25868231 0.27512541 -0.94237483 0.0070075407 0.33448559 0.12076411
-0.151454 -0.30681881 0.2663357 0.2968201 0.024074858 -0.9546299 0.03849443
0.61445725 -0.31140742 0.64947647 0.25181672 -0.92982417 -0.26835692 0.15218517
0.60257745 -0.27870464 0.62514317 0.29370496 -0.9107371 -0.29033652 0.11491588
-0.045940008 -0.18557537 0.26716051 0.78549033 0.075565927 -0.61424321 0.086582914
-0.033009056 -0.13712415 0.27110764 0.89420295 -0.069958813 -0.44216162 0.079079382
-0.04487608 -0.28845295 0.31046492 0.87166959 0.057757474 -0.48667881 0.23595783
0.63454527 -0.30591351 0.5310207 0.10937018 0.96278518 -0.24714962 0.096074671
0.66490364 -0.31439143 0.55916423 0.45895472 0.87919462 -0.12797461 0.095168218
-0.066417828 -0.19500712 0.26275602 0.83808196 0.067083262 -0.54140413 0.0961233
-0.056423612 -0.26242632 0.27576843 -0.96545011 -0.0056408844 0.26052701 0.12322706
-0.060508437 -0.16167882 0.29529038 0.82359374 -0.066712663 -0.56324309 0.059364658
-0.031799935 -0.11667769 0.27723846 0.92272389 -0.034529828 -0.38391179 0.044822086
-0.030642401 -0.12564981 0.28916892 0.91786194 -0.046919379 -0.39411679 0.051296357
-0.060482621 -0.26067391 0.29395488 -0.91719228 0.068955265 0.39243293 0.14847538
-0.040342622 -0.12907295 0.25797549 -0.94144416 0.13629244 0.30839455 0.07109651
-0.050622638 -0.27066734 0.28678128 -0.96590644 0.12905459 0.22443196 0.15134722
-0.1970588 -0.30892441 0.25004169 0.2968201 0.024074858 -0.9546299 0.03849443
-0.030702511 -0.095048562 0.28521246 0.9350301 -0.015647506 -0.35422295 0.030228792
-0.18588254 -0.31306833 0.25891662 0.2968201 0.024074858 -0.9546299 0.03849443
-0.040361583 -0.16405591 0.26352808 0.73721343 0.11256928 -0.66621649 0.074650332
0.38550219 -0.31387681 0.50551748 0.52647883 0.00015437145 -0.85018826 0
0.37075299 -0.31284961 0.4963899 0.52647883 0.00015437145 -0.85018826 0
-0.05349265 -0.31155437 0.23086606 0.62033272 -0.39673555 -0.67660058 0.26731265
-0.049725778 -0.27705315 0.28684646 -0.97033989 0.20722736 0.12448785 0.16207671
-0.043576743 -0.31066293 0.33337003 0.83973861 0.29082173 -0.45854306 0.19372547
-0.060803898 -0.24840258 0.29164946 0.87971705 -0.091229551 -0.46666378 0.1370144
-0.038072672 -0.31642693 0.22549139 0.14270321 -0.45555741 -0.878694 0.26278049
-0.027288916 -0.099984095 0.30317304 0.94343585 0.0015657238 -0.3315514 0.029696956
0.64171815 -0.31602484 0.52438277 -0.050942272 -0.99123842 0.12186568 0.094300829
-0.058064304 -0.30059358 0.2739909 -0.9901942 0.13035274 0.050236315 0.21576504
-0.037643414 -0.15763241 0.27428478 0.81256163 0.07162255 -0.57845813 0.074620783
-0.036445156 -0.12660599 0.26575637 0.91309977 -0.14595164 -0.38071898 0.066218384
-0.034231622 -0.16200331 0.27763885 0.79847634 0.087241307 -0.59567153 0.07576406
-0.037459295 -0.10349095 0.26086742 0.92233294 -0.018660262 -0.38594529 0.035909943
-0.039864484 -0.13891315 0.25789866 0.92923421 -0.062239308 -0.36421168 0.081540771
-0.034128442 -0.13426645 0.26885054 0.90593684 -0.098929457 -0.41169351 0.074025288
-0.063111521 -0.29678619 0.24144743 -0.98090148 0.15452504 0.11812834 0.2146492
-0.067190103 -0.27950394 0.26396003 -0.95657492 0.13059424 0.26059461 0.15484047
-0.064834572 -0.19265209 0.26746398 0.82076669 0.061125524 -0.56798398 0.096018255
-0.037644673 -0.15915786 0.25856519 0.76610523 0.10196081 -0.63457608 0.073694833
-0.062957324 -0.29206449 0.2411781 -0.98462903 0.11438176 0.13199392 0.17841932
-0.04186064 -0.13579729 0.2551235 -0.95085466 0.085481472 0.29760429 0.078129806
-0.066076845 -0.20045225 0.26100355 0.84576231 0.041024938 -0.53198028 0.096494399
-0.066186316 -0.29073626 0.26226297 -0.98488665 0.14801453 0.089944705 0.18608756
-0.066702254 -0.30346081 0.26002929 -0.99905849 0.013385244 0.041268315 0.23070966
-0.063615128 -0.30397734 0.24611437 -0.99235415 0.10670236 0.062030956 0.24802931
-0.054715279 -0.21713826 0.23342176 0.3573246 0.078301005 -0.93069232 0.11033744
-0.041071791 -0.12630989 0.25677723 -0.94143945 0.13629162 0.30840948 0.071097232
-0.060373504 -0.21424575 0.23773172 0.42124534 0.073391132 -0.90397239 0.10777314
-0.042902187 -0.155255 0.25383857 0.70785111 0.10431289 -0.69861698 0.071617991
-0.05294871 -0.19494061 0.23727518 0.76708055 0.11417951 -0.63130856 0.085488133
-0.058585264 -0.30629823 0.23872316 -0.98782492 0.14837566 0.046760667 0.24976386
0.57416797 -0.30689135 0.59089559 0.21505414 -0.96892017 -0.12225133 0.13081422
-0.037605423 -0.29045671 0.23181741 0.9133032 -0.18096213 -0.3648698 0.16191515
-0.066194557 -0.29770485 0.26264575 -0.99112302 0.12681064 0.039927371 0.21238807
0.64644533 -0.28175104 0.60094875 0.16321196 0.98631334 0.023408413 0.13440506
0.61459666 -0.2740263 0.59817094 0.073341325 -0.99718541 -0.015564981 0.12684612
0.62854874 -0.28966418 0.63145393 0.255182 -0.94414115 -0.20851749 0.1606309
0.65360504 -0.27317849 0.63540107 0.92102361 -0.34144339 -0.18743528 0.22750716
0.64107269 -0.29824677 0.67380059 0.038489062 -0.89780051 -0.43871713 0.22162212
0.62532026 -0.29174155 0.63686287 0.29748392 -0.90796149 -0.29514274 0.16810989
-0.063209713 -0.19255544 0.24957538 0.79189789 0.096518815 -0.6029774 0.089025646
0.50344169 -0.31800532 0.65983522 0.054357942 -0.99845356 -0.011648333 0.0039808783
-0.066601641 -0.19630952 0.26328886 0.85957098 0.063104488 -0.50710499 0.098009787
0.64824146 -0.29379734 0.62158448 0.10816301 -0.9930163 -0.047110267 0.15675944
-0.04071923 -0.13526557 0.25701749 -0.95095724 0.085428052 0.29729182 0.079108588
0.58263189 -0.30858976 0.59443945 0.1964747 -0.97147387 -0.13280161 0.12750505
-0.055377211 -0.19644308 0.23815532 0.77174395 0.11612677 -0.62524062 0.083846055
-0.037942879 -0.10710387 0.26039129 0.91641748 -0.0053319181 -0.40018809 0.036631357
-0.038262654 -0.1040865 0.25900611 0.92232412 -0.018661065 -0.38596633 0.035910215
-0.041855354 -0.25944147 0.22868985 0.26369509 -0.02083707 -0.96438092 0.1174681
-0.048695803 -0.31044707 0.23407763 0.89942861 -0.28721794 -0.32944489 0.25471258
-0.055441134 -0.20042515 0.23616843 0.70673937 0.10219397 -0.70005423 0.086543329
-0.064008035 -0.30470312 0.24670456 -0.99590838 0.07686644 0.04751832 0.24831182
-0.040676583 -0.11332286 0.25598979 0.91643584 -0.0053492086 -0.40014595 0.03663592
-0.043875802 -0.13983881 0.25191122 -0.94063312 0.050344251 0.33567044 0.07747484
-0.063387558 -0.29898125 0.24261302 -0.98447162 0.17185736 0.03578902 0.23598881
-0.060908888 -0.31151795 0.25118002 -0.99907732 -0.032718718 0.027820198 0.25564256
-0.054674875 -0.29953766 0.23696409 -0.95782322 0.25780529 0.12692925 0.2134683
-0.039445814 -0.15633442 0.25728741 0.74025977 0.10989179 -0.66327918 0.073173232
-0.063781112 -0.19574422 0.24552642 0.78435856 0.10743736 -0.61093277 0.086804599
-0.040014219 -0.12572575 0.25895324 -0.9326902 0.13741374 0.33347633 0.068893187
0.33634558 -0.32030717 0.82165444 -0.12685344 -0.99170738 -0.020610452 0.15032974
0.18414269 -0.26747623 0.84288412 -0.85336602 0.02235508 0.52083266 0.058776118
-0.027844375 -0.26397726 0.23275593 0.79139918 -0.095159948 -0.60384762 0.12213835
-0.056746498 -0.29494652 0.23683843 -0.94645208 0.16822493 0.27555197 0.18598016
0.17998405 -0.26688564 0.83914399 -0.80983984 0.046329305 0.58481878 0.071564168
0.15891305 -0.29327193 0.80708832 -0.2370438 -0.67351192 0.70013696 0.19306351
0.16950594 -0.29101732 0.81970286 -0.6580683 -0.12047858 0.74325705 0.13586693
0.1471145 -0.31559131 0.81814402 0.032883488 -0.98222333 0.18481356 0.1800296
-0.031206504 -0.15559974 0.26763076 0.75266284 0.10040338 -0.65070564 0.073574014
-0.027885977 -0.26151133 0.23237486 0.64367139 -0.062648274 -0.76273346 0.12048615
-0.027893065 -0.27500066 0.23336285 0.88844526 -0.14619276 -0.4350777 0.13709281
-0.029775649 -0.29027277 0.23287673 0.91985637 -0.19451664 -0.3406283 0.15847385
-0.015254537 -0.23201799 0.24845403 0.3875367 0.091349572 -0.91731703 0.11337712
-0.029603405 -0.22160287 0.23509018 0.43918401 0.098565653 -0.89297384 0.11052473
-0.038174599 -0.10625316 0.25977352 0.92118764 -0.013973048 -0.38886783 0.035002392
-0.01216989 -0.26168206 0.24708688 0.88904613 -0.12493199 -0.44044179 0.12467859
-0.037950203 -0.10560564 0.25991476 0.92118764 -0.013973048 -0.38886783 0.035002392
-0.040125277 -0.1142803 0.25619155 0.91293418 -0.0010401307 -0.40810531 0.040285129
-0.032315288 -0.15956713 0.27348778 0.78039992 0.094340026 -0.61812288 0.074903496
-0.010850594 -0.22967862 0.25581187 0.74768597 0.12594838 -0.651999 0.13318771
-0.016519541 -0.23672454 0.24526702 0.34873179 0.072410539 -0.93442112 0.11695743
-0.017465027 -0.30704051 0.25018966 0.91408747 -0.33224049 -0.2325086 0.20278434
-0.038256083 -0.10561202 0.25950283 0.92118764 -0.013973048 -0.38886783 0.035002392
-0.011004042 -0.27329507 0.24755514 0.93169975 -0.16769485 -0.32220173 0.13754825
-0.012731157 -0.28977424 0.2472609 -0.96015847 0.2614525 0.098683141 0.16202568
-0.014834972 -0.30953428 0.26405442 -0.93427688 0.32829389 0.13910337 0.20832293
-0.013733448 -0.27459756 0.24491619 0.93169975 -0.16769485 -0.32220173 0.13754825
-0.013361051 -0.22192572 0.26354274 0.84516901 0.13081959 -0.51824278 0.12870947
-0.015549465 -0.22159794 0.26765603 0.88998687 0.1381074 -0.43456841 0.13028689
-0.012376592 -0.22460702 0.2606037 0.83335078 0.12836969 -0.53763145 0.12858701
-0.011650409 -0.22714274 0.25579488 0.79995203 0.12769933 -0.58631879 0.13246599
-0.011897514 -0.21219899 0.26323646 0.88107777 0.16218445 -0.44429526 0.11760348
-0.010536754 -0.23043203 0.25612313 0.80225998 0.12216651 -0.58434081 0.13280199
-0.015770873 -0.22591797 0.26668969 0.86012727 0.11782161 -0.49628541 0.12964146
-0.0095132459 -0.24577735 0.25909036 0.73388922 0.0406182 -0.67805368 0.12175851
-0.030685326 -0.19393696 0.23665106 0.72577322 0.12818503 -0.67588598 0.080725841
-0.012414516 -0.22771367 0.25377506 0.75068784 0.12297645 -0.64911056 0.12823607
-0.010506836 -0.23705018 0.25548363 0.4461751 0.069150068 -0.89227021 0.13048649
-0.016889155 -0.23625143 0.24421957 0.32845441 0.076120548 -0.94144756 0.11528052
-0.010544302 -0.2538636 0.25265828 0.85246795 -0.079613619 -0.51668185 0.11845312
-0.041918635 -0.15846692 0.25496235 0.70414853 0.11105102 -0.70131487 0.073053539
-0.029683746 -0.2166509 0.23487517 0.55097967 0.11677872 -0.82630748 0.11613788
-0.0084937718 -0.27155542 0.25565532 0.93385607 -0.17020592 -0.31455156 0.14119348
-0.0084385909 -0.27157369 0.25088519 0.93168187 -0.16799904 -0.32209498 0.13616981
-0.014598671 -0.20953432 0.26612687 0.88256192 0.13806926 -0.44946781 0.10603042
-0.017880699 -0.22599553 0.2458256 0.59721279 0.09682025 -0.7962178 0.11558527
-0.016574018 -0.23191132 0.24660133 0.38443789 0.091145366 -0.91864026 0.10826667
-0.01564439 -0.23099098 0.2479039 0.39140341 0.090597242 -0.91574866 0.11208645
-0.011681082 -0.2466646 0.25227433 0.48208696 0.030762274 -0.87558317 0.1153499
-0.010420999 -0.23955736 0.25803879 0.55439883 0.058303893 -0.83020627 0.13509952
-0.011170617 -0.24426833 0.25349459 0.51011026 0.047855716 -0.85877663 0.11899997
-0.020202914 -0.3102645 0.24720389 -0.92441881 0.31375077 0.21681848 0.22081995
-0.027048403 -0.15889494 0.2697266 0.76312876 0.10091883 -0.63831806 0.074022084
-0.043455008 -0.13669538 0.2525453 -0.9558323 0.091410019 0.27933642 0.078830719
-0.031806909 -0.21314725 0.23383318 0.62391973 0.12818861 -0.77090329 0.096361689
-0.015360693 -0.24300911 0.24578224 0.33765647 0.054230925 -0.93970585 0.1096722
-0.029105591 -0.20047568 0.23388258 0.68652374 0.14560619 -0.7123791 0.076765873
-0.037479643 -0.20804599 0.23012586 0.65185571 0.13044529 -0.74703962 0.087335743
-0.04026619 -0.11287212 0.25680843 0.91643584 -0.0053492086 -0.40014595 0.03663592
-0.030973397 -0.15738712 0.27158153 0.76937127 0.097196415 -0.63136417 0.074067801
-0.010435741 -0.27118248 0.24844168 0.92300606 -0.16643648 -0.34692749 0.13403733
-0.032520995 -0.23462769 0.23175943 0.14306138 0.080514014 -0.98643339 0.10088017
-0.01675093 -0.21735942 0.27029225 0.92431092 0.17164548 -0.34086233 0.12344557
-0.010819749 -0.25929752 0.25125536 0.90893114 -0.11399382 -0.40106055 0.12226694
-0.0089520486 -0.26330206 0.25625062 0.93013805 -0.15501957 -0.33288461 0.12882267
-0.013079335 -0.22998732 0.25173685 0.57704097 0.10616693 -0.80978537 0.12139245
-0.012598946 -0.22580248 0.25896254 0.79891717 0.12461143 -0.58839041 0.1282496
-0.045179892 -0.15909038 0.25303477 0.70526576 0.11367686 -0.69976974 0.072859086
-0.023398031 -0.30950332 0.26692933 -0.96770567 0.24108534 0.073645189 0.21968687
-0.042195633 -0.13879931 0.25480002 0.93415594 -0.059450336 -0.35187823 0.080131426
-0.043193843 -0.12877262 0.2528581 -0.95958227 0.13399328 0.24748273 0.073201284
-0.039989501 -0.27369612 0.22925164 0.854909 -0.13142225 -0.50185537 0.13202436
-0.21956268 -0.32047382 0.97806478 0.62818158 0.24853462 0.73730475 0.17750582
-0.055573802 -0.19991511 0.23641001 0.72884446 0.10304128 -0.67688131 0.085881747
-0.043239787 -0.13851911 0.25279233 -0.96125537 0.089033619 0.26088524 0.076588966
-0.2413566 -0.27670446 1.0537746 -0.99588835 0.0015849599 -0.090575166 0.097283624
-0.062873341 -0.19234377 0.24333689 0.79149729 0.096440464 -0.60351574 0.089819312
-0.044931866 -0.13861056 0.25007412 -0.96225125 0.088764429 0.25728083 0.07572785
-0.027490323 -0.3123458 0.23875773 0.83106679 -0.36840144 -0.41666347 0.2332422
-0.029842364 -0.26515529 0.23149534 0.81194174 -0.097219512 -0.57558578 0.12271217
-0.054632161 -0.29542384 0.23481975 -0.93956 0.17682041 0.29319221 0.18838952
-0.038725331 -0.31297746 0.23537377 0.84838587 -0.32748953 -0.41592306 0.24758163
-0.058583651 -0.3061929 0.23838434 -0.98782492 0.14837566 0.046760667 0.24976386
-0.056634486 -0.30987146 0.23783787 -0.95692396 0.19237123 0.21746223 0.26581246
-0.027690368 -0.25538334 0.23265022 0.27798241 0.0048557608 -0.96057385 0.11161427
-0.041134506 -0.14217249 0.25562316 -0.94404691 0.04856538 0.32621583 0.0750947
0.18162043 -0.27756602 0.84537524 -0.8556087 0.10343183 0.50718397 0.08274243
0.18530773 -0.31229687 0.85996258 0.86260694 -0.31846082 -0.39305466 0.092866279
-0.057387989 -0.21724579 0.2357465 0.37502667 0.0721246 -0.92420405 0.11123706
-0.063489079 -0.29081735 0.24016815 -0.98070431 0.11410666 0.15874121 0.17419867
-0.058384337 -0.29781467 0.23725045 -0.96167594 0.21334109 0.17223547 0.21170883
-0.049211327 -0.21797314 0.23100993 0.34450534 0.091129988 -0.93435079 0.1096007
-0.059690583 -0.29593346 0.23725429 -0.97307646 0.15365268 0.17179379 0.19899333
-0.040474955 -0.24806024 0.22846439 0.10137682 0.04351918 -0.99389577 0.10533922
-0.04113188 -0.12793566 0.25650752 -0.94144738 0.13629548 0.30838349 0.071096919
-0.054762077 -0.19506541 0.23728925 0.76708055 0.11417951 -0.63130856 0.085488133
-0.064684764 -0.19398057 0.25131863 0.8266449 0.08849714 -0.55572164 0.09233167
0.16310853 -0.27149224 0.82859462 -0.48450151 -0.43861622 0.75688446 0.16213909
-0.043741684 -0.13507241 0.25201184 -0.96830434 0.11113606 0.22368602 0.075413465
-0.042167176 -0.15812221 0.25471219 0.70414853 0.11105102 -0.70131487 0.073053539
-0.065893322 -0.19485892 0.2591258 0.84507012 0.069570132 -0.53010988 0.093698092
-0.04690215 -0.15847714 0.25072375 0.64213699 0.12223034 -0.75678253 0.070937112
-0.065286346 -0.3070792 0.25397003 -0.99907625 -0.030950906 0.029811949 0.25179321
-0.046271197 -0.12802397 0.2478873 -0.95958406 0.13399467 0.24747495 0.07320226
-0.063938759 -0.19202457 0.25128853 0.78857559 0.093528531 -0.60778368 0.091342419
-0.070505418 -0.27469662 0.2570706 0.91242373 -0.047051862 -0.40653312 0.14951855
-0.065525271 -0.19373046 0.2579523 0.81685352 0.083178826 -0.57081658 0.094436966
-0.0396212 -0.15713733 0.26382825 0.7892642 0.088381134 -0.60766006 0.074184567
-0.049690023 -0.15367709 0.24665114 0.74330306 0.080038585 -0.66414934 0.075263299
-0.068739481 -0.30117983 0.25660557 -0.99701214 0.068135791 0.036390856 0.23735993
-0.044235025 -0.12627281 0.25102773 -0.94143742 0.13629061 0.30841616 0.071097024
-0.045902211 -0.13165404 0.2484806 -0.97715682 0.12871324 0.16910788 0.0758586
-0.045959491 -0.13636431 0.24846613 -0.97249967 0.11942603 0.19995469 0.075193338
-0.070763871 -0.28369865 0.25677273 -0.97662503 0.096900508 0.19186966 0.16661751
-0.039431952 -0.23333706 0.28555414 -0.97116858 -0.010141237 -0.23817803 0.14703409
-0.040316347 -0.10517418 0.25525039 0.92234862 -0.018684186 -0.38590673 0.035916273
-0.041870609 -0.13724147 0.25534257 -0.95448506 0.087846652 0.28502861 0.079758599
-0.039872851 -0.31305146 0.28823715 -0.99573559 -0.017701164 0.090539023 0.24728383
-0.049558304 -0.19127159 0.27368608 0.79864216 0.071243815 -0.59757423 0.094314456
-0.069755122 -0.25761411 0.25635293 -0.98918825 0.0064310804 0.14651021 0.12357721
-0.043458737 -0.23577464 0.28695184 -0.99930555 0.030013479 -0.022079926 0.14578943
-0.04122223 -0.30692127 0.28704718 -0.99104053 0.12284312 0.05242404 0.22575371
-0.042419598 -0.2967509 0.28698257 -0.9770025 0.20894037 0.042545788 0.19760101
-0.04150258 -0.24601321 0.28741789 0.780487 -0.077867791 -0.62030369 0.12973955
-0.036950946 -0.22698005 0.28391683 -0.98483783 -0.059771247 0.16285522 0.14230227
-0.033468969 -0.23183365 0.28297704 -0.99262434 -0.027590858 0.11804933 0.14294896
-0.042653471 -0.24858713 0.28779274 0.8353321 -0.05911779 -0.54655766 0.12658782
-0.040513519 -0.2307926 0.28606576 -0.97458243 -0.020795921 0.22306164 0.14667983
-0.044080235 -0.24754666 0.28818694 0.83341491 -0.068211026 -0.5484221 0.12714659
-0.044779535 -0.30768114 0.28708133 -0.99541241 0.081568472 0.050006859 0.22799928
-0.033856262 -0.27021039 0.28420499 -0.96420175 0.15081348 0.21810634 0.14691336
-0.017920488 -0.22222799 0.27105302 0.87681299 0.13153289 -0.46249124 0.13163425
-0.02193244 -0.29754093 0.26488271 -0.95887089 0.28217697 0.030705115 0.16938137
-0.013748841 -0.22630958 0.2559731 0.76959229 0.12049563 -0.62706345 0.12777255
-0.042575292 -0.29882684 0.28759265 -0.98475522 0.16667312 0.049772002 0.20541038
-0.040378027 -0.28493109 0.28668025 -0.95952016 0.28021675 0.028276134 0.16551636
-0.040950213 -0.28297684 0.28707218 -0.95952016 0.28021675 0.028276134 0.16551636
-0.020936886 -0.22357415 0.27565154 -0.98188835 -0.11191496 0.15287352 0.13388395
-0.027325278 -0.20819528 0.27452981 0.91393995 0.11634581 -0.38881537 0.09846171
-0.044095565 -0.24011318 0.28887603 0.85814768 -0.10849768 -0.50180751 0.14098795
-0.042686392 -0.23027289 0.2868112 -0.97165716 -0.016020814 0.23585084 0.14691675
-0.034042016 -0.26214278 0.28650504 -0.97430986 0.088192768 0.20722552 0.14188281
-0.038368545 -0.22178866 0.28387293 -0.96110618 -0.062774085 0.2689504 0.14082168
-0.060058933 -0.30960658 0.27638951 -0.9990086 -0.019578259 0.039982792 0.23155713
-0.054764051 -0.30968407 0.27773368 -0.99900877 -0.019566257 0.039982695 0.23155425
-0.057477374 -0.19037689 0.27760825 0.79529941 0.059985232 -0.60324174 0.09718772
-0.04921839 -0.16040251 0.24320278 0.63746774 0.12639305 -0.76003921 0.070907488
-0.070067041 -0.28053436 0.25418621 -0.95109135 0.13290273 0.27885848 0.16247942
-0.040598512 -0.13072811 0.25743225 -0.95958233 0.13399336 0.24748227 0.07320118
-0.068934642 -0.30034915 0.25070381 -0.99677777 0.070159994 0.038880896 0.24468765
-0.060182668 -0.31060839 0.26518568 -0.99921638 -0.028295895 0.027675025 0.2367897
-0.066020913 -0.1954315 0.25210714 0.8125248 0.08121556 -0.57724124 0.092092954
-0.047515038 -0.12598048 0.24549158 -0.95974988 0.15392596 0.23491925 0.069807559
-0.066084303 -0.19471425 0.25329009 0.8267045 0.088494651 -0.55563331 0.092333958
-0.070259869 -0.27601323 0.25540477 0.91457599 -0.086652339 -0.39502165 0.1516026
-0.04234048 -0.13567568 0.25446206 -0.95085466 0.085481472 0.29760429 0.078129806
-0.062197484 -0.29644287 0.23837525 -0.98876989 0.13526843 0.063532643 0.21168453
-0.040587738 -0.13481475 0.25757784 -0.95095426 0.085425019 0.29730222 0.079107776
-0.06295301 -0.28885052 0.23920986 -0.98251992 0.10042339 0.1567474 0.17054546
-0.065536663 -0.30626467 0.24878472 -0.99907732 -0.032734476 0.027802829 0.25564262
-0.069363713 -0.19315812 0.24929285 0.79682636 0.091524795 -0.59723616 0.092098109
-0.050024852 -0.15415537 0.24556801 0.74330306 0.080038585 -0.66414934 0.075263299
-0.062221687 -0.2996597 0.23841025 -0.97611898 0.19669977 0.092200622 0.2413487
-0.041899968 -0.15896142 0.25769845 0.74346304 0.098501995 -0.66148317 0.074648857
-0.071896344 -0.28695902 0.25411409 -0.98254561 0.080594778 0.16765575 0.17240053
-0.065142184 -0.29881009 0.24172321 -0.98128563 0.18300371 0.059902146 0.23880669
-0.069260716 -0.25030452 0.24781802 -0.5894981 0.019978015 -0.80752265 0.12108108
-0.070065789 -0.27603346 0.2523528 -0.93167704 0.088359416 0.35237834 0.15203689
