# .PCD v0.7 - Point Cloud Data file format
VERSION 0.7
FIELDS x y z
SIZE 4 4 4
TYPE F F F
COUNT 1 1 1
WIDTH 1418
HEIGHT 1
VIEWPOINT 0 0 0 1 0 0 0
POINTS 1418
DATA ascii
-0.39892021 -0.62511963 0.8675257
-0.3489601 -0.64393079 0.84825122
-0.37393621 -0.59671283 0.84980488
-0.30156809 -0.67242038 0.86454439
-0.34033161 -0.38047889 0.83544648
-0.3431505 -0.61848062 0.85156989
-0.38891521 -0.5839963 0.85180938
-0.40872401 -0.42338839 0.90998149
-0.1921811 -0.42144579 0.92200398
-0.41563171 -0.37433311 0.93606931
-0.4063428 -0.50524491 0.90098858
-0.38208809 -0.51077312 0.84468269
-0.48060411 -0.43056399 1.049034
-0.43665531 -0.4692573 0.97124541
-0.4226476 -0.66577321 0.95248818
-0.40721151 -0.59195518 0.89509583
-0.42795861 -0.67236978 0.96376133
-0.3942408 -0.65344232 0.86941671
-0.4571293 -0.56511557 1.046239
-0.40106669 -0.54580969 0.88167
-0.2375651 -0.36296749 1.086278
-0.38069859 -0.50030518 0.90068102
-0.3780047 -0.46242091 0.88452899
-0.43954349 -0.60252732 1.03284
-0.38180751 -0.57654327 0.89409268
-0.39926839 -0.67156458 0.92798662
-0.3870483 -0.57379937 0.90926898
-0.36385089 -0.63977993 0.86500663
-0.4153198 -0.66034281 0.96330053
-0.30684301 -0.7200433 0.86543208
-0.40637621 -0.60734397 0.94803822
-0.3579028 -0.6151011 0.87283039
-0.44168371 -0.69257838 1.02211
-0.28273991 -0.3569741 0.98478758
-0.33953181 -0.35733551 0.89030641
-0.4275957 -0.6938597 0.9452374
-0.41580519 -0.70449668 0.94596559
-0.43352711 -0.4448159 0.97512972
-0.39177591 -0.48517451 0.8644712
-0.37456369 -0.35416961 0.84670269
-0.20974401 -0.3583073 0.95458412
-0.39568079 -0.3705844 0.84142357
-0.43210971 -0.39025021 0.98929667
-0.43121421 -0.4561052 0.99416077
-0.41884881 -0.41493171 0.93402928
-0.42875791 -0.64790702 0.99873471
-0.34798259 -0.69720602 0.85573119
-0.41643739 -0.68940938 0.96586949
-0.41776249 -0.65961242 0.97066951
-0.43399429 -0.632411 1.010377
-0.42817229 -0.68050933 0.99251282
-0.2372653 -0.36379689 1.103716
-0.466674 -0.72995961 1.078946
-0.37966871 -0.61687899 0.85370839
-0.4101665 -0.67603707 0.92395842
-0.41696191 -0.39506131 0.93809313
-0.40136629 -0.68453163 0.90599298
-0.4272027 -0.36632201 0.97148758
-0.4106161 -0.3612282 0.92607468
-0.43192011 -0.52551132 0.98020118
-0.43777409 -0.5000158 0.99015248
-0.4314563 -0.40759721 0.9772296
-0.43573111 -0.57666397 0.9872998
-0.40301341 -0.53948009 0.8904357
-0.4387711 -0.52051067 0.9988569
-0.43140399 -0.59900171 0.98230982
-0.4008415 -0.55593443 0.90004933
-0.4488343 -0.58825558 1.0590841
-0.2319517 -0.72497851 0.88891691
-0.2812669 -0.53143418 0.88675487
-0.16301259 -0.47604489 0.93539017
-0.4335486 -0.50915921 0.93085808
-0.4464829 -0.64021063 1.043442
-0.38298509 -0.55364239 0.89551657
-0.39055201 -0.67651671 0.90637338
-0.2182211 -0.69808149 0.88593179
-0.25591519 -0.36472419 0.95434958
-0.2196531 -0.47105569 0.91003931
0.2116762 -0.6924817 0.95410413
-0.44919631 -0.42467669 1.040711
-0.35364881 -0.58015192 0.85431689
-0.36772391 -0.64887089 0.85618001
-0.4631798 -0.62460679 1.06243
-0.44368759 -0.65046579 0.99677593
-0.4220506 -0.38997641 0.98271978
-0.17275169 -0.66435492 0.90421778
-0.24975839 -0.35947809 0.93584162
-0.53083283 -0.68279809 0.65541363
-0.2936886 -0.35681689 1.099803
-0.43200731 -0.7055732 0.97547972
-0.44536939 -0.68994659 0.99392557
0.3981429 -0.67112821 1.043108
-0.58134311 -0.70781791 0.71207142
-0.3895734 -0.36452171 0.89772898
-0.45892239 -0.34976909 1.019872
-0.2373243 -0.35235241 1.050754
-0.42120761 -0.4351581 0.90025681
-0.47924581 -0.41203859 1.041411
-0.47067931 -0.57956553 1.008739
-0.4814963 -0.67382091 1.055065
-0.44570509 -0.57609719 0.94993669
-0.60591942 -0.69030988 0.69357532
-0.43033689 -0.69051051 0.91180009
-0.71117097 -0.69438303 0.73904979
-0.43071359 -0.36089 0.92365909
-0.40994629 -0.36288309 0.99367279
-0.46705031 -0.65238428 0.99781048
-0.50362009 -0.69282877 0.73386699
-0.59953219 -0.70307851 0.85395998
-0.58288783 -0.70721322 0.6928283
-0.5405165 -0.71045619 0.6767776
-0.46846461 -0.35952049 1.021262
-0.48265779 -0.61698997 1.053099
-0.48433891 -0.6905297 0.67484689
-0.4150036 -0.59946579 0.88123113
-0.29658881 -0.35117859 0.95504493
-0.49256241 -0.69649792 0.68254763
-0.42642161 -0.59047449 0.91604698
-0.66582161 -0.69273508 0.74472868
-0.46080819 -0.44429451 1.031379
-0.48036969 -0.69598663 0.72427869
-0.66420722 -0.69564098 0.74550408
-0.67247802 -0.68460459 0.78268403
-0.3123976 -0.35200071 0.92111039
-0.35013571 -0.3501237 0.96740848
-0.3804827 -0.3550503 0.8479346
-0.49527499 -0.69619411 0.66538262
-0.56622291 -0.70167458 0.69364297
-0.55480212 -0.6944778 0.68846828
-0.62616259 -0.69329941 0.71801829
-0.38167381 -0.35940859 0.87275219
-0.57705992 -0.69847572 0.7004602
-0.51602232 -0.66704518 1.105148
-0.47584271 -0.5664953 1.03821
-0.52720022 -0.67896777 1.10296
-0.4767063 -0.35417289 1.0572701
-0.36656871 -0.35772711 0.93739629
-0.43661651 -0.47169441 0.94597691
-0.65741622 -0.68589139 0.83388722
-0.51546192 -0.69001639 0.80934632
-0.54532331 -0.69199419 1.031914
-0.55580121 -0.70033371 0.72446328
-0.47923279 -0.52826113 1.048242
-0.60930133 -0.67142558 0.95325011
-0.4700413 -0.39783451 1.028138
-0.39806911 -0.39492479 0.85210818
-0.42815679 -0.5028578 0.91861641
-0.43294391 -0.42977959 0.93738079
-0.57147902 -0.69307148 0.8169353
-0.66301751 -0.69295198 0.80295402
-0.26555151 -0.33806911 0.94515008
-0.31698009 -0.39790499 0.8382076
-0.2562435 -0.34476081 1.009563
-0.40294951 -0.39657041 0.8044281
-0.42238101 -0.49631 0.79739553
-0.42916721 -0.5663175 0.79588622
-0.3924171 -0.57042199 0.80060661
-0.35977599 -0.34593061 0.8260597
-0.3523626 -0.39255819 0.82129377
-0.33895409 -0.33328429 0.92059261
-0.26862451 -0.34005931 0.93624091
-0.28822061 -0.33405361 0.89224058
-0.40844151 -0.3390691 0.96152961
-0.46197751 -0.33579701 0.88228267
-0.42986119 -0.51648748 0.79527032
-0.31403211 -0.33872721 1.010543
-0.4269425 -0.41931251 0.79882598
-0.49861091 -0.4815788 0.96758699
-0.45487839 -0.41152331 0.85401839
-0.4043127 -0.3356196 1.031145
-0.46122381 -0.34602159 0.87920982
-0.48399359 -0.42002431 0.93370068
-0.45629501 -0.37580121 0.86395472
-0.43087909 -0.3401072 0.90214348
-0.28686699 -0.3360309 0.96260059
-0.3265678 -0.33751369 0.85462981
-0.45377409 -0.33590281 0.99902701
-0.4637734 -0.48949119 0.86668593
-0.44258359 -0.4479672 0.82565153
-0.48027179 -0.39866781 0.91651279
-0.4934431 -0.50157642 0.93596178
-0.48114929 -0.4309313 0.90982538
-0.46217701 -0.60087931 0.86514348
-0.4375163 -0.37199789 0.81547368
-0.44098729 -0.3557612 0.82504719
-0.50563347 -0.50805598 0.97661728
-0.44458669 -0.41349071 0.81311762
-0.44219741 -0.34920129 0.81689793
-0.4317486 -0.41119871 0.80815297
-0.50535399 -0.3934859 0.98277837
-0.50618881 -0.42981619 0.97892022
-0.4671607 -0.37155941 0.89456749
-0.28504011 -0.33927351 0.99883509
-0.49564001 -0.50720727 0.93752319
-0.4925715 -0.4416191 0.95309132
-0.48221079 -0.33985719 1.009672
-0.47447711 -0.50833011 0.89184892
-0.45867059 -0.53679681 0.8567847
-0.46897209 -0.53356838 0.88226759
-0.47578841 -0.5454433 0.90529501
-0.50047117 -0.54297489 0.94948733
-0.4400495 -0.59829491 0.81240731
-0.4766697 -0.42037141 0.92047799
-0.4723433 -0.33761579 0.92419243
-0.39198709 -0.33471161 0.91811168
-0.4845919 -0.47510481 0.92254442
-0.42869821 -0.34000441 0.8616401
-0.4652122 -0.40420339 0.890432
-0.44206059 -0.3362487 0.84172028
-0.44496381 -0.59114212 0.82360291
-0.42721319 -0.56441152 0.80029261
-0.47120619 -0.58721828 0.88018721
-0.42854241 -0.59706348 0.80303961
-0.49012929 -0.34105149 0.95111918
-0.45472181 -0.4061214 0.85508561
-0.45219341 -0.3631995 0.85198343
-0.43713951 -0.36102599 0.80851609
-0.4571777 -0.3859129 0.86801112
-0.43053511 -0.36533219 0.79946792
-0.50137049 -0.4508146 0.9774828
-0.47653261 -0.43788329 0.90718198
-0.49342239 -0.53582931 0.93680239
-0.47956359 -0.55612272 0.91054678
-0.44904199 -0.51037222 0.83184159
-0.4387137 -0.57842028 0.81775928
-0.46413121 -0.54243833 0.86770761
-0.44887319 -0.42870581 0.83868861
-0.4336479 -0.53708768 0.79824162
-0.47168919 -0.34349209 0.90557998
-0.49790549 -0.53307962 0.94773942
-0.50711441 -0.33974889 0.99531138
-0.50904357 -0.40643209 0.99643832
-0.47363821 -0.38049799 0.91256839
-0.34537771 -0.33548439 0.99812841
-0.50185782 -0.35525399 0.96672052
-0.4629682 -0.40928131 0.86880511
-0.3785457 -0.33776829 0.9085815
-0.4510732 -0.33938441 0.94787031
-0.36229569 -0.33559811 0.99385399
-0.42305869 -0.34113431 0.82699049
-0.4892616 -0.41967601 0.93712473
-0.46088099 -0.4868435 0.87135369
-0.4475964 -0.4819532 0.82993031
-0.41418549 -0.33874589 0.97467327
-0.476513 -0.39474899 0.9185496
-0.47810641 -0.58461052 0.91255379
-0.50329471 -0.58062297 0.95849413
-0.44561329 -0.50212282 0.82560527
-0.50419861 -0.58634281 0.96209902
-0.4345648 -0.51301843 0.80621219
-0.47104841 -0.61393559 0.88297212
-0.4732843 -0.58611292 0.88656992
-0.43689191 -0.48830599 0.81298488
-0.48223981 -0.60512602 0.90498781
-0.43732291 -0.53276592 0.80980438
-0.50679529 -0.59562051 0.9877041
-0.44280839 -0.49555489 0.81991398
-0.40784249 -0.3401686 0.88960171
-0.43216351 -0.350943 0.81452489
-0.45246479 -0.3929472 0.85181022
-0.47974229 -0.53698897 0.91272229
-0.46337929 -0.51070011 0.86707968
-0.48712221 -0.43391871 0.93759292
-0.45962039 -0.47526279 0.87323529
-0.47381571 -0.39918679 0.90878212
-0.44234121 -0.45137119 0.81741619
-0.3571766 -0.3326683 0.8293035
-0.41598621 -0.33963481 0.84534532
-0.44345921 -0.33880559 0.92253739
-0.46575049 -0.33800599 0.97724462
-0.49239561 -0.3923012 0.95094401
-0.45287731 -0.3371433 0.96835601
-0.46573809 -0.33635479 0.8960073
-0.50768858 -0.50839502 0.97457337
-0.45523229 -0.33895251 0.86730129
-0.46516311 -0.57878971 0.87131977
-0.50796407 -0.55881399 0.97335958
-0.44824409 -0.49614021 0.83283162
-0.45237309 -0.48641691 0.8439604
-0.45830879 -0.39582229 0.86248362
-0.4969793 -0.61007851 0.93728739
-0.42403951 -0.54531008 0.80007392
-0.43481731 -0.4792335 0.80572712
-0.43914041 -0.4457359 0.8101548
-0.4940505 -0.34889951 0.96624422
-0.34094799 -0.3727439 0.82765472
-0.43256599 -0.35157451 0.80258977
-0.4361597 -0.34132001 0.84300762
-0.48445711 -0.345653 0.93900478
-0.43612081 -0.37782031 0.81598991
-0.46796581 -0.44802979 0.8963688
-0.50583547 -0.50041431 0.99114162
-0.46776739 -0.45490259 0.89416581
-0.50997269 -0.50991482 0.99224192
-0.49320301 -0.4161104 0.94991899
-0.51158428 -0.3515085 0.99683511
-0.50994319 -0.3853879 0.99414349
-0.2555407 -0.33661729 0.87780279
-0.33022469 -0.33713359 0.88065833
-0.43787041 -0.41827339 0.81702417
-0.43451509 -0.33621961 0.79796338
-0.44580051 -0.52644879 0.83325368
-0.41558021 -0.59306538 0.80296618
-0.40496609 -0.57713008 0.78686041
-0.47113049 -0.47213039 0.89510882
-0.49740019 -0.50251693 0.95684582
-0.47458091 -0.36397511 0.92193562
-0.47208351 -0.4947955 0.88877219
-0.4856078 -0.5126586 0.93107361
-0.48615581 -0.56611967 0.92251599
-0.46711299 -0.47954571 0.88109589
-0.51039618 -0.54551721 0.99251318
-0.45661491 -0.48821199 0.86087197
-0.45612949 -0.51221931 0.86002147
-0.46203369 -0.38634899 0.87361377
-0.44136879 -0.51586628 0.82356453
-0.3200393 -0.49970889 0.83439958
-0.4834047 -0.45807591 0.9156732
-0.43401909 -0.49785361 0.80259228
-0.47794431 -0.48064411 0.90554821
-0.4475989 -0.45166731 0.83637267
-0.4469628 -0.47234979 0.83488059
-0.39375851 -0.596017 0.80056822
-0.4688029 -0.4050912 0.88590032
-0.46637139 -0.4518981 0.89418048
-0.50581068 -0.4751654 0.98351908
-0.46959901 -0.38423061 0.89637369
-0.46736741 -0.4668597 0.87784767
-0.43405879 -0.37513039 0.81228578
-0.34620011 -0.3385646 0.89640439
-0.4292616 -0.42403111 0.79542929
-0.4228901 -0.33736899 0.8893317
-0.28714719 -0.34061819 0.88581961
-0.44518259 -0.34560221 0.82596999
-0.45874959 -0.5373385 0.8542558
-0.44687811 -0.55942482 0.82446837
-0.25968349 -0.54532713 0.85607088
-0.4871825 -0.34292799 0.99227637
-0.49593279 -0.39059141 0.9572199
-0.50749058 -0.42956671 0.9860388
-0.46851039 -0.3723852 0.8983528
-0.48116639 -0.3514767 0.91876048
-0.48634139 -0.43857551 0.93161798
-0.49188951 -0.56169271 0.93749082
-0.50835252 -0.61661822 0.98325682
-0.4925442 -0.58719808 0.93344361
-0.49274191 -0.61698419 0.93130523
-0.34589371 -0.4622052 0.82374579
-0.5000397 -0.52973258 0.96846569
-0.50613731 -0.611655 0.95229352
-0.51574641 -0.37032789 0.99732071
-0.4503291 -0.54559243 0.83831209
-0.31371781 -0.33192629 0.99214178
-0.45858371 -0.61104232 0.85432899
-0.51134717 -0.57969427 0.99059498
-0.26904491 -0.57722777 0.85377848
-0.38204929 -0.34052151 0.84640461
-0.42589521 -0.3694663 0.7962119
-0.44517559 -0.53719348 0.82291633
-0.43672371 -0.3403962 0.87405741
-0.51549071 -0.34864381 0.99390942
-0.47498381 -0.34994259 0.91419351
-0.457342 -0.402053 0.86675739
-0.45049211 -0.59456652 0.84604162
-0.49283239 -0.48022211 0.94340491
-0.43257889 -0.34227389 0.83564281
-0.44445679 -0.33811611 0.98616189
-0.48082271 -0.49225569 0.91741002
-0.46745241 -0.60696262 0.87463558
-0.40690571 -0.3379916 0.9222542
-0.41054791 -0.33903959 0.90670937
-0.32112691 -0.33324361 0.89711922
-0.30923739 -0.33938429 1.081663
-0.3837029 -0.34003541 1.001157
-0.4471674 -0.48512191 0.83500391
-0.45225361 -0.53229308 0.84330899
-0.45550191 -0.59703767 0.85265541
-0.4476257 -0.58133632 0.83883297
-0.4903475 -0.34171811 0.95076197
-0.46095091 -0.33978909 0.9565053
-0.48523849 -0.37885371 0.93421298
-0.51054168 -0.42495069 0.99426669
-0.4912563 -0.56273222 0.93859798
-0.46780339 -0.51889873 0.88622892
-0.49563679 -0.57420021 0.95347971
-0.50207818 -0.57194042 0.97989351
-0.4873291 -0.58799243 0.91761678
-0.50642091 -0.53031772 0.97581512
-0.4868241 -0.59203708 0.92060888
-0.47378039 -0.54124218 0.89193302
-0.4496429 -0.46609721 0.84476757
-0.43123829 -0.5845471 0.84928972
-0.34478179 -0.3330448 1.081879
-0.4761039 -0.52262992 0.89510173
-0.51018018 -0.4077954 0.98896772
-0.4811919 -0.51017982 0.90546542
-0.45835599 -0.58574951 0.86400342
-0.4762677 -0.56986189 0.90496349
-0.34149379 -0.33499649 0.9054091
-0.29656449 -0.33389431 1.067564
-0.4588992 -0.37308741 0.88181353
-0.43967551 -0.4823125 0.82069141
-0.39971879 -0.33541301 0.94821
-0.47767559 -0.45341861 0.91303569
-0.49182051 -0.351908 0.95813489
-0.41242051 -0.52437162 0.80342299
-0.4615697 -0.4380821 0.848575
-0.45358059 -0.44254929 0.85354072
-0.49169019 -0.4430753 0.94739068
-0.25958109 -0.33786711 0.93029523
-0.45004919 -0.56047893 0.83666319
-0.3296009 -0.36471951 0.83258623
-0.33622739 -0.33643591 0.97102332
-0.2298774 -0.61662102 0.85474777
-0.45509911 -0.365089 0.86481887
-0.31579769 -0.33678669 0.96926862
-0.48523599 -0.33735061 0.98306793
-0.40064949 -0.33566219 0.94048858
-0.28718591 -0.33833569 0.92488831
-0.4301523 -0.33393091 1.027041
-0.43347701 -0.33629581 1.028451
-0.33696479 -0.35408071 1.0734791
-0.5105201 -0.59226573 0.98768902
-0.50532252 -0.57410508 0.99885231
-0.3221634 -0.61203271 1.088856
-0.43856731 -0.34205511 0.82548559
-0.46717569 -0.47386849 1.022835
-0.33695149 -0.4496237 1.0739419
-0.3442916 -0.4488112 1.072075
-0.33228141 -0.48854569 1.075243
-0.37471971 -0.51238233 1.057868
-0.32637021 -0.47236121 1.077961
-0.33868149 -0.52606052 1.074245
-0.3744745 -0.61327702 1.059063
-0.33877069 -0.56941241 1.076021
-0.34601641 -0.49871111 1.076243
-0.43337989 -0.34784609 1.030973
-0.49260309 -0.55517131 1.013876
-0.50181919 -0.57474267 1.000085
-0.348456 -0.3646687 1.0682
-0.50009513 -0.40775299 1.002283
-0.44925401 -0.3362608 0.95035303
-0.48958179 -0.60606241 1.019555
-0.36346161 -0.3638106 1.061574
-0.33717549 -0.37761271 1.074126
-0.37249309 -0.5750879 1.065124
-0.33558151 -0.5260039 1.070779
-0.4782255 -0.48985779 1.015142
-0.4937931 -0.41461471 1.009601
-0.40464851 -0.56083041 1.051293
-0.36037669 -0.3370294 0.99037641
-0.33708319 -0.4068478 1.074212
-0.35039401 -0.42309779 1.068404
-0.44757971 -0.35391241 1.026426
-0.32580069 -0.4404197 1.0796649
-0.3269932 -0.51471609 1.075896
-0.3191193 -0.46909019 1.064537
-0.49365541 -0.46149561 1.010465
-0.4532088 -0.336009 0.99442118
-0.4080278 -0.59334129 1.048834
-0.35661581 -0.37705681 1.065291
-0.38121939 -0.61100769 1.058761
-0.3235189 -0.4179422 1.0814559
-0.44337839 -0.34059981 1.026953
-0.4351131 -0.37509841 1.029747
-0.39540961 -0.33680239 0.84629053
-0.37073159 -0.36973381 1.055728
-0.32928461 -0.5516358 1.0800101
-0.33918369 -0.55710489 1.091429
-0.34584609 -0.39441869 1.068967
-0.3478193 -0.5323469 1.073462
-0.47885039 -0.33866939 1.0139281
-0.39146039 -0.58387852 1.0576921
-0.47004509 -0.611413 1.0190901
-0.45086181 -0.3599993 1.026433
-0.46994981 -0.3789745 1.019745
-0.50577801 -0.51671499 1.000937
-0.4936561 -0.39029029 1.008296
-0.46596739 -0.60617483 1.02163
-0.38064119 -0.33419529 1.033264
-0.30818719 -0.46347451 1.076221
-0.361523 -0.53619248 1.066349
-0.35641491 -0.60448629 1.070465
-0.3654514 -0.61265308 1.067031
-0.3699196 -0.51820159 1.064252
-0.48016691 -0.59410799 1.0190001
-0.5033828 -0.56088758 1.002357
-0.4613803 -0.33378649 0.98159277
-0.39920491 -0.35098669 1.048382
-0.3728376 -0.59429258 1.064851
-0.458065 -0.3511337 1.020396
-0.46938291 -0.5721069 1.022642
-0.3733826 -0.51069927 1.058808
-0.31033361 -0.50634968 1.080503
-0.35464421 -0.33396319 1.023128
-0.48574221 -0.33911049 1.009409
-0.3851757 -0.33699259 1.051635
-0.36655441 -0.56071281 1.065722
-0.4941791 -0.34080341 1.0075721
-0.3614423 -0.3432214 1.057071
-0.38240671 -0.3396979 0.88360977
-0.36290559 -0.58600563 1.065504
-0.33311889 -0.48088461 1.079322
-0.3486926 -0.39138111 1.073014
-0.50200462 -0.47988921 1.006493
-0.36454561 -0.37033701 1.069363
-0.4921844 -0.50176632 1.014114
-0.49104261 -0.48711279 1.01136
-0.50621212 -0.49136561 1.002681
-0.51791698 -0.5807023 0.99685812
-0.34931999 -0.34121671 1.0647269
-0.33655119 -0.33518279 1.054907
-0.32875359 -0.3354699 1.027357
-0.35411069 -0.427917 1.072286
-0.392546 -0.3334305 1.033687
-0.49036601 -0.51963681 1.010319
-0.32249621 -0.5166418 1.087622
-0.36711851 -0.50260878 1.0577739
-0.34694839 -0.34969819 1.070063
-0.38169169 -0.49582201 1.056766
-0.32424241 -0.4307102 1.080439
-0.35991681 -0.4807812 1.063498
-0.36213839 -0.3353616 0.83979362
-0.02922559 -0.59512663 0.71277142
-0.33481619 -0.34645209 1.086601
-0.34317309 -0.3365584 1.04785
-0.30277279 -0.4133206 1.0669791
-0.37967071 -0.5704568 1.064678
-0.30965689 -0.46612719 1.07323
-0.31482589 -0.60785478 1.083982
-0.34983179 -0.4806658 1.070583
-0.34684819 -0.49708039 1.076588
-0.3278763 -0.3399936 0.87795979
-0.3417961 -0.39974689 1.071622
-0.35378841 -0.3863169 1.069304
-0.34530601 -0.56543791 1.070595
-0.37012359 -0.3406541 1.059882
-0.3328658 -0.40603331 1.0792
-0.3135145 -0.41174591 1.0754761
-0.32210001 -0.39194629 1.074222
-0.4554657 -0.60348147 1.021504
-0.3218427 -0.56204522 1.082221
-0.36570829 -0.45854321 1.0701309
-0.34286931 -0.41620061 1.072544
-0.33667079 -0.42689231 1.075646
-0.33911291 -0.5418967 1.077302
-0.4999876 -0.35209909 1.003842
-0.30877689 -0.58126962 1.069074
-0.30264539 -0.33970991 1.027916
-0.32151359 -0.34904021 1.0833941
-0.40378049 -0.33664039 0.96091509
-0.28597119 -0.3377772 1.0053411
-0.3009598 -0.33666679 1.03116
-0.3047435 -0.33919251 1.081041
-0.36752751 -0.3362712 1.018241
-0.30188221 -0.559484 1.074325
-0.26646319 -0.4972041 0.99836528
-0.30984181 -0.57561833 1.078781
-0.2651749 -0.43162119 0.97478461
-0.3144618 -0.34053239 1.03643
-0.25582671 -0.46823749 0.97401607
-0.25050679 -0.46412781 0.94617879
-0.2898252 -0.3385874 0.99219948
-0.30092451 -0.33896869 1.062734
-0.30885109 -0.3363032 0.98702699
-0.32225481 -0.33612919 0.98902231
-0.26103029 -0.4702839 0.97841692
-0.2836509 -0.61633122 1.034699
-0.2659606 -0.58343428 0.98817551
-0.22806551 -0.476098 0.87747061
-0.2766467 -0.43192831 1.014576
-0.26882631 -0.42971879 0.98820841
-0.25263661 -0.5796206 0.95796192
-0.2566539 -0.3392669 0.9626143
-0.2914609 -0.33982831 1.037925
-0.22682729 -0.50166517 0.87884098
-0.30087221 -0.47037509 1.077492
-0.27001369 -0.44957289 0.99321061
-0.30739769 -0.53734988 1.079674
-0.27858061 -0.34148371 1.0053591
-0.28148741 -0.53069007 1.037991
-0.26719251 -0.34104541 0.98392248
-0.27491221 -0.53596008 1.019392
-0.26871479 -0.52658468 0.99880701
-0.26691899 -0.5443517 1.014732
-0.2752398 -0.33698329 0.93210888
-0.27735111 -0.33688179 0.92098272
-0.25068921 -0.4443489 0.9543457
-0.23729309 -0.47884911 0.9232356
-0.28536519 -0.49536309 1.037497
-0.2926293 -0.61604822 1.0569839
-0.23364329 -0.4435966 0.90163028
-0.2404152 -0.50967181 0.93374509
-0.28266519 -0.61531788 1.030311
-0.26526311 -0.4396534 0.97939038
-0.2270662 -0.42360079 0.87885529
-0.2613835 -0.5026105 0.96941912
-0.2306001 -0.49205509 0.88531399
-0.30048841 -0.34234539 1.064774
-0.32200119 -0.33778599 0.96306467
-0.29990199 -0.33500671 0.99793959
-0.2322205 -0.394728 0.9059034
-0.2791985 -0.3464773 1.005729
-0.2765753 -0.44065031 1.013267
-0.2490714 -0.57763779 0.95063502
-0.27254581 -0.50097048 1.005384
-0.24595781 -0.56631798 0.93949032
-0.25142491 -0.4300445 0.94548517
-0.26756379 -0.46756369 0.9920876
-0.2389189 -0.4411965 0.92597628
-0.26399559 -0.53742689 0.99537611
-0.2300045 -0.61338139 0.89329523
-0.2333257 -0.46613649 0.90960062
-0.2341795 -0.5216279 0.92068172
-0.26444679 -0.58368868 0.98541862
-0.2682054 -0.48761991 0.99530089
-0.28566501 -0.57306057 1.036997
-0.35535541 -0.3344869 1.015991
-0.34367329 -0.33690831 1.017645
-0.2984482 -0.50047821 1.0613919
-0.25594339 -0.3430903 0.96018142
-0.2296112 -0.41889459 0.88113213
-0.2285862 -0.52472907 0.88503963
-0.2664398 -0.4952209 0.99898481
-0.23105329 -0.60356069 0.8780337
-0.27175391 -0.44581649 0.99335033
-0.2324148 -0.43743381 0.90104389
-0.23382249 -0.55128813 0.9183495
-0.2417894 -0.44735381 0.93603778
-0.2350176 -0.4569726 0.91153401
-0.25444749 -0.45460561 0.96513081
-0.2443656 -0.58929968 0.93564707
-0.2318738 -0.47133791 0.88627511
-0.26530799 -0.3908554 0.98942631
-0.30720589 -0.33461159 1.06463
-0.26046991 -0.60423273 0.97469062
-0.2410007 -0.608666 0.92531228
-0.28404361 -0.53595853 1.036993
-0.2322623 -0.50273108 0.90345287
-0.31242901 -0.4727414 1.078609
-0.2335183 -0.34722811 0.90843731
-0.2645202 -0.56867439 0.98612863
-0.2401401 -0.55414021 0.92379338
-0.29034811 -0.48567021 1.047469
-0.2290742 -0.58165419 0.90491682
-0.2292677 -0.53592831 0.89488178
-0.3956525 -0.3371824 0.90497041
-0.3499727 -0.33607301 0.90845633
-0.314289 -0.33678231 0.99353021
-0.28930911 -0.3426699 1.037629
-0.37407309 -0.33374321 0.99531102
-0.30185211 -0.33604449 1.054803
-0.2869091 -0.41961461 1.03997
-0.30057129 -0.47833651 1.073611
-0.27071521 -0.3386693 0.88719207
-0.3318651 -0.33745271 0.89764971
-0.29105571 -0.3361761 0.88392061
-0.2337365 -0.3783094 0.90595049
-0.3089914 -0.33791071 0.8896845
-0.22605591 -0.52192372 0.88033152
-0.2296361 -0.4760797 0.88140678
-0.2247898 -0.46773019 0.89963013
-0.2230583 -0.52854103 0.8755374
-0.25233561 -0.58100331 0.95971471
-0.25776079 -0.4862794 0.96615589
-0.22592869 -0.50525433 0.88824862
-0.22961719 -0.41110429 0.88946187
-0.2303437 -0.55566847 0.88558239
-0.28566849 -0.4758651 1.03845
-0.30240861 -0.3371343 1.018537
-0.231179 -0.41068771 0.90109318
-0.2569187 -0.4936662 0.96908969
-0.2344248 -0.54343808 0.90432572
-0.2823129 -0.43908381 1.020601
-0.29417229 -0.55374539 1.060316
-0.27246699 -0.54318249 1.007153
-0.29502061 -0.58488321 1.06051
-0.29891649 -0.4560816 1.066988
-0.43096671 -0.34064949 0.86117363
-0.3362166 -0.33811551 0.91312742
-0.4197953 -0.33880699 0.80037087
-0.38557601 -0.3369332 0.91947693
-0.28664979 -0.48864701 1.035218
-0.27465051 -0.4675869 1.0120831
-0.31237301 -0.41292271 1.080767
-0.3894242 -0.3365154 0.81451321
-0.2308456 -0.57307822 0.88013762
-0.2339315 -0.45513299 0.9048574
-0.25520629 -0.40869501 0.95279992
-0.2574634 -0.57397062 0.96772689
-0.28685459 -0.4879061 1.03348
-0.29188409 -0.40661189 1.052913
-0.25876749 -0.55652922 0.97888482
-0.28301221 -0.48541209 1.026021
-0.2293224 -0.41669619 0.8946982
-0.30018371 -0.47848019 1.0693409
-0.25908989 -0.57654011 0.97289169
-0.2294424 -0.60614288 0.89559668
-0.2615664 -0.48447451 0.9762181
-0.2355576 -0.41535249 0.91173422
-0.23553699 -0.4122473 0.90614551
-0.23628341 -0.4954761 0.92303199
-0.2606335 -0.5766502 0.98047322
-0.28617939 -0.52065039 1.033859
-0.2774156 -0.55539382 1.014035
-0.3392525 -0.33849701 0.92219591
-0.37295139 -0.33673 0.93004721
-0.36468241 -0.34108961 0.85243613
-0.27412441 -0.44085801 1.006683
-0.34051991 -0.34001511 0.87116891
-0.28973341 -0.3420361 0.89319092
-0.2306408 -0.3957077 0.9041751
-0.232311 -0.54638529 0.91572291
-0.22522341 -0.57327682 0.88093138
-0.23901799 -0.43897951 0.92160869
-0.2248323 -0.59937501 0.89227229
-0.25781521 -0.4481701 0.96391338
-0.23022629 -0.47736901 0.90067768
-0.22679859 -0.42226869 0.88876897
-0.30324319 -0.3397651 1.071766
-0.30573109 -0.4384917 1.080356
-0.33978489 -0.33744499 0.95607162
-0.30831859 -0.50601763 1.078827
-0.3042185 -0.55575258 1.072387
-0.310011 -0.57190847 1.081548
-0.2917248 -0.5322479 1.048908
-0.29564491 -0.48981479 1.0507309
-0.26005581 -0.3384991 0.87421632
-0.25792941 -0.33723551 0.87815613
-0.233234 -0.47094199 0.91103011
-0.2269408 -0.43615729 0.87913972
-0.29142269 -0.52219498 1.051357
-0.2208847 -0.34332839 0.89710122
-0.30007479 -0.3395009 0.86599499
-0.29812121 -0.43253371 1.065026
-0.23353159 -0.49596241 0.89834028
-0.26731309 -0.59207731 0.98686528
-0.33433181 -0.33745369 1.063696
-0.33478031 -0.34299669 1.06387
-0.413638 -0.33822441 0.95268178
-0.2838327 -0.3400622 0.96038562
-0.29782549 -0.49883351 1.067161
-0.30944601 -0.4105725 1.083073
-0.29008979 -0.59685272 1.047429
-0.32764199 -0.3350693 0.88218331
-0.2984837 -0.34046671 0.88850093
-0.2915884 -0.338572 0.859658
-0.23195741 -0.34858501 0.89743042
-0.32574549 -0.33734491 0.86802453
-0.2280491 -0.49770001 0.89120942
-0.345496 -0.34123221 0.93883902
-0.34854561 -0.33414689 0.92147928
-0.2344716 -0.38689831 0.90572482
-0.39880261 -0.33537111 1.0121289
-0.38159099 -0.33610779 1.0289201
-0.3594631 -0.33613631 1.0033979
-0.4548957 -0.33608431 0.88496101
-0.26616889 -0.34311441 0.98466069
-0.30802691 -0.50361729 1.08183
-0.2955302 -0.5683592 1.064018
-0.3215943 -0.61545342 1.083143
-0.26183769 -0.33283979 0.86898732
-0.32013771 -0.33939189 0.91877699
-0.35840559 -0.33794141 0.88000119
-0.39910081 -0.33830771 0.83888882
-0.2370453 -0.48259291 0.92053759
-0.30391219 -0.34715801 0.95628101
-0.2433781 -0.51870167 0.92794359
-0.3036184 -0.3364335 1.006471
-0.35794491 -0.33810911 0.93058199
-0.43640721 -0.3409048 0.87336159
-0.2331153 -0.5054813 0.89658612
-0.2445145 -0.5378713 0.94193423
-0.29699111 -0.47097659 1.060343
-0.25520089 -0.34327829 0.96207827
-0.330926 -0.34010911 0.98431867
-0.36677989 -0.33733869 0.98456562
-0.3019526 -0.33898571 1.0292571
-0.24981619 -0.44513029 0.95277101
-0.27583441 -0.4425346 1.010922
-0.26909661 -0.44790041 0.99129528
-0.2786859 -0.33932781 0.91729653
-0.23033071 -0.39714831 0.9016794
-0.22423521 -0.50129598 0.87983441
-0.2269782 -0.52760798 0.88694167
-0.24823549 -0.44499791 0.93016022
-0.2662783 -0.42956671 0.97127229
-0.28291091 -0.3372463 1.005854
-0.297674 -0.40331089 1.062764
-0.28744379 -0.38871431 1.040823
-0.4498871 -0.33673611 0.94612902
-0.26084101 -0.42933059 0.96834773
-0.4327037 -0.33758631 1.027566
-0.2970899 -0.33496749 0.99647141
-0.47023451 -0.33723891 0.92276448
-0.3186343 -0.33917359 1.001649
-0.31292799 -0.33767679 1.080488
-0.3007493 -0.34327069 0.89388531
-0.2971158 -0.33682129 1.0640301
-0.3737075 -0.3376109 1.039162
-0.37106451 -0.3389838 0.91740972
-0.25923961 -0.3381542 0.94405562
-0.3000567 -0.41778651 1.066206
-0.26658189 -0.33772129 0.9389028
-0.27079499 -0.46458659 0.99276781
-0.2767145 -0.34086171 1.0024689
-0.29751289 -0.50129682 1.057407
-0.3169446 -0.49537641 1.078271
-0.29586771 -0.57233489 1.05653
-0.28158429 -0.3393538 1.017583
-0.30461541 -0.35920721 1.076947
-0.31111789 -0.45031291 1.078164
-0.3536596 -0.34008729 1.065485
-0.39598769 -0.39702529 1.047411
-0.23644949 -0.48398951 0.91504312
-0.31113049 -0.46490791 1.074586
-0.2704213 -0.42768201 0.98466909
-0.26906461 -0.55971628 0.98050392
-0.2269915 -0.4905338 0.8836953
-0.33021691 -0.48691389 1.075351
-0.23422571 -0.45676449 0.90713543
-0.2746543 -0.43510801 1.010289
-0.25090861 -0.4872236 0.93714261
-0.26473859 -0.58429468 0.9833951
-0.2321136 -0.44281319 0.89749599
-0.40906769 -0.33650461 1.035563
-0.29996741 -0.47525001 1.071978
-0.27931339 -0.50197172 1.0134799
-0.23222581 -0.50774437 0.89774752
-0.3241109 -0.39188331 1.075857
-0.33209541 -0.52426082 1.074438
-0.33892629 -0.35557061 1.067305
-0.32355499 -0.3373729 0.88055569
-0.30853489 -0.3355636 0.98486239
-0.26183689 -0.33454609 0.96878362
-0.26001871 -0.39402169 0.96570039
-0.26719531 -0.3952361 0.98172438
-0.32322219 -0.47159401 1.07863
-0.2656951 -0.41525409 0.97876692
-0.4279741 -0.58180481 1.035004
-0.26614821 -0.34146741 0.98093772
-0.254197 -0.41061249 0.94884127
-0.2272893 -0.45509261 0.88650239
-0.26950449 -0.47608069 0.98255271
-0.34445831 -0.39361539 1.068499
-0.2329738 -0.37356409 0.90016103
-0.39543369 -0.34147191 0.91327947
-0.46496829 -0.46437621 1.017259
-0.33552131 -0.4083977 1.0729181
-0.2790193 -0.52819818 1.041486
-0.31943151 -0.35673481 1.0802211
-0.25988129 -0.41931331 0.96727842
-0.39132911 -0.41270989 1.047068
-0.4544079 -0.34015441 0.86373007
-0.4696162 -0.38291839 1.01273
-0.40511009 -0.43522209 1.04398
-0.36961871 -0.43900949 1.053992
-0.3727493 -0.51429307 1.054716
-0.42754301 -0.55067068 1.026945
-0.35597429 -0.3796227 1.061155
-0.28874949 -0.42321211 1.035398
-0.24760149 -0.35588679 0.93516248
-0.36350241 -0.33671319 1.024915
-0.31893069 -0.48142639 1.077177
-0.44488621 -0.4195272 1.0207911
-0.32268679 -0.512169 1.078138
-0.44407889 -0.58084178 1.026421
-0.4559657 -0.33852491 0.99896049
-0.24331661 -0.34410119 0.86510938
-0.367652 -0.33626801 1.000561
-0.39078811 -0.3383463 0.98551053
-0.3662526 -0.33454949 0.97050548
-0.4423795 -0.356433 1.024477
-0.44221249 -0.33780071 1.030237
-0.4971166 -0.4677493 1.006573
-0.37230489 -0.57774663 1.060638
-0.46693641 -0.48006549 1.014015
-0.43911949 -0.4011651 1.026632
-0.449586 -0.38508451 1.021191
-0.50195652 -0.50383312 0.99977958
-0.3633146 -0.36583251 1.058219
-0.41669339 -0.4062396 1.034335
-0.3466146 -0.36680251 1.066848
-0.3323718 -0.3364543 0.88098222
-0.2552557 -0.47775149 0.96307921
-0.22606879 -0.42173871 0.87546128
-0.2378322 -0.41646269 0.91708988
-0.26020089 -0.52637452 0.962201
-0.353834 -0.35107341 1.060894
-0.26121461 -0.36872181 0.96497238
-0.40448219 -0.56576192 1.046291
-0.42357829 -0.4429363 1.0383919
-0.3476156 -0.3530654 1.065521
-0.3194913 -0.3501642 1.08091
-0.29292241 -0.35774341 1.043187
-0.41073939 -0.37022781 1.039392
-0.40953299 -0.42524001 1.037514
-0.40463659 -0.33762431 0.82164007
-0.4188461 -0.33802819 1.032667
-0.42249101 -0.34110609 0.79359251
-0.37646869 -0.3393704 0.85580862
-0.48267639 -0.34885141 0.97719008
-0.42514071 -0.33280101 0.90975738
-0.42467949 -0.33667389 0.81111342
-0.36466661 -0.33435979 1.043887
-0.36569819 -0.51281053 1.0584821
-0.46242601 -0.46332589 1.016958
-0.43802249 -0.3774316 1.026808
-0.33496219 -0.35572541 1.069273
-0.28817001 -0.33275139 0.87613362
-0.32984361 -0.3373864 0.86153388
-0.2884661 -0.34145749 1.0341901
-0.28528371 -0.48476261 1.0315109
-0.2686967 -0.49480501 0.98369187
-0.22735091 -0.56600517 0.88444293
-0.29459801 -0.3366724 1.023689
-0.27286679 -0.51075608 0.99178928
-0.3147077 -0.34444779 1.083181
-0.26031739 -0.35480249 0.96030408
-0.26288581 -0.50291532 0.97321111
-0.2215905 -0.58612102 0.87477392
-0.41030559 -0.3971515 1.033372
-0.2872389 -0.38868639 1.02587
-0.40509319 -0.40987921 1.043283
-0.2726106 -0.5303939 0.9996351
-0.46735719 -0.61564982 1.014714
-0.48377439 -0.42583519 1.00629
-0.45886031 -0.36340359 1.01766
-0.44529861 -0.39155599 1.02689
-0.37773639 -0.3352147 1.028476
-0.2462272 -0.51261479 0.95692968
-0.2417994 -0.50635833 0.93228418
-0.46357679 -0.57082331 1.018119
-0.37990561 -0.60639668 1.058794
-0.240071 -0.61346602 0.91452771
-0.4193247 -0.56994152 1.03672
-0.32227471 -0.56704468 1.076221
-0.32141411 -0.54584652 1.0791399
-0.39394379 -0.33590809 1.006678
-0.4023993 -0.33640441 1.009023
-0.42343849 -0.33993989 0.82263589
-0.44175571 -0.33640751 0.84629679
-0.43758649 -0.33452809 0.84382349
-0.40862179 -0.33891401 0.87446612
-0.37837929 -0.3662397 1.054724
-0.2858865 -0.33973119 0.9200272
-0.3342554 -0.33655959 0.84786302
-0.3328616 -0.33677661 0.83460897
-0.23184779 -0.33954939 0.88987088
-0.24285001 -0.37853849 0.92035723
-0.2421781 -0.37484211 0.92269331
-0.235486 -0.38552561 0.9016369
-0.46822071 -0.6112839 1.01695
-0.4585039 -0.47001469 1.017019
-0.3953867 -0.33894631 0.89920038
-0.43201709 -0.33336279 0.83092189
-0.4027465 -0.37146109 1.03655
-0.3153992 -0.3431696 0.98331112
-0.3005192 -0.33928129 1.048205
-0.3047953 -0.48917881 1.064106
-0.30460551 -0.55938143 1.071216
-0.3076399 -0.38707939 1.08065
-0.3033627 -0.42005891 1.078912
-0.2836321 -0.33432671 1.000661
-0.30307451 -0.33909339 1.025825
-0.35520339 -0.34096891 1.061011
-0.32001641 -0.33677289 0.98797011
-0.25506189 -0.42775229 0.94730932
-0.30948371 -0.33641079 1.076678
-0.300244 -0.33696651 1.028607
-0.25593999 -0.48541451 0.96586913
-0.2583831 -0.38893101 0.96750522
-0.25894871 -0.336815 0.94603401
-0.25918499 -0.3422454 0.96302563
-0.25761709 -0.48924199 1.002519
-0.26536441 -0.58610022 0.9847579
-0.41519469 -0.33954349 0.96883512
-0.22255979 -0.52571201 0.88489687
-0.28547871 -0.41714841 1.043559
-0.28724 -0.34113961 0.89302248
-0.27780211 -0.33851129 0.91628009
-0.23943029 -0.37388119 0.92570668
-0.2649619 -0.34114659 0.98341119
-0.2493178 -0.44503099 0.95314962
-0.2302593 -0.44071981 0.90323287
-0.25952399 -0.39544001 0.96656072
-0.2471265 -0.5757674 0.95102161
-0.27910441 -0.61276191 1.034111
-0.25807881 -0.4446699 0.94723338
-0.2508879 -0.53726238 0.95140672
-0.2265681 -0.49099511 0.88582021
-0.25824821 -0.57572091 0.96655548
-0.2560944 -0.5427677 0.97105157
-0.2482131 -0.51699799 0.94294238
-0.29891151 -0.37615839 1.066573
-0.253912 -0.41117781 0.94881248
-0.49041119 -0.33701569 0.9477815
-0.41320229 -0.337796 0.95361948
-0.43280321 -0.3376365 1.028704
-0.29557011 -0.33464479 0.9986158
-0.3166174 -0.3368198 0.96444511
-0.2877427 -0.34343681 1.037598
-0.3640866 -0.3338958 1.048364
-0.2758348 -0.34197351 1.005299
-0.29550499 -0.49642041 1.066703
-0.2518805 -0.3378126 0.87585288
-0.25819549 -0.34622189 0.96003199
-0.28431359 -0.33810729 0.86055177
-0.2296212 -0.37540671 0.90655351
-0.22407719 -0.35979059 0.87976247
-0.2296354 -0.33790421 0.89504153
-0.2293334 -0.43568879 0.89924401
-0.2267185 -0.57445729 0.87731749
-0.2185076 -0.52676523 0.87665689
-0.2258008 -0.60124171 0.88047618
-0.24089061 -0.44861111 0.93507439
-0.22172479 -0.60517317 0.91665852
-0.24311499 -0.56612623 0.93905753
-0.2418578 -0.46685839 0.9420684
-0.22824059 -0.46904889 0.8883276
-0.2369139 -0.50630838 0.93547893
-0.22109839 -0.38961399 0.88084602
-0.2373444 -0.44077119 0.92585373
-0.2469504 -0.49552929 0.94989449
-0.23088761 -0.61511397 0.88933569
-0.2314775 -0.4670876 0.90870237
-0.37578049 -0.3356134 0.99193561
-0.27603421 -0.3459385 1.006417
-0.26374409 -0.58063048 0.99098819
-0.2289674 -0.58337528 0.90395272
-0.2991572 -0.33511189 1.054855
-0.45097861 -0.33554009 0.94345808
-0.370855 -0.3387894 0.91588849
-0.30852249 -0.33267081 1.03099
-0.3660436 -0.3333323 0.93207932
-0.33107191 -0.33764029 0.89495468
-0.3400825 -0.3382813 0.91919923
-0.29966959 -0.34284121 1.06383
-0.36873689 -0.3348757 1.0472569
-0.346558 -0.3350333 0.91899031
-0.2995598 -0.33960849 1.061886
-0.2711944 -0.34046409 0.95937932
-0.30310029 -0.33880809 1.080313
-0.29300049 -0.6163072 1.057785
-0.25131509 -0.61601472 0.96727651
-0.2657719 -0.48745719 0.99459553
-0.2499319 -0.57765567 0.96476018
-0.30285609 -0.48170301 1.074178
-0.28223571 -0.6156987 1.0281579
-0.3134799 -0.41524169 1.0784889
-0.29199791 -0.33767349 0.8905313
-0.2246116 -0.4761911 0.8776859
-0.25905681 -0.33795959 0.92853802
-0.2278087 -0.39383471 0.90405202
-0.246676 -0.37535131 0.94292551
-0.2277654 -0.3465583 0.89828068
-0.2319677 -0.45617691 0.91051388
-0.23846801 -0.34459639 0.91026592
-0.2485798 -0.46578041 0.94500601
-0.2236333 -0.50253361 0.87840497
-0.2328947 -0.47640711 0.92480117
-0.2253155 -0.52312452 0.87861103
-0.2426734 -0.5876385 0.93738151
-0.24858589 -0.48436731 0.94306862
-0.2183594 -0.58195019 0.87806809
-0.2473985 -0.54629278 0.95289278
-0.2423065 -0.48884571 0.93911278
-0.2376489 -0.57410258 0.93411702
-0.2395301 -0.55617779 0.92101729
-0.24705669 -0.52951682 0.9555186
-0.22991879 -0.51850098 0.92269713
-0.2263808 -0.5333941 0.89642358
-0.25082859 -0.50456083 0.95308292
-0.31530699 -0.3400214 1.0355231
-0.40322229 -0.32804 1.034408
-0.2596249 -0.49450019 0.99887729
-0.2905722 -0.44763479 1.051838
-0.2458256 -0.39387861 0.93740731
-0.2283624 -0.55529201 0.89673549
-0.33714429 -0.33729339 0.91025192
-0.4680436 -0.3363241 0.92471498
-0.38006669 -0.33676609 0.90557551
-0.29660499 -0.430655 1.063841
-0.22745921 -0.48872769 0.89741182
-0.23159049 -0.3468419 0.90778959
-0.32941309 -0.33748531 0.96447837
-0.2286237 -0.4096815 0.90120947
-0.24626321 -0.38152349 0.93245882
-0.31423929 -0.33705601 1.0814199
-0.26313901 -0.53778642 0.99480081
-0.3052766 -0.59198582 1.07733
-0.4585602 -0.33586001 0.92300838
-0.29854679 -0.4558689 1.067548
-0.2552444 -0.4953652 0.96745652
-0.29123381 -0.48148781 1.058639
-0.2251246 -0.39732081 0.8903771
-0.29068109 -0.46695229 1.045983
-0.2935383 -0.45947301 1.058635
-0.224199 -0.34749091 0.89077252
-0.31584099 -0.33233571 0.95914418
-0.30277419 -0.43557531 1.080349
-0.25142831 -0.41896221 0.95434278
-0.29446051 -0.58547539 1.060634
-0.2401177 -0.53508872 0.93061697
-0.3074196 -0.3368746 1.062422
-0.2829507 -0.41693309 1.04168
-0.3323743 -0.33866799 0.87742388
-0.37887129 -0.33567479 1.027141
-0.41422659 -0.33774111 0.84357822
-0.39105889 -0.33603859 0.90609717
-0.42404309 -0.33713391 0.81037748
-0.34109581 -0.33857611 0.95275909
-0.38084099 -0.33908471 0.81765699
-0.36931011 -0.33790699 0.81671542
-0.49052811 -0.3368409 0.96829069
-0.49630871 -0.3381795 0.97964251
-0.38959709 -0.3363269 0.81123531
-0.26901001 -0.44993559 0.99245238
-0.2702058 -0.44519731 0.99256462
-0.2822279 -0.4291732 1.017679
-0.2980006 -0.40145379 1.064649
-0.28030851 -0.42548349 1.023036
-0.29914951 -0.43125221 1.067961
-0.25215769 -0.45449051 0.96549481
-0.32617411 -0.33522519 0.85276061
-0.2545 -0.3361921 0.87963188
-0.2841922 -0.33643299 0.90718901
-0.2290594 -0.4210352 0.87895358
-0.25514799 -0.33698291 0.93627328
-0.2388082 -0.3485992 0.91782612
-0.3189964 -0.335374 0.84128481
-0.2326529 -0.4331083 0.92589653
-0.2388005 -0.37257969 0.91257387
-0.22548249 -0.474282 0.88256311
-0.2274967 -0.4781459 0.88851893
-0.2229339 -0.50493491 0.88872808
-0.22983889 -0.5035587 0.90201873
-0.22615279 -0.55548739 0.88534367
-0.22588719 -0.60149008 0.89813298
-0.2314537 -0.54299438 0.9046576
-0.2668283 -0.4299781 0.98820472
-0.2679278 -0.4686307 0.99101311
-0.28814289 -0.59310901 1.046899
-0.27098581 -0.57189512 0.97090858
-0.38980791 -0.3391313 0.91493428
-0.2343915 -0.49497241 0.92251718
-0.23766071 -0.46502489 0.9294492
-0.27853331 -0.4380441 1.021134
-0.22295719 -0.4211179 0.88944131
-0.2432763 -0.53983039 0.94057548
-0.28729549 -0.3395009 1.039407
-0.42092231 -0.34073159 0.82471222
-0.40595469 -0.34406671 0.84295177
-0.49680769 -0.33987689 0.95420092
-0.3902984 -0.33221269 1.038255
-0.29055741 -0.4095439 1.047786
-0.46039829 -0.33881131 1.011181
-0.37366059 -0.33084181 0.85234642
-0.30203861 -0.40395299 1.070855
-0.3289316 -0.33425131 1.064942
-0.29607341 -0.36399111 1.052978
-0.41966751 -0.33997169 0.79711998
-0.4309434 -0.33515719 0.84736031
-0.25573459 -0.57220852 0.9827987
-0.3002508 -0.34016061 1.072516
-0.42914459 -0.33187541 0.85621828
-0.29190949 -0.42909411 1.046882
-0.29224601 -0.60407943 1.053436
-0.28447291 -0.38602519 1.04277
-0.28695679 -0.3878645 1.043882
-0.29489219 -0.36919111 1.060993
-0.2670396 -0.39782211 0.9816578
-0.2454441 -0.57199341 0.96452153
-0.32692239 -0.33611351 0.89767498
-0.3175464 -0.33760881 0.96366262
-0.33463711 -0.334654 1.054361
-0.2241905 -0.4725107 0.88533461
-0.2195437 -0.4840669 0.88637477
-0.3442665 -0.33268899 0.92234719
0.040658619 -0.48177141 0.75637603
-0.33011359 -0.33772719 0.85016912
-0.21963809 -0.48422119 0.88650483
-0.2603901 -0.33911321 0.88133228
-0.28017479 -0.337423 0.9438256
-0.41366449 -0.3358331 0.95827979
-0.2752535 -0.33030999 0.91700399
-0.24777851 -0.35273159 0.87134081
-0.29051009 -0.3481127 1.006996
-0.31059629 -0.33637109 0.90255588
-0.28931111 -0.32616049 1.025126
-0.25438431 -0.32819739 0.94881427
-0.28941429 -0.33328161 1.061615
-0.33021829 -0.32670099 0.97417039
-0.22577649 -0.48188639 0.87188768
-0.2198851 -0.4943414 0.87685972
-0.2151262 -0.51334828 0.88308221
-0.21374521 -0.55468309 0.87768131
-0.26602641 -0.52298671 1.003116
-0.36657169 -0.3320227 0.86172062
0.044083059 -0.47732139 0.7546941
-0.229232 -0.53412223 0.87126708
-0.230639 -0.3605172 0.872307
-0.2281602 -0.45202231 0.86871761
-0.2283843 -0.59406948 0.87224859
-0.29893509 -0.33761159 0.89990079
-0.2261878 -0.39544699 0.8785845
-0.278247 -0.3365387 0.89653921
-0.4895235 -0.34285641 0.97210127
-0.28497589 -0.34125909 0.92915058
-0.34961289 -0.33704209 0.83837777
-0.31800771 -0.47599551 0.84632832
-0.28529021 -0.34184161 0.88631409
-0.28226021 -0.3400853 1.0018719
-0.41073439 -0.39676741 0.79440188
-0.2688486 -0.40955639 0.8621465
-0.27059069 -0.3453306 0.86192667
-0.47205231 -0.34471801 0.918966
-0.37860319 -0.3713879 0.82079601
-0.28129411 -0.41949421 0.84828079
-0.2510601 -0.44168991 0.86451441
-0.3366366 -0.6023733 0.81950748
-0.2324875 -0.57150573 0.87776339
-0.26837879 -0.47186309 0.85541129
-0.2263882 -0.43998179 0.8745085
-0.24495821 -0.3527478 0.87239182
-0.33742079 -0.38550371 0.83297658
-0.33655679 -0.39097571 0.82765132
-0.30312961 -0.33608931 0.83765209
-0.37744129 -0.33942121 0.82623112
-0.3747153 -0.33831531 0.89902699
-0.286715 -0.4665364 0.84408122
-0.40078869 -0.3365159 0.86651647
-0.4519406 -0.3366808 0.9963187
-0.3722623 -0.35399339 0.82355231
-0.42859551 -0.3442589 0.97037768
-0.41177309 -0.334705 0.97438961
-0.30641729 -0.3785716 0.83783352
-0.39103749 -0.56010199 0.79719579
-0.28556809 -0.51513052 0.84465718
-0.3778806 -0.53324682 0.80679822
-0.2733005 -0.55489808 0.84887707
-0.39237669 -0.57908988 0.78718901
-0.3786276 -0.4173252 0.8140316
-0.45334861 -0.34918761 0.88180608
-0.26949659 -0.58607107 0.85349602
-0.34565309 -0.394077 0.82140052
-0.3994635 -0.3441619 0.79864198
-0.37915581 -0.3363454 0.88371313
-0.2801846 -0.3431581 0.88235772
-0.31815091 -0.41583219 0.84118718
-0.35717359 -0.48004949 0.82131499
-0.4124445 -0.50820309 0.80292922
-0.27275619 -0.3368372 0.96699691
-0.3169696 -0.33460549 0.9347055
-0.25925201 -0.34395349 0.94339371
-0.2423598 -0.3980405 0.86612421
-0.39125019 -0.35080239 0.88021958
-0.4914178 -0.34208339 0.99379921
-0.35992959 -0.3356711 0.82980812
-0.39356881 -0.45222089 0.80338502
-0.3578907 -0.3687692 0.81896889
-0.31513691 -0.47628689 0.83639687
-0.36247239 -0.53934598 0.81255633
-0.33527809 -0.53770411 0.82436693
-0.4650591 -0.33430159 0.96599293
-0.36358801 -0.5291847 0.82374609
-0.32869041 -0.41908711 0.83345848
-0.4236697 -0.5623194 0.80030578
-0.23522849 -0.39403281 0.87182432
-0.37656751 -0.36811849 0.8107866
-0.34426761 -0.43324921 0.82136917
-0.28949541 -0.45060849 0.84107763
-0.31616989 -0.34020951 0.82847112
-0.41584131 -0.6004948 0.78317219
-0.25537911 -0.42248279 0.87021321
-0.2438653 -0.60373092 0.84994018
-0.2595517 -0.43513489 0.84877968
-0.45415151 -0.35021901 0.85388678
-0.3863802 -0.61528939 0.79827559
-0.35344759 -0.45161301 0.81782663
-0.40154561 -0.44230479 0.80350411
-0.2941311 -0.4788332 0.83513588
-0.2676582 -0.4635984 0.8489846
-0.44293171 -0.35610411 0.84156787
-0.34760329 -0.40951559 0.8168
-0.28069019 -0.38351831 0.85544229
-0.32063341 -0.45815861 0.82986742
-0.4479785 -0.34754589 0.83262563
-0.4184559 -0.4016203 0.78797537
-0.29681039 -0.3323999 0.9547075
-0.3688646 -0.33974481 0.96785748
-0.24209 -0.47378081 0.86560148
-0.2305731 -0.3392069 0.87643212
-0.2276455 -0.47436759 0.86466938
-0.25412571 -0.53280491 0.8576237
-0.44940811 -0.3339999 0.98450547
-0.46704331 -0.3387166 0.89658803
-0.38993251 -0.44981119 0.79202938
-0.36903009 -0.38502139 0.81473529
-0.40852469 -0.6164735 0.78682393
-0.40020341 -0.41933411 0.795075
-0.29140639 -0.55604511 0.84388512
-0.3672953 -0.50946069 0.81292212
-0.47994861 -0.34539229 0.9723587
-0.32372129 -0.50647521 0.83279359
-0.379711 -0.47918701 0.80792981
-0.25393379 -0.55985481 0.85413051
-0.42149261 -0.3758851 0.79325408
-0.41664931 -0.4179872 0.79559529
-0.35491949 -0.337984 0.88741839
-0.26350459 -0.4062098 0.86045909
-0.2466294 -0.58791232 0.86277562
-0.30130371 -0.33444291 1.037744
-0.26861581 -0.53027529 0.85408521
-0.48271239 -0.333904 0.99891281
-0.36678451 -0.3393237 0.86762619
-0.35054719 -0.36724961 0.81472731
-0.34141389 -0.33409059 0.88944328
-0.36655441 -0.35515079 0.82068872
-0.41017741 -0.39806399 0.79038692
-0.3135682 -0.39366889 0.83641863
-0.3323223 -0.44640079 0.83826798
-0.3584201 -0.3403562 0.92861098
-0.38240501 -0.451913 0.80687118
-0.35253921 -0.51364893 0.81549323
-0.40658849 -0.55531019 0.8060627
-0.40282819 -0.33792639 0.9676491
-0.3168219 -0.34122169 0.86478949
-0.28445131 -0.42449871 0.84351552
-0.2836706 -0.339109 0.94673198
-0.3425976 -0.33879071 1.001806
-0.3577311 -0.34595591 0.99082577
-0.25486571 -0.33962861 0.88405979
-0.28919521 -0.33906871 0.88004279
-0.2738654 -0.3676165 0.85493529
-0.2752873 -0.5590921 0.85248601
-0.2257884 -0.4991926 0.87628287
-0.25484949 -0.44752091 0.85650522
0.04524922 -0.4881005 0.74224353
-0.25670421 -0.4313606 0.85982621
-0.23131201 -0.57037508 0.87697899
-0.24092039 -0.45529521 0.86308128
-0.2634182 -0.36058459 0.85879523
-0.26904061 -0.38363421 0.8543784
-0.2303354 -0.4200224 0.86901391
-0.2579616 -0.33995819 0.86582458
-0.23463731 -0.35447189 0.87208492
-0.27065909 -0.4181273 0.85457981
-0.24078649 -0.60337108 0.8650105
-0.26452789 -0.42176229 0.85681891
-0.22834469 -0.3680591 0.87736821
-0.2298436 -0.43301889 0.86311042
-0.2340124 -0.42011181 0.86785883
-0.224805 -0.33707479 0.88116002
-0.25574419 -0.54365051 0.85197562
-0.31329069 -0.33321539 0.91431308
-0.3663981 -0.33012211 0.9157654
-0.3431592 -0.33816209 0.87614799
-0.32980099 -0.3372432 0.88481939
-0.43566269 -0.33488929 0.95392191
-0.3959074 -0.3368527 0.92317158
-0.35522199 -0.3378419 0.90484607
-0.4913004 -0.33575949 0.96303499
-0.37096539 -0.34492001 0.92305249
-0.4413909 -0.34181571 0.8498503
-0.47716889 -0.3376435 0.9497087
-0.3557691 -0.33446571 0.83792013
-0.33190069 -0.33725971 0.86442471
-0.38225901 -0.33634251 0.82771927
-0.368384 -0.34038049 0.84920442
-0.40422821 -0.33740821 0.82233292
-0.42906779 -0.34054631 0.80961072
-0.3652159 -0.43259341 0.81399548
-0.30551839 -0.54776138 0.83576697
-0.3468878 -0.33940291 0.86381412
-0.30351311 -0.57693273 0.83149087
-0.28360739 -0.37363741 0.85374242
-0.41658011 -0.38419911 0.79756433
-0.3960309 -0.51748282 0.78866392
-0.2698954 -0.32528871 0.94774681
-0.28932089 -0.42934591 0.81568682
-0.37220779 -0.35509089 0.78897071
-0.36120149 -0.4482646 0.82110709
-0.28125501 -0.36453509 0.85640079
-0.27247339 -0.56935263 0.84351867
-0.2476213 -0.4038569 0.86021489
-0.3760604 -0.42630669 0.8195833
-0.26557621 -0.49671701 0.85649282
-0.30835691 -0.4325968 0.84800547
-0.39259329 -0.43392491 0.79597813
-0.49699339 -0.3430846 0.93854529
-0.25685751 -0.4229514 0.86758238
0.05066837 -0.47827101 0.74145031
-0.33876911 -0.33009791 0.93000829
-0.34724221 -0.4575932 0.81765109
-0.25726289 -0.36382791 0.85794258
-0.424373 -0.45496121 0.81208777
-0.33055031 -0.34251061 0.83353692
-0.39751369 -0.35681209 0.80303347
-0.42185849 -0.36219969 0.80019832
-0.40424791 -0.38141131 0.79707509
-0.42404959 -0.3473931 0.80087471
-0.30633011 -0.3987163 0.84538871
-0.38180971 -0.45193839 0.80955148
-0.30380821 -0.50498068 0.83862263
-0.32959571 -0.36192411 0.82776302
-0.36774409 -0.40501481 0.81849033
-0.39828181 -0.33438861 1.011957
-0.33033979 -0.33592561 0.8498975
-0.2649788 -0.4026289 0.85565501
-0.2469295 -0.39593169 0.86621863
-0.2353615 -0.3654941 0.8716135
-0.2507433 -0.4042303 0.86295068
-0.27578041 -0.39521071 0.8549704
-0.25460231 -0.38753471 0.86463249
-0.40323961 -0.34405029 0.80067527
-0.24768791 -0.34653869 0.86680478
-0.41787609 -0.3808004 0.79302841
