# .PCD v0.7 - Point Cloud Data file format
VERSION 0.7
FIELDS x y z normal_x normal_y normal_z curvature
SIZE 4 4 4 4 4 4 4
TYPE F F F F F F F
COUNT 1 1 1 1 1 1 1
WIDTH 592
HEIGHT 1
VIEWPOINT 0 0 0 1 0 0 0
POINTS 592
DATA ascii
-0.3042312 -0.34600708 1.0699747 0.38031763 0.55215901 0.7419427 0.1321508
-0.31001738 -0.43813336 1.0730662 0.58819515 0.043805402 0.80753171 0.045058571
-0.33975965 -0.3379257 0.95605773 0.025908548 0.99966419 0.00047912003 0.0010885433
-0.311364 -0.5053615 1.0708182 0.42600307 -0.031932659 0.904158 0.062554628
-0.30642846 -0.55614108 1.0687532 0.46849522 -0.039705385 0.88257331 0.043586064
-0.31337297 -0.57195491 1.0740911 0.34213087 -0.11604198 0.93245953 0.070629068
-0.29033789 -0.53220415 1.0496852 0.76335233 -0.0098597156 0.6459071 0.03954028
-0.29388624 -0.48981893 1.0517412 0.76429653 -0.024380967 0.64440382 0.041662432
-0.26061323 -0.34396455 0.87766922 0.53002411 0.74371707 -0.40738103 0.080731414
-0.25892079 -0.34357065 0.88050938 0.53619027 0.76441127 -0.35801575 0.080475815
-0.23428717 -0.47094113 0.91067624 0.98210078 0.078661747 0.1711441 0.034260433
-0.23521094 -0.43653965 0.88248569 0.96823001 0.10936024 -0.22487979 0.063029535
-0.29156989 -0.52220589 1.0512787 0.7484284 -0.0065982845 0.6631828 0.042014144
-0.23495594 -0.34809959 0.89894229 0.76665342 0.60908705 -0.20311454 0.0834824
-0.30041873 -0.34161985 0.86636239 0.24402033 0.84023494 -0.48421004 0.057596631
-0.29985803 -0.4325968 1.0636941 0.65963739 0.026582865 0.75111377 0.049924809
-0.22961572 -0.49597207 0.89936918 0.9905327 0.029776789 0.13400877 0.034559622
-0.26643679 -0.59213138 0.98728812 0.86439282 -0.37327707 0.33688167 0.092034936
-0.33358496 -0.34214953 1.0617347 0.047307659 0.81228936 0.58133292 0.12023766
-0.33453479 -0.34407061 1.0632628 0.015506257 0.79334122 0.60857964 0.12500162
-0.41363886 -0.34047017 0.95298195 -0.073160045 0.99716628 -0.017524036 0.047770981
-0.2838107 -0.33985937 0.96040893 0.32434413 0.94564885 0.023431502 0.056429576
-0.30268025 -0.49865088 1.0629028 0.64331877 -0.048769109 0.76404357 0.070388667
-0.31222332 -0.41173938 1.0726349 0.43736672 0.028380286 0.8988353 0.046257664
-0.29110733 -0.59673309 1.0469613 0.71129978 -0.40701947 0.57305127 0.11291753
-0.32768786 -0.33835283 0.88215971 0.078508891 0.96313566 -0.25730547 0.043262869
-0.29845616 -0.3387416 0.88847351 0.21354108 0.95082802 -0.22433494 0.048929766
-0.2928054 -0.34408584 0.86110014 0.28393477 0.78212547 -0.55467182 0.067627527
-0.2395716 -0.35206047 0.89690787 0.76671064 0.60608435 -0.21169914 0.088718392
-0.32576203 -0.33838511 0.86803371 0.099923767 0.93387294 -0.34336072 0.048486095
-0.22798201 -0.49769515 0.89121974 0.99932742 0.036421273 -0.0042645242 0.045079291
-0.34553063 -0.33848438 0.93882751 -0.014115674 0.99984384 -0.010629511 0.002909912
-0.34838483 -0.33796763 0.92153579 -0.033800818 0.99930108 -0.015964501 0.0086544827
-0.23400815 -0.38688618 0.90588391 0.9536162 0.29654425 -0.051745746 0.069492087
-0.39875391 -0.33701479 1.0121694 -0.1849464 0.93996119 0.28682378 0.06184309
-0.38159454 -0.33721617 1.0287921 -0.15592006 0.92616045 0.34338868 0.056284498
-0.3594968 -0.33736169 1.0034821 -0.042285684 0.99221909 0.11710343 0.015978759
-0.45109519 -0.34391898 0.88641459 -0.40599853 0.90312672 -0.13974009 0.074721634
-0.26740777 -0.34558532 0.98425722 0.63228291 0.75947416 0.15302704 0.077748165
-0.31203696 -0.50274229 1.0712905 0.39827228 -0.018421393 0.91708225 0.061169229
-0.29868296 -0.56840795 1.0615022 0.60530257 -0.10385271 0.7891916 0.063898228
-0.26180404 -0.3429637 0.87564683 0.48170996 0.77669704 -0.4058291 0.075301029
-0.32010737 -0.33849579 0.91877437 0.063653119 0.99767786 -0.024232864 0.0059909704
-0.3583906 -0.33861586 0.88000244 0.001658023 0.97571516 -0.21903677 0.040301342
-0.39918837 -0.34083083 0.83897257 -0.024881296 0.93085158 -0.36454961 0.069205351
-0.2368734 -0.48259288 0.92059678 0.97014177 0.060651924 0.23483242 0.022849508
-0.3033835 -0.33922532 0.95608455 0.16175257 0.98676598 0.011354579 0.029260555
-0.24045183 -0.51865155 0.92900509 0.9539513 -0.004593309 0.29992634 0.0076205535
-0.3038677 -0.33843401 1.0065552 0.15351026 0.9831984 0.098769911 0.035266992
-0.35794857 -0.3389633 0.93052465 -0.037176266 0.99919856 -0.014830937 0.0093675591
-0.43638185 -0.34117043 0.87338114 -0.35552207 0.92823154 -0.10950006 0.057580478
-0.2293791 -0.50552356 0.89758497 0.99547511 0.024330106 0.091855258 0.043991309
-0.24471207 -0.53786886 0.94185352 0.9417628 -0.012387621 0.3360498 0.0014719875
-0.29828331 -0.47080445 1.0593407 0.74896348 -0.015831357 0.66242206 0.041603211
-0.26153839 -0.34872112 0.96010119 0.59771317 0.79109806 0.13001102 0.067203842
-0.33100432 -0.33781192 0.98429662 0.043856669 0.99895406 0.012939366 0.0029399542
-0.36678159 -0.33797315 0.98458576 -0.059762023 0.99701518 0.048880395 0.015061571
-0.30179939 -0.33816633 1.0292894 0.14833568 0.95845276 0.24364892 0.074477561
-0.25136149 -0.44530085 0.95201266 0.93345869 0.037431642 0.35672641 0.0015947083
-0.27632457 -0.44256437 1.0107517 0.90467221 0.025424849 0.425349 0.002086651
-0.26864114 -0.44786745 0.99147886 0.92196161 0.030466955 0.3860811 0.000246007
-0.27868113 -0.33925709 0.91729289 0.31571117 0.94602388 -0.073248461 0.050434358
-0.23363015 -0.39730996 0.90119469 0.97477102 0.20876227 -0.07899271 0.064731143
-0.22665079 -0.50145555 0.87975526 0.99289292 0.052544873 -0.10678373 0.056910079
-0.22622553 -0.52759188 0.88714594 0.99890208 -0.029662903 -0.036260433 0.052850585
-0.24305205 -0.4445523 0.93226105 0.96725088 0.058687646 0.24694426 0.019423801
-0.26225424 -0.42930618 0.97299832 0.92325002 0.038658269 0.38224977 0.00020254575
-0.28345257 -0.34077868 1.0059831 0.28289449 0.95430011 0.096343011 0.049622614
-0.29988521 -0.4034777 1.0607325 0.5940398 0.10404965 0.79767805 0.051972575
-0.28803349 -0.38873506 1.0405642 0.81449997 0.16435792 0.55639565 0.065367788
-0.45000669 -0.33915791 0.94639391 -0.17440256 0.98283225 -0.060204383 0.078506887
-0.26029384 -0.42928767 0.96858776 0.92398894 0.040159531 0.38030469 0.0002286355
-0.43036431 -0.34339267 1.0239573 -0.25808391 0.83177245 0.49147448 0.086135097
-0.29752085 -0.33874798 0.99655861 0.20146219 0.97690797 0.071161009 0.044237442
-0.46939272 -0.34200281 0.92324108 -0.37677655 0.90145993 -0.21309511 0.090033859
-0.31867474 -0.33751956 1.0016768 0.093937159 0.99040914 0.10131931 0.025800152
-0.31224236 -0.34467793 1.0771807 0.26280522 0.5146423 0.81613517 0.1310138
-0.30084106 -0.33894384 0.8939237 0.18702371 0.96967107 -0.15735358 0.03875719
-0.30128771 -0.3451128 1.0616747 0.37687278 0.64577007 0.66403908 0.1396535
-0.37358189 -0.34033674 1.0383826 -0.18864658 0.91544813 0.35548171 0.054322891
-0.37110603 -0.33813578 0.91740894 -0.073489077 0.99703646 -0.022751261 0.021860356
-0.26237652 -0.34410036 0.9439168 0.53567064 0.83532578 0.12364352 0.064221576
-0.30249265 -0.41818807 1.0634849 0.56924134 -0.021514645 0.82188892 0.037292827
-0.26723623 -0.3405042 0.93883008 0.40276748 0.91358185 0.056092519 0.055177964
-0.26788065 -0.46433821 0.99385566 0.91993803 0.031526674 0.39079425 0.00026111791
-0.27678335 -0.34128812 1.0024526 0.42668509 0.89581877 0.12429229 0.060564734
-0.29794526 -0.50129336 1.0570878 0.7039392 -0.028087983 0.7097047 0.062000513
-0.31835365 -0.49521896 1.0733105 0.33041432 -0.012016445 0.9437595 0.052829448
-0.29489672 -0.5723533 1.0573074 0.72460854 -0.089703947 0.68329763 0.06302318
-0.282076 -0.34179372 1.0174786 0.52009577 0.81964409 0.24017489 0.074914128
-0.3073433 -0.36003867 1.0696907 0.44613656 0.41602209 0.79239368 0.12112015
-0.31271106 -0.45021504 1.0736144 0.58414853 0.027922872 0.81116635 0.046427906
-0.34983376 -0.34377819 1.0588185 -0.079027355 0.82485712 0.55979055 0.10193112
-0.395022 -0.39712903 1.0456812 -0.41542998 0.25624397 0.87278688 0.044825748
-0.23528995 -0.48397157 0.91542363 0.97889495 0.058478408 0.19581863 0.028494356
-0.31239042 -0.46485096 1.072222 0.51718009 -0.035012715 0.85516018 0.059482776
-0.26699078 -0.42757043 0.98609507 0.92473328 0.035570931 0.37895015 0.0002617976
-0.26253879 -0.5598619 0.98322654 0.92207599 -0.088899903 0.37665996 0.020050498
-0.22724982 -0.49055532 0.88366616 0.99460173 0.040450417 -0.095557392 0.053446218
-0.33029392 -0.48694366 1.0745832 0.26424676 -0.043706145 0.96346426 0.043769918
-0.23277578 -0.45666856 0.90751153 0.98737514 0.10695195 0.11684021 0.040476106
-0.27590466 -0.43515268 1.0098814 0.90736979 0.03204542 0.41910991 0.0018537752
-0.24464411 -0.48717415 0.9399426 0.94662058 0.038482822 0.32004464 0.0050510452
-0.26454216 -0.58429223 0.98350811 0.87737596 -0.30033457 0.37417996 0.087831095
-0.23231569 -0.44282061 0.89747387 0.99117196 0.096691832 -0.090712443 0.066382989
-0.4085055 -0.34183556 1.0323552 -0.25938758 0.8722682 0.41456756 0.072614238
-0.3041229 -0.47511104 1.0672057 0.59398866 -0.023824153 0.80412054 0.05345194
-0.27537262 -0.50184029 1.0152183 0.89219564 0.016616048 0.45134339 0.0033823373
-0.2298184 -0.50771314 0.89841968 0.99547511 0.024330106 0.091855258 0.043991309
-0.32407296 -0.392225 1.0723032 0.19790252 0.16257691 0.96664542 0.076880887
-0.33277872 -0.52405113 1.0767395 0.21473636 -0.0048117852 0.97666019 0.046475235
-0.33922499 -0.35536987 1.0679963 -0.085768975 0.56181288 0.82280618 0.12159105
-0.32359335 -0.33860454 0.88054949 0.096339159 0.95839041 -0.26871282 0.04310881
-0.30886924 -0.33822906 0.98493505 0.16726434 0.98499531 0.042507078 0.038301408
-0.26501754 -0.34323335 0.96733022 0.57800817 0.80765373 0.11662812 0.07497444
-0.25986061 -0.3940241 0.96576703 0.90227938 0.19741955 0.38329804 0.031497516
-0.26614663 -0.39526021 0.98214 0.90421331 0.20847857 0.37273979 0.035934772
-0.32391798 -0.4716939 1.0748301 0.36914018 -0.042599931 0.92839694 0.048842497
-0.26474273 -0.41526771 0.97911543 0.92636985 0.065863013 0.37081143 0.0022825222
-0.42934126 -0.58167887 1.039667 -0.20287473 -0.73612136 0.64572996 0.085788861
-0.26746878 -0.34431881 0.98042911 0.62189198 0.7681787 0.15215787 0.079660788
-0.25221443 -0.41062555 0.94980264 0.93034542 0.10382177 0.35167933 0.0074111731
-0.23008141 -0.45517978 0.88676757 0.98045981 0.12125078 -0.15490913 0.061216906
-0.26415598 -0.47586372 0.9846161 0.92121243 0.030570388 0.38785711 0.00012400387
-0.34488109 -0.39347625 1.0699891 -0.15032901 0.1225732 0.98100811 0.069046028
-0.23330785 -0.37358633 0.90011251 0.91627026 0.38707256 -0.10307027 0.080805622
-0.39559266 -0.33906317 0.91311646 -0.066574715 0.99756634 -0.020715104 0.023947425
-0.46583298 -0.46484408 1.0199229 -0.63906229 0.12290681 0.75927156 0.077277683
-0.33553213 -0.40834895 1.0732399 0.054291844 0.039161496 0.99775684 0.041086324
-0.2852065 -0.52870125 1.0386992 0.82433027 -0.016433684 0.56587052 0.019304385
-0.31872261 -0.35858828 1.0723295 0.25784004 0.44689697 0.85662228 0.1276677
-0.25994614 -0.41931537 0.967251 0.92176741 0.059537355 0.38314494 0.0010062999
-0.39115787 -0.41271749 1.0466807 -0.45069045 0.12215145 0.88428342 0.025490222
-0.44835851 -0.34350479 0.86631662 -0.42912537 0.89371592 -0.13085589 0.062290531
-0.47117576 -0.38278764 1.017459 -0.57183939 0.27922094 0.77138531 0.11364383
-0.40468833 -0.43531069 1.0428705 -0.45900196 0.051992342 0.88691258 0.035170179
-0.37222335 -0.43850455 1.0593753 -0.25103134 0.0088794921 0.96793824 0.011840226
-0.37431931 -0.51425558 1.0571668 -0.22190398 0.027418844 0.97468293 0.014445499
-0.43023798 -0.55486923 1.0414675 -0.30949438 -0.093211949 0.94632173 0.030965976
-0.35723209 -0.3793627 1.0645082 -0.2539531 0.30927375 0.91643745 0.084265813
-0.28618088 -0.42323452 1.0364554 0.83108574 0.061324023 0.55275309 0.028485458
-0.25071946 -0.35764205 0.93436158 0.77469575 0.6202116 0.12322377 0.076418832
-0.36355236 -0.33731291 1.0249116 -0.080047093 0.97128808 0.22403572 0.035431549
-0.31984562 -0.48154795 1.0742469 0.38565275 -0.030121021 0.92215222 0.051640343
-0.4458631 -0.41767442 1.0299034 -0.44544336 0.046496484 0.89410198 0.074767284
-0.32320261 -0.51222414 1.0752832 0.33033159 -5.865104e-05 0.94386494 0.056555558
-0.44610712 -0.58143097 1.0318618 -0.37833771 -0.55236411 0.74280173 0.10743686
-0.45575485 -0.34130207 0.99855822 -0.27198651 0.9082033 0.31810394 0.10107231
-0.24804746 -0.34986511 0.87328494 0.66899431 0.60966676 -0.42515072 0.092869207
-0.36772588 -0.33756855 1.0006554 -0.069571555 0.9892928 0.1282955 0.025899218
-0.39078629 -0.33753848 0.98550946 -0.080024846 0.99558347 0.049087171 0.023212444
-0.36628723 -0.33782759 0.97041941 -0.04835188 0.99882227 -0.0040200041 0.0097270776
-0.44196585 -0.35668167 1.0238254 -0.27808216 0.73377955 0.61986923 0.10136496
-0.43675512 -0.34370264 1.0221254 -0.24858694 0.83774239 0.4862017 0.085589178
-0.49205962 -0.46999738 1.0002751 -0.95110852 0.10307065 0.29115117 0.083525985
-0.37310529 -0.57775521 1.0626683 -0.33579203 -0.19982047 0.92049742 0.068759926
-0.46791384 -0.47973877 1.0174522 -0.80006641 0.14110105 0.58308166 0.071069941
-0.43914026 -0.40109175 1.0268021 -0.40483695 0.11087279 0.90764219 0.070661902
-0.44961351 -0.38507035 1.0207806 -0.43300104 0.30782801 0.84720248 0.10755739
-0.49938327 -0.50398558 0.99876994 -0.95915115 0.10196624 0.26387867 0.037220482
-0.36378697 -0.36552185 1.0592972 -0.26395574 0.5350982 0.80249441 0.089423098
-0.41744465 -0.40606943 1.036379 -0.44048011 0.15167931 0.88485634 0.057000402
-0.34671798 -0.36676386 1.0670761 -0.13937603 0.45378739 0.88014281 0.11409236
-0.33243299 -0.338285 0.88096488 0.070285633 0.95894396 -0.27474815 0.043642625
-0.25521871 -0.47775042 0.96309453 0.92594576 0.029502038 0.37650251 0.00026604891
-0.23539568 -0.42167145 0.87978232 0.95208305 0.081709452 -0.29472286 0.058880236
-0.23802547 -0.41646793 0.91701144 0.99136728 0.071827061 0.10968977 0.039159115
-0.25529513 -0.52618092 0.96444124 0.92701739 0.0026061195 0.37500936 0.00028208594
-0.35326105 -0.35154405 1.0599835 -0.19111268 0.65945017 0.72704977 0.11049431
-0.26146805 -0.36876813 0.96486503 0.84292078 0.41150475 0.34662449 0.079166599
-0.40437943 -0.56578916 1.0461153 -0.26590413 -0.21877477 0.93884641 0.055601794
-0.42462358 -0.44181919 1.041585 -0.42129958 0.083516963 0.90306795 0.060095303
-0.3470751 -0.35345358 1.0645746 -0.1615504 0.61605662 0.77095753 0.11315958
-0.31883043 -0.3540723 1.0726007 0.24634458 0.48549199 0.83881575 0.13190177
-0.2943086 -0.35813233 1.042992 0.5999459 0.52187496 0.60639215 0.13725854
-0.4100951 -0.37027362 1.0379118 -0.39012271 0.63425851 0.6674732 0.089761212
-0.41103202 -0.42450538 1.0411675 -0.45338106 0.05673093 0.88950956 0.040503722
-0.40544194 -0.34406957 0.82234049 -0.02164514 0.79267085 -0.60926551 0.11095142
-0.41755179 -0.34267533 1.0285151 -0.22726688 0.8793934 0.41835037 0.075515635
-0.41811135 -0.35066652 0.80468136 -0.083632179 0.59204334 -0.80155498 0.11831684
-0.37631476 -0.34082139 0.85588914 0.048540022 0.96284431 -0.26565903 0.041446783
-0.48413289 -0.34156874 0.97705549 -0.41531372 0.88814783 0.19674319 0.12818912
-0.42479125 -0.34023488 0.90946221 -0.2160905 0.97360885 -0.073421299 0.066460207
-0.42125273 -0.3459821 0.81497729 -0.23324509 0.7523846 -0.6160472 0.12875667
-0.36353371 -0.3394343 1.0414329 -0.10879444 0.9304508 0.34989288 0.061316382
-0.36707255 -0.51291335 1.0613267 -0.12186664 0.0024855467 0.9925434 0.024004932
-0.46280211 -0.46264943 1.0150663 -0.67322725 0.08290416 0.7347734 0.082723387
-0.43819913 -0.37745413 1.0274196 -0.32060373 0.48995376 0.81065321 0.098762885
-0.33480108 -0.3558611 1.0687389 -0.029828437 0.57589132 0.81698185 0.12895943
-0.2880125 -0.34020433 0.8775214 0.3116419 0.87033713 -0.38130391 0.065524563
-0.32992229 -0.33896679 0.86159444 0.11618235 0.92481196 -0.36224902 0.048186693
-0.2890158 -0.34284586 1.0340184 0.45171213 0.83544862 0.31302032 0.10194662
-0.28418204 -0.48481971 1.0320147 0.84586161 -0.0054842816 0.53337419 0.018417094
-0.26401049 -0.49482208 0.98549509 0.92060477 0.026067 0.38962454 0.00015403831
-0.22836764 -0.56598872 0.88433141 0.97869921 -0.11050292 -0.17302307 0.064512372
-0.29497758 -0.33901134 1.023658 0.27939954 0.9337517 0.2237047 0.077739261
-0.26670316 -0.51085252 0.99358493 0.91785967 0.013112351 0.39668831 0.00035193397
-0.31458768 -0.35024172 1.0789305 0.22212215 0.48730692 0.84450799 0.13205793
-0.26207483 -0.35564649 0.95964724 0.75215191 0.6171366 0.23110607 0.086005643
-0.25928348 -0.50292343 0.97456628 0.92330903 0.018974029 0.38358903 0.00014892005
-0.22943646 -0.5861187 0.87675363 0.89317948 -0.25757906 -0.36862364 0.11720683
-0.41211456 -0.3971366 1.0374562 -0.41947219 0.23018675 0.87809861 0.057919569
-0.28480449 -0.38848746 1.0265273 0.86239851 0.15566835 0.48170134 0.052352082
-0.4041214 -0.41012117 1.0414644 -0.43260202 0.13115628 0.89199406 0.03839951
-0.26962903 -0.53036362 1.0006876 0.91623372 0.0020564555 0.40063873 0.00042294012
-0.4674542 -0.61765611 1.0148828 -0.31930035 -0.89633578 0.30761886 0.096636385
-0.48902717 -0.42650938 1.010784 -0.759175 0.023026772 0.65047908 0.11165256
-0.45929784 -0.36315069 1.0185509 -0.37653384 0.65412176 0.6560083 0.11070527
-0.44495723 -0.39177045 1.0241187 -0.40720761 0.18601201 0.89419323 0.084547468
-0.37777448 -0.33646411 1.0284297 -0.15739532 0.93644428 0.31352642 0.050809354
-0.25108057 -0.51278907 0.95451969 0.93187904 0.009719016 0.36263886 0.00045697443
-0.24130414 -0.5063507 0.93245721 0.9483915 0.0080826478 0.31699893 0.0057198778
-0.46872571 -0.57404184 1.0251746 -0.63511723 -0.2436901 0.73296738 0.11646159
-0.37840378 -0.60538876 1.0563575 -0.23492822 -0.70013857 0.67425132 0.095429271
-0.23960656 -0.61401504 0.91470712 0.75065899 -0.6540367 0.09352576 0.11720666
-0.42101556 -0.56972927 1.0410928 -0.24986662 -0.30233794 0.91986871 0.075153708
-0.32227471 -0.56704468 1.076221 0.2306551 -0.077268645 0.96996284 0.062981814
-0.32197627 -0.54581964 1.075865 0.26248968 0.017943049 0.96476793 0.037769761
-0.39393356 -0.3364822 1.0067037 -0.14799598 0.96855915 0.19997579 0.050084751
-0.40237197 -0.33690628 1.0090425 -0.18454967 0.94799989 0.25930217 0.055691302
-0.4220911 -0.34401572 0.82386136 -0.2688846 0.81376821 -0.51524985 0.12612043
-0.4386375 -0.34395662 0.84705812 -0.44112763 0.838319 -0.32035553 0.093217649
-0.43561167 -0.34276193 0.8447594 -0.38619384 0.86926705 -0.30859214 0.093328886
-0.40867192 -0.3398219 0.87443733 -0.13197294 0.98567444 -0.10501951 0.035563856
-0.37727928 -0.36683428 1.0528426 -0.37252617 0.50242776 0.78025031 0.069330804
-0.28596535 -0.33850965 0.91999972 0.26031417 0.96506399 -0.029801298 0.036485396
-0.33456153 -0.34016472 0.84836322 0.16987725 0.88018268 -0.4431932 0.058094002
-0.3339518 -0.34437311 0.83771479 0.2615836 0.78031999 -0.56804472 0.058765586
-0.23831674 -0.34739423 0.8922267 0.74293077 0.62645262 -0.23582003 0.087455042
-0.24039032 -0.37847677 0.92147279 0.93304616 0.35350525 0.066775024 0.069557674
-0.24111173 -0.37479866 0.92317379 0.92389393 0.37410641 0.080401681 0.072298415
-0.23379017 -0.38554013 0.90183038 0.94942206 0.2958087 -0.10533275 0.074485622
-0.46911129 -0.61279929 1.0184644 -0.34776777 -0.87771237 0.32966432 0.10803193
-0.460379 -0.4677828 1.012652 -0.68700159 0.1159774 0.71734089 0.085459188
-0.39534453 -0.34042904 0.89933091 -0.094445258 0.99493927 -0.034293339 0.023649778
-0.42982617 -0.34250778 0.83153433 -0.3325811 0.841362 -0.4260278 0.11710223
-0.40424052 -0.37118432 1.0400567 -0.40177166 0.60558867 0.68690747 0.083458997
-0.31516442 -0.33842361 0.98319429 0.11925545 0.99234992 0.031933166 0.026553318
-0.30077383 -0.34045374 1.0480682 0.30358121 0.7761994 0.55258751 0.13243456
-0.30444708 -0.48920625 1.06443 0.62194037 -0.054096561 0.78119373 0.063473485
-0.30599946 -0.55963242 1.0688276 0.46030813 -0.052804455 0.88618743 0.04928546
-0.30951738 -0.38642126 1.0729665 0.44185835 0.17556852 0.87973684 0.07961408
-0.30881137 -0.42104977 1.0707473 0.50845271 -0.019275976 0.86087412 0.042325649
-0.2843506 -0.34005451 1.0005736 0.29592961 0.95070279 0.092681885 0.050250381
-0.30285883 -0.33795285 1.0258794 0.17284131 0.95980024 0.2211547 0.067123152
-0.35194454 -0.34433565 1.0564256 -0.11710676 0.79120278 0.60023671 0.10783084
-0.31993973 -0.33829403 0.98794651 0.099996753 0.99412239 0.041488662 0.020172462
-0.25135478 -0.42755449 0.94912201 0.93861526 0.040500466 0.34257987 0.0035064199
-0.31001586 -0.34465238 1.0736501 0.31629169 0.57295704 0.75609511 0.13013957
-0.30050808 -0.33837873 1.0285513 0.15962976 0.95832449 0.2369231 0.073753096
-0.25579748 -0.48541024 0.96592182 0.92381257 0.028151929 0.38180849 0.00012113687
-0.26004562 -0.38896742 0.96680391 0.88885957 0.23383799 0.39401582 0.039489724
-0.26132742 -0.34313816 0.94578403 0.5543893 0.8221209 0.12949736 0.063320771
-0.26047662 -0.34594005 0.96218807 0.59017563 0.79604113 0.1342064 0.070968471
-0.26896781 -0.4894709 0.99819803 0.91461396 0.027577328 0.40338659 0.00052017655
-0.26479495 -0.58610201 0.98504692 0.87251425 -0.31643805 0.37227121 0.088735253
-0.41520852 -0.33902848 0.9689104 -0.083276697 0.99584907 0.036736961 0.040559057
-0.22529048 -0.52577937 0.88415056 0.99881673 -0.030134676 -0.038173053 0.056019049
-0.28857452 -0.41712904 1.042274 0.82100642 0.0040829647 0.57090437 0.025281018
-0.28736374 -0.33889496 0.89296943 0.33424497 0.91383201 -0.23063275 0.05955679
-0.27780059 -0.33866623 0.91628534 0.31751487 0.94523734 -0.07556881 0.050776757
-0.24180444 -0.37397793 0.92463702 0.92351252 0.37187985 0.093967967 0.07178656
-0.26732063 -0.34524614 0.98241693 0.62752271 0.76450711 0.14745905 0.079741828
-0.25141788 -0.44526276 0.95211899 0.93353337 0.038010146 0.35646966 0.0016105267
-0.23228736 -0.44082919 0.90276653 0.99336618 0.11473883 0.0076622763 0.054740667
-0.25990114 -0.39542508 0.96640122 0.91214573 0.17920999 0.36861083 0.024775458
-0.24878192 -0.57574058 0.95031399 0.92328739 -0.13511784 0.35956028 0.048245896
-0.27837554 -0.61678362 1.0349315 0.70217735 -0.60389054 0.37717792 0.093861543
-0.25092345 -0.44389248 0.95075941 0.93650508 0.038215831 0.34856531 0.0023995065
-0.24853475 -0.53722882 0.9522984 0.93494666 -0.0079182554 0.35469991 0.00097764982
-0.22746289 -0.49106643 0.88570166 0.99452484 0.045491699 -0.094079182 0.05296905
-0.25620353 -0.57579118 0.96752983 0.8917309 -0.16701207 0.42062211 0.056857433
-0.25674212 -0.54275632 0.97077233 0.92437631 -0.015273467 0.38117599 0.0013678728
-0.24574073 -0.51690549 0.94416988 0.94029218 0.0081920112 0.34026977 0.0010846448
-0.30145717 -0.37601057 1.0644152 0.56274825 0.26827991 0.78188246 0.09891881
-0.25215188 -0.41118941 0.94966596 0.93073791 0.1037301 0.35066643 0.0074116318
-0.48882741 -0.34393787 0.94830281 -0.568174 0.80410075 -0.1749292 0.10756481
-0.41317075 -0.33896232 0.95366079 -0.07339108 0.99714702 -0.017649179 0.047250297
-0.43028241 -0.34389308 1.0248156 -0.25808391 0.83177245 0.49147448 0.086135097
-0.29606199 -0.33887896 0.99873781 0.20456828 0.97573888 0.078009926 0.043779787
-0.31662488 -0.338137 0.96452844 0.11335264 0.99354661 0.0040314454 0.019046629
-0.28780589 -0.34359831 1.0375795 0.48446289 0.79274809 0.36992723 0.12168103
-0.362019 -0.34002331 1.0447618 -0.12804767 0.91048092 0.39322811 0.069200121
-0.27576461 -0.34152243 1.0053147 0.47088349 0.87031436 0.14429706 0.059949823
-0.3017621 -0.49609569 1.0614595 0.64861506 -0.047019519 0.75966287 0.068633802
-0.253849 -0.34510729 0.87812698 0.57800412 0.705212 -0.4105939 0.085340142
-0.2597664 -0.34859109 0.95937097 0.61012727 0.77959704 0.14132656 0.068292841
-0.28518775 -0.34633076 0.86375308 0.34014204 0.76516926 -0.54664373 0.07278201
-0.2342709 -0.37542832 0.90508068 0.9191699 0.38408205 -0.087222166 0.08065968
-0.23513034 -0.36235121 0.88319355 0.78124398 0.51147592 -0.35784101 0.089092314
-0.23889977 -0.34576082 0.8971715 0.74829322 0.62669247 -0.21751727 0.086553745
-0.23159829 -0.4357686 0.89881831 0.99256814 0.106636 -0.058627851 0.05842026
-0.23016691 -0.57429171 0.8788864 0.94014204 -0.19187978 -0.28162938 0.084207222
-0.22188234 -0.52686036 0.87538177 0.98488092 -0.031944226 -0.1702619 0.053415675
-0.23108685 -0.60054964 0.8819012 0.86547983 -0.39565301 -0.30725151 0.12434349
-0.24346183 -0.44874793 0.93396932 0.96225351 0.04723886 0.26802382 0.01589223
-0.23258264 -0.60666656 0.91384411 0.87310654 -0.47724029 0.099632636 0.10844412
-0.24346466 -0.56612593 0.93891674 0.93795347 -0.09520112 0.33343658 0.033767086
-0.24518202 -0.46696004 0.94058537 0.94864285 0.046088826 0.31297383 0.0062024356
-0.22997184 -0.46919054 0.88822943 0.9931497 0.09729661 -0.064707451 0.052278597
-0.24176696 -0.5063833 0.93378317 0.9484064 0.0082188649 0.31695065 0.0056297989
-0.23237665 -0.3895562 0.88413227 0.91381067 0.25237623 -0.31820786 0.081774212
-0.23996265 -0.44103035 0.92472053 0.97502345 0.089302614 0.20335768 0.03001816
-0.24857618 -0.49554059 0.94911087 0.93666291 0.021905286 0.34954643 0.00092021795
-0.23332688 -0.61358237 0.889597 0.75501859 -0.64317304 -0.12757525 0.14019988
-0.23297551 -0.46709749 0.90824825 0.98475921 0.084485412 0.15202421 0.034284387
-0.37591588 -0.33757892 0.99206871 -0.08019948 0.99419528 0.071720369 0.022742942
-0.27540332 -0.34220701 1.0064001 0.47054267 0.87087184 0.14202775 0.058087282
-0.26701599 -0.58055001 0.98928714 0.88880926 -0.27600226 0.36584258 0.07793694
-0.23216625 -0.5834446 0.90324008 0.96412629 -0.26543799 -0.0017448331 0.099891067
-0.30059269 -0.34145895 1.0537231 0.33313185 0.72602803 0.60158664 0.13530406
-0.45123821 -0.33957502 0.9438709 -0.17753145 0.98155451 -0.070946038 0.080382325
-0.37089014 -0.33812267 0.91588801 -0.071874134 0.99718344 -0.021428708 0.021930205
-0.30891779 -0.33726969 1.0309182 0.094450839 0.9560197 0.27767858 0.077870287
-0.36601764 -0.33766851 0.93192774 -0.076647714 0.99693924 -0.015401255 0.022004845
-0.33111793 -0.33827749 0.89497006 0.052667804 0.98765916 -0.14749746 0.024624918
-0.34008217 -0.3385275 0.91919374 -0.0030642108 0.99978286 -0.020612095 0.0018363579
-0.30046365 -0.34531423 1.0632019 0.41611421 0.59980226 0.68343711 0.13820422
-0.36762565 -0.34040627 1.0441011 -0.15081279 0.90718138 0.3927817 0.064561062
-0.34653926 -0.3383373 0.91897643 -0.0087635694 0.99975497 -0.020328507 0.00155526
-0.30111319 -0.34445071 1.0606514 0.36287135 0.65955818 0.65826094 0.14061259
-0.27149755 -0.34206536 0.95916182 0.45209703 0.88882416 0.074832693 0.06905777
-0.30352205 -0.34648994 1.0772951 0.40305272 0.49608439 0.7690571 0.12687698
-0.29736692 -0.61311573 1.0548538 0.36404783 -0.77991003 0.50912631 0.12354455
-0.26050863 -0.6138351 0.96478611 0.65287507 -0.72345048 0.22444059 0.10373913
-0.26753241 -0.4875249 0.99391323 0.91725969 0.026916876 0.39737913 0.00038169869
-0.25379726 -0.57768452 0.96290213 0.88787508 -0.16821438 0.42823091 0.057595801
-0.30641571 -0.48169628 1.0692352 0.48608083 -0.018442784 0.87371922 0.057851799
-0.28191376 -0.61875051 1.0286301 0.62391311 -0.72097582 0.30153993 0.095124245
-0.31487462 -0.4164215 1.0723841 0.44558126 -0.0012654971 0.8952406 0.043684632
-0.29197708 -0.33874023 0.89054364 0.28281179 0.93126369 -0.22970754 0.056422465
-0.22918373 -0.47676978 0.87764525 0.96700627 0.06635502 -0.24595921 0.063791975
-0.26026085 -0.34181237 0.92844337 0.54282826 0.83898038 0.038069997 0.070495293
-0.23306468 -0.39390263 0.90239197 0.96732116 0.24117152 -0.078269109 0.067555316
-0.2502369 -0.37554774 0.94140172 0.90325117 0.36920452 0.21869011 0.061622389
-0.2358076 -0.35038862 0.89968818 0.76104146 0.61385399 -0.20975991 0.085703574
-0.23366761 -0.45628631 0.91002792 0.98710102 0.10543234 0.12048077 0.040347569
-0.24449728 -0.34907985 0.90824574 0.76527458 0.63542175 -0.10292723 0.089252017
-0.24771626 -0.46574083 0.94537938 0.94661659 0.042243361 0.31958184 0.0055273115
-0.2263965 -0.50274628 0.87823343 0.98726928 0.040833429 -0.15372668 0.059288684
-0.23789735 -0.4765161 0.92298442 0.97062367 0.070886955 0.22992347 0.024251936
-0.22679932 -0.52309996 0.87848777 0.99457026 -0.022501672 -0.10160577 0.059517942
-0.24334037 -0.58759373 0.93708438 0.92406726 -0.26751289 0.27301392 0.076086164
-0.24622601 -0.48442727 0.94412291 0.94328672 0.032206789 0.33041322 0.0035820524
-0.2289423 -0.58087659 0.88040286 0.92012501 -0.22220743 -0.32248077 0.10110791
-0.24980335 -0.54633337 0.95175928 0.93339026 -0.037899278 0.35685599 0.0044438527
-0.243917 -0.48890355 0.93838829 0.9476862 0.034818534 0.31729892 0.0053153187
-0.24019249 -0.57418197 0.93302435 0.94918281 -0.15242547 0.27535149 0.047362641
-0.23748478 -0.55621225 0.92171204 0.96688497 -0.061181061 0.24777055 0.028991368
-0.24995162 -0.5295949 0.95409143 0.93231362 -0.0010531809 0.36164942 0.00048176097
-0.2367862 -0.51848185 0.9204756 0.97138238 -0.020847935 0.23660432 0.021299198
-0.22936618 -0.53332901 0.89554298 0.99807441 -0.060597599 0.013247345 0.04929525
-0.25081494 -0.50456059 0.95308989 0.93393964 0.016321208 0.35705796 0.00056996912
-0.31510177 -0.33780932 1.0355542 0.083789162 0.94595069 0.31329963 0.084903985
-0.40251383 -0.33713579 1.0332694 -0.25421667 0.88105309 0.39889777 0.07129804
-0.26809517 -0.49450999 0.99561596 0.91665727 0.024955938 0.39889428 0.00041503093
-0.29288051 -0.44760913 1.0507127 0.77922183 0.0038857525 0.62673604 0.037352405
-0.24716812 -0.39388585 0.93680233 0.94329119 0.20812735 0.2586208 0.033444908
-0.22993787 -0.55525488 0.89632523 0.9964503 -0.074924633 0.038379591 0.044253074
-0.33716139 -0.33800244 0.91026473 0.0045140143 0.99918455 -0.040122624 0.003371641
-0.46720132 -0.34151024 0.925152 -0.27383202 0.94355702 -0.18632291 0.067919433
-0.37991729 -0.33892485 0.90589565 -0.065898396 0.99771702 -0.014768864 0.022299159
-0.29891643 -0.43068194 1.0620592 0.69109952 0.042640522 0.72150064 0.049721781
-0.22930878 -0.48887283 0.89716065 0.99503893 0.053659718 0.083773889 0.040909421
-0.24133925 -0.35200009 0.90491486 0.79149348 0.6003027 -0.1147812 0.091712043
-0.3293997 -0.33806789 0.96446788 0.046518825 0.99890888 -0.0041321362 0.0029856907
-0.23208156 -0.40976381 0.90094912 0.98574817 0.12202616 -0.11580247 0.055025369
-0.24552695 -0.38150534 0.93279356 0.92492813 0.33746782 0.17499512 0.060834415
-0.31345916 -0.34502202 1.0776569 0.22347999 0.50097555 0.83611017 0.13372231
-0.26669699 -0.53805393 0.99369448 0.92108363 0.0098444894 0.38924035 0.00078505458
-0.30848211 -0.592026 1.0746752 0.33697456 -0.2777321 0.89961833 0.11203765
-0.45791557 -0.3413094 0.92323625 -0.26467928 0.9477185 -0.17825428 0.073990904
-0.3010242 -0.45564589 1.0648131 0.6958034 0.025141515 0.71779209 0.043308284
-0.25611711 -0.49539506 0.96711659 0.92410403 0.022699248 0.38146612 0.00013599225
-0.29608339 -0.48148307 1.0556256 0.76734978 -0.036056418 0.6402142 0.039006643
-0.23234175 -0.39745271 0.89108801 0.95567256 0.18774176 -0.22681056 0.06924013
-0.29116431 -0.46696675 1.0457397 0.80167556 0.0059276586 0.59772992 0.032508232
-0.29558644 -0.45928332 1.0573004 0.75753212 0.0067606652 0.65276295 0.041023944
-0.23490413 -0.35328138 0.89307934 0.76716483 0.59388071 -0.24241258 0.086758718
-0.31595978 -0.33783332 0.95929217 0.11322863 0.99352157 0.0097056869 0.018904248
-0.30802247 -0.43559664 1.0722505 0.58775061 0.032412663 0.80839258 0.045184683
-0.2534219 -0.41906026 0.95338607 0.93266213 0.065927967 0.35467568 0.0030954371
-0.29641643 -0.58548594 1.0592567 0.63063926 -0.21068804 0.74693012 0.099177405
-0.24030744 -0.53508508 0.9305411 0.95765859 -0.028824719 0.28645968 0.011701927
-0.30777594 -0.34224251 1.061518 0.25191149 0.72576731 0.64015812 0.13383539
-0.28754139 -0.41690123 1.0397661 0.82519817 0.0094780903 0.56476372 0.025745662
-0.33236319 -0.3383629 0.87743306 0.07331647 0.95259154 -0.29528657 0.046641655
-0.3788915 -0.33634636 1.0271188 -0.13919781 0.94049686 0.30998328 0.050469864
-0.41412413 -0.34124237 0.84362406 -0.20249967 0.93370652 -0.29527262 0.086214788
-0.39090076 -0.33939075 0.90624088 -0.066668496 0.9974969 -0.023561567 0.022023832
-0.42065251 -0.34620765 0.8140263 -0.21344653 0.74129832 -0.63633114 0.12546511
-0.34112832 -0.33795297 0.95277268 0.016072538 0.99987 -0.0012817064 0.00053787732
-0.38387668 -0.34613839 0.82169253 0.099114701 0.78198183 -0.61537045 0.080863006
-0.37504959 -0.34857932 0.82430494 0.16969311 0.76431638 -0.62211317 0.072721176
-0.48908135 -0.34254286 0.96839839 -0.47953433 0.8768149 0.035249747 0.11259998
-0.49450558 -0.34370375 0.97970921 -0.58127993 0.79589868 0.16928901 0.10966714
-0.39194748 -0.344915 0.81580555 0.094987065 0.72790015 -0.67907202 0.081209041
-0.26896736 -0.44993258 0.99246937 0.92077518 0.031894531 0.3887876 0.0002610753
-0.26934156 -0.44514084 0.99290681 0.9216454 0.028207548 0.38700634 0.00028268347
-0.27931702 -0.42909205 1.018682 0.89211321 0.039741959 0.45006064 0.0065494562
-0.30105779 -0.40168905 1.0618412 0.60851479 0.11098838 0.78574252 0.055392276
-0.28118443 -0.42553443 1.0227427 0.87974793 0.050936975 0.47270384 0.011704452
-0.30208519 -0.43134844 1.0653647 0.60863709 0.027453173 0.79297364 0.04573461
-0.25671285 -0.45477247 0.9634335 0.92386293 0.036030121 0.38102373 0.00017846323
-0.32657135 -0.33983898 0.85330921 0.15554535 0.87741995 -0.45380601 0.058586445
-0.25601166 -0.34380823 0.88137227 0.56382221 0.74755555 -0.35109153 0.081001744
-0.28410348 -0.33861348 0.90718138 0.30622506 0.94125009 -0.14238895 0.049038138
-0.23517451 -0.42103851 0.88133079 0.95506513 0.081188314 -0.28505963 0.056896292
-0.25807506 -0.34373245 0.93596971 0.64357382 0.75981408 0.092170641 0.063303307
-0.24281265 -0.3498227 0.91538531 0.75765884 0.65191734 -0.030932082 0.085353553
-0.31933895 -0.34199265 0.84249347 0.20182593 0.80669022 -0.55544323 0.057693016
-0.23975669 -0.43354219 0.92288494 0.98068911 0.087353736 0.17498048 0.034679908
-0.23673697 -0.37259936 0.91344726 0.91710573 0.39836568 -0.014893883 0.078394286
-0.22939651 -0.47462732 0.88250166 0.98117489 0.066400506 -0.18134721 0.064726509
-0.22965235 -0.47843432 0.88834143 0.99656755 0.070522621 -0.043355018 0.056427266
-0.22674078 -0.50503647 0.88788688 0.99980438 0.01859959 -0.0067256782 0.051364239
-0.23023012 -0.50355971 0.90191334 0.99116325 0.029539434 0.12931708 0.036154713
-0.22715235 -0.55545408 0.88511384 0.98891062 -0.077436924 -0.12672569 0.048744522
-0.22996537 -0.60110486 0.89799899 0.92526412 -0.37485579 -0.058046114 0.12514028
-0.23255518 -0.54294306 0.90435612 0.9963994 -0.03433511 0.077519745 0.034863185
-0.26773354 -0.43000704 0.98783708 0.92455649 0.035141919 0.379421 0.00026299711
-0.2667262 -0.46855041 0.99146569 0.92069364 0.031435639 0.38901806 0.00020732953
-0.29018602 -0.59294176 1.045958 0.7542932 -0.34056666 0.56129861 0.10398974
-0.26037785 -0.5720824 0.97651643 0.90586317 -0.16720824 0.38917005 0.055526067
-0.38979369 -0.33969021 0.91494226 -0.062896289 0.99792945 -0.013454076 0.023592988
-0.23733589 -0.49487668 0.92149073 0.9697817 0.048229765 0.23915967 0.022417529
-0.24020307 -0.46514782 0.92834109 0.96043265 0.072760135 0.26884016 0.0157362
-0.27979168 -0.43806311 1.0207019 0.88844228 0.023393307 0.45839182 0.0074223443
-0.23123886 -0.42123935 0.88953668 0.97002447 0.083823949 -0.22809215 0.055700924
-0.24409153 -0.53981966 0.94024205 0.94306564 -0.011751728 0.33239898 0.0015531454
-0.28872064 -0.34331274 1.0389864 0.43127003 0.80222243 0.41285011 0.12177949
-0.42028418 -0.34303465 0.82530558 -0.26745731 0.8210634 -0.50430286 0.12577464
-0.40592724 -0.34100685 0.84284908 -0.093811601 0.94501513 -0.31328243 0.072819874
-0.49567893 -0.34426671 0.95410109 -0.79091328 0.59547395 -0.14095037 0.10674889
-0.38995108 -0.33856469 1.0369289 -0.21312629 0.8851487 0.41362906 0.06418132
-0.29116368 -0.40954188 1.0474772 0.80257028 0.04629859 0.59475833 0.035583016
-0.45968822 -0.3425543 1.0097005 -0.29497844 0.82540673 0.48134324 0.10650446
-0.37273285 -0.34008062 0.85242552 0.068288274 0.95671445 -0.28290311 0.044085823
-0.30620888 -0.40486297 1.0657591 0.52483886 0.078150719 0.84760648 0.052831016
-0.32781756 -0.34212807 1.062659 0.099983856 0.80117756 0.59001499 0.12640436
-0.29701796 -0.36415559 1.0527269 0.5875057 0.44401684 0.67652506 0.12589028
-0.41630435 -0.34837222 0.80493867 -0.080387019 0.60594803 -0.79143208 0.12046021
-0.42987594 -0.34199983 0.84771144 -0.32076842 0.90663952 -0.27406651 0.089927882
-0.26146311 -0.5717203 0.98000115 0.90153003 -0.17106466 0.39746767 0.056392349
-0.30195972 -0.34692419 1.07041 0.39149678 0.54736567 0.73967636 0.13027672
-0.42800725 -0.34070671 0.85649192 -0.27836967 0.94101459 -0.19235884 0.065071732
-0.29094332 -0.42906821 1.047303 0.79895651 0.062791601 0.59810174 0.03644124
-0.29478613 -0.6035521 1.0519927 0.63416034 -0.4863176 0.60111231 0.1265084
-0.2885825 -0.38623333 1.0411247 0.80599588 0.17951411 0.56404382 0.072284028
-0.28906614 -0.38792765 1.0429355 0.78640091 0.15908283 0.59688056 0.0691493
-0.29874346 -0.36923823 1.0586395 0.55510587 0.37147778 0.74421889 0.12055288
-0.26615399 -0.39784247 0.98200881 0.91087294 0.17642649 0.37307397 0.025050469
-0.25309491 -0.57190967 0.96089566 0.91188431 -0.1191847 0.39276183 0.0401561
-0.32697505 -0.33803561 0.89771712 0.060469307 0.99123347 -0.11747176 0.018114878
-0.31754965 -0.33818421 0.96369904 0.095417157 0.99542105 0.0057042697 0.014554242
-0.33417097 -0.33957288 1.0529457 0.039681107 0.86953622 0.49227256 0.10296294
-0.2295251 -0.47292122 0.88514072 0.98877686 0.080089755 -0.1261186 0.061893567
-0.2279326 -0.48484376 0.88556284 0.99341023 0.039076757 -0.10774545 0.055559263
-0.34419131 -0.33830249 0.92206174 -0.0085386271 0.99984193 -0.01559351 0.0012445729
-0.33031687 -0.3400915 0.85051161 0.16964421 0.87361908 -0.45608166 0.060850464
-0.2279326 -0.48498932 0.88570201 0.99366921 0.037023697 -0.10606971 0.05460874
-0.26106957 -0.34325767 0.88250315 0.51017183 0.7988475 -0.31869623 0.075945467
-0.28037581 -0.3390848 0.94377285 0.29797071 0.95380229 0.038402054 0.048362456
-0.41349727 -0.33790657 0.95811409 -0.077109188 0.99701893 -0.0027091943 0.034813356
-0.27510229 -0.33763576 0.91744143 0.32483277 0.94293427 -0.073202685 0.052918393
-0.2489987 -0.35373479 0.87362188 0.66956896 0.57494664 -0.47022739 0.093645334
-0.28933677 -0.34020814 1.0070556 0.23955122 0.96610552 0.096204825 0.045689553
-0.31062758 -0.33826143 0.90262228 0.11960427 0.98692018 -0.10809031 0.020972455
-0.29129308 -0.33944887 1.0249404 0.32125452 0.91503072 0.2439554 0.083503678
-0.26165339 -0.34230575 0.94830447 0.54559511 0.82767153 0.13147521 0.062855281
-0.29788879 -0.34484345 1.0585544 0.41108093 0.62642777 0.66226935 0.13931982
-0.32963991 -0.33776584 0.9740625 0.052885029 0.99859428 0.0035665291 0.0057504303
-0.22927196 -0.48235568 0.8720966 0.96025127 0.067253582 -0.27091411 0.064363636
-0.22666295 -0.4950105 0.87659419 0.9840498 0.062655531 -0.16649409 0.054138865
-0.22454046 -0.51339668 0.8803426 0.99762231 0.0052237133 -0.068719603 0.056093238
-0.22442712 -0.55407125 0.87458736 0.95697832 -0.06627056 -0.28249013 0.047441047
-0.26928344 -0.52299035 1.00192 0.91590625 0.0096436301 0.40127647 0.00047381673
-0.36596891 -0.33922079 0.86159164 0.099186234 0.96249449 -0.25251997 0.042181361
-0.23428056 -0.53374249 0.87457979 0.98283118 -0.039576422 -0.18021271 0.057620328
-0.2389369 -0.36287016 0.87931097 0.75290579 0.51354623 -0.41158614 0.092373632
-0.23606037 -0.45259386 0.87272978 0.9203285 0.11076957 -0.37513411 0.066384308
-0.2324696 -0.59378028 0.87379646 0.82617909 -0.35600087 -0.43668234 0.12450459
-0.29891217 -0.33876467 0.89991832 0.18806538 0.97437292 -0.12340476 0.032614112
-0.23360191 -0.39532521 0.88049769 0.91433728 0.19279401 -0.35611498 0.070800714
-0.27817941 -0.33824775 0.8965801 0.36132407 0.90841246 -0.21031339 0.061539557
-0.48959869 -0.34256303 0.97209406 -0.45970047 0.88290882 0.095642239 0.1177139
-0.28528383 -0.338292 0.92923933 0.24532244 0.96930856 -0.016061202 0.031809647
-0.35010302 -0.34309569 0.84158754 0.19731069 0.88709545 -0.41728914 0.060282975
-0.31741786 -0.47643486 0.8382628 0.34179947 -0.018715288 -0.93958646 0.012184978
-0.2853716 -0.33996513 0.88601965 0.3577345 0.88913572 -0.28541845 0.06475433
-0.28229252 -0.3403337 1.0018675 0.30619162 0.94738823 0.093286447 0.051645294
-0.41016927 -0.39651 0.79995316 -0.086188771 0.15487275 -0.98416764 0.088656433
-0.26684022 -0.40923229 0.85745662 0.60973573 0.12529208 -0.78263927 0.039758436
-0.27046987 -0.35107636 0.86724991 0.4841041 0.65868706 -0.57599884 0.07846155
-0.46974701 -0.34748116 0.91987419 -0.45487747 0.85653281 -0.24379942 0.098757915
-0.37711537 -0.37044927 0.81642836 0.23251411 0.48272702 -0.8443411 0.071439944
-0.28170797 -0.41962892 0.84918106 0.51300204 0.072648577 -0.85530758 0.019384142
-0.25043538 -0.44160929 0.86352688 0.75036794 0.039745189 -0.65982431 0.050602812
-0.23129667 -0.57146096 0.87741584 0.93679047 -0.17834137 -0.30102816 0.081269979
-0.26706177 -0.47196016 0.85287416 0.64287347 0.010336964 -0.7659027 0.042444192
-0.23539661 -0.44057292 0.87902725 0.96233606 0.092073083 -0.25579655 0.069686279
-0.24685419 -0.35447177 0.87507409 0.68608344 0.5690062 -0.45334476 0.095933795
-0.33607662 -0.38555136 0.83005667 0.36428171 0.37119579 -0.85411507 0.048236556
-0.33740991 -0.3909319 0.82950366 0.35252863 0.33269829 -0.87466305 0.040209923
-0.30366611 -0.34467414 0.84063107 0.27812093 0.68680334 -0.67152816 0.059486188
-0.37973884 -0.34452325 0.82972747 0.084886506 0.87032473 -0.48510745 0.067352168
-0.37466171 -0.33895782 0.89908618 -0.055974681 0.99777353 -0.036258772 0.019836765
-0.2875191 -0.46653554 0.84629363 0.44570491 -0.012331962 -0.89509505 0.013252135
-0.40087941 -0.33999106 0.86656034 -0.10833626 0.98405856 -0.14103936 0.040055063
-0.45157567 -0.34057283 0.99573076 -0.24395975 0.93480366 0.25811982 0.093458727
-0.37226894 -0.35400262 0.82356048 0.22051361 0.68749261 -0.69190139 0.075277112
-0.42837387 -0.3385888 0.9707188 -0.10790906 0.99224973 0.061612017 0.044434063
-0.41140524 -0.33860514 0.97422016 -0.090665244 0.99481571 0.046059348 0.038258631
-0.30895069 -0.37912312 0.84377044 0.35060254 0.47227859 -0.80872172 0.051631726
-0.39133215 -0.56107265 0.80078399 -0.029855546 -0.059873201 -0.9977594 0.098451614
-0.28580427 -0.51511544 0.84522074 0.46941349 0.018629747 -0.88278192 0.015061949
-0.37856281 -0.53327507 0.80881143 0.10548157 0.077900641 -0.99136525 0.099398077
-0.27350646 -0.55489677 0.84942389 0.54364264 -0.040191598 -0.83835387 0.03900627
-0.39155066 -0.57957226 0.79583228 0.026842015 -0.17926073 -0.98343539 0.11324964
-0.377913 -0.41722366 0.81190515 0.25080574 0.052715916 -0.96660101 0.023705786
-0.45319888 -0.34927869 0.88187253 -0.43115178 0.88931638 -0.15239631 0.077112824
-0.2692951 -0.58615756 0.85247219 0.4850798 -0.35259277 -0.80023485 0.10413982
-0.3471154 -0.39415792 0.82449186 0.35941723 0.29484615 -0.88537276 0.036630157
-0.40202242 -0.35001916 0.80807191 0.060084704 0.63655859 -0.76888418 0.10331783
-0.37892988 -0.33922181 0.88382286 -0.024265749 0.99292976 -0.11619683 0.025189023
-0.28019121 -0.34206292 0.88199699 0.35707954 0.87726986 -0.32076734 0.069821648
-0.31688645 -0.41580737 0.83798212 0.37359169 0.11407813 -0.92055178 0.0066823321
-0.35792553 -0.47998649 0.82209766 0.31647718 -0.030320914 -0.94811541 0.013139668
-0.41459939 -0.50791204 0.79877031 -0.3402673 0.045551717 -0.93922478 0.073533781
-0.27341044 -0.34076008 0.96665347 0.44962072 0.89011371 0.074423276 0.07137581
-0.31720158 -0.3382647 0.9347288 0.067025974 0.99774927 0.0019850226 0.0053845989
-0.25961316 -0.34482524 0.94331133 0.61832088 0.7748844 0.13127607 0.062461551
-0.24597679 -0.39805585 0.87041181 0.73196226 0.19296899 -0.65344799 0.058893953
-0.39186683 -0.34095484 0.87983471 -0.061102308 0.99306393 -0.10045161 0.029958433
-0.49038991 -0.34544078 0.99350548 -0.47692007 0.80001932 0.3640281 0.12947389
-0.36068746 -0.34435257 0.8345629 0.19364576 0.83897108 -0.50855559 0.06562987
-0.39411959 -0.45226693 0.80499941 0.012442463 -0.098319232 -0.99507719 0.057580374
-0.35975575 -0.36979359 0.82246625 0.31151056 0.5118385 -0.80061382 0.06246344
-0.31512496 -0.47628504 0.83634907 0.34273148 -0.017734589 -0.93926603 0.012255132
-0.36284241 -0.53940934 0.81336796 0.31039265 0.015335434 -0.95048469 0.076038755
-0.33565485 -0.53775841 0.82541561 0.33251971 0.014009847 -0.94299221 0.033327907
-0.46465114 -0.33915183 0.96617436 -0.20763229 0.97774565 0.03003701 0.10212717
-0.36206076 -0.52489322 0.82035214 0.30710098 -0.059514079 -0.94981426 0.06287659
-0.32902306 -0.41907054 0.83401823 0.3587684 0.086898148 -0.92937285 0.006912854
-0.42233136 -0.56234097 0.80351311 -0.55300164 -0.087598644 -0.82856238 0.079667307
-0.24063432 -0.39370471 0.8762694 0.86240184 0.24303748 -0.4440673 0.079743341
-0.37854192 -0.36892614 0.81416804 0.21606146 0.49675241 -0.84056795 0.073216252
-0.34563741 -0.43338895 0.82466054 0.35272938 0.025012486 -0.93539107 0.0064816913
-0.29055178 -0.45046049 0.84381163 0.42931384 0.0023130472 -0.90315247 0.010764095
-0.31674102 -0.34814388 0.83200532 0.26654112 0.69254583 -0.6703254 0.052464344
-0.25169373 -0.42174876 0.86421335 0.74398619 0.065250263 -0.66500151 0.047773406
-0.2492238 -0.60277057 0.8625412 0.72622287 -0.47721884 -0.49483594 0.13184188
-0.26273245 -0.43589047 0.85646933 0.63939875 0.062685408 -0.76631576 0.041821573
-0.44817543 -0.35309616 0.85539168 -0.54473263 0.78958386 -0.28253081 0.084313825
-0.35448834 -0.45181444 0.82040668 0.32090694 -0.020636 -0.94688588 0.011337798
-0.4017601 -0.44233507 0.80467927 -0.084311426 -0.049098447 -0.99522907 0.051536273
-0.29651415 -0.47869748 0.84232175 0.39300144 0.0024808424 -0.9195345 0.0084092133
-0.2692287 -0.46363211 0.85242093 0.6156109 -0.0069108028 -0.78802001 0.039830554
-0.44222745 -0.35661417 0.84184694 -0.57168585 0.7056545 -0.41860127 0.10846601
-0.350788 -0.40969825 0.82427078 0.34193376 0.16586158 -0.92497092 0.016601
-0.27999133 -0.38343349 0.85361326 0.46725693 0.3723619 -0.80188376 0.049101152
-0.32201815 -0.45853627 0.83307397 0.35472593 0.0069213491 -0.93494469 0.0066310763
-0.44033444 -0.35269618 0.83553898 -0.54313278 0.71761018 -0.43593845 0.11800616
-0.41412047 -0.40016738 0.79906327 -0.20368379 0.12728976 -0.97072667 0.089020468
-0.29678014 -0.3376486 0.95486486 0.1957262 0.9806149 0.0092616724 0.033458762
-0.36882299 -0.33879364 0.96783841 -0.054668859 0.99844784 -0.010641168 0.010637413
-0.24354412 -0.47379565 0.86714774 0.86697608 0.048441246 -0.49598974 0.071340851
-0.23762755 -0.34864408 0.88156909 0.74288565 0.5836224 -0.32788068 0.092451207
-0.23569793 -0.47547001 0.86902243 0.92061961 0.092631854 -0.37931368 0.06594193
-0.25541994 -0.53305441 0.85985798 0.74936002 0.030395769 -0.66146487 0.067658752
-0.44909498 -0.33819413 0.98444945 -0.20502268 0.96412027 0.16863506 0.081967384
-0.45987347 -0.34507045 0.89948624 -0.39194733 0.89752787 -0.20204222 0.078679658
-0.39464679 -0.45057985 0.79984969 0.027451202 -0.084964 -0.99600583 0.043306939
-0.36960727 -0.38496965 0.8160314 0.29997796 0.3079361 -0.90287793 0.046430912
-0.40265217 -0.41970173 0.80253178 -0.022346281 -0.034271829 -0.99916267 0.052620195
-0.29103675 -0.55605727 0.84288168 0.36889416 -0.063747667 -0.92728275 0.032328703
-0.37059221 -0.50964797 0.81557703 0.17263791 0.044615109 -0.9839744 0.03714259
-0.48064789 -0.34093148 0.97223961 -0.36958462 0.91997313 0.13060097 0.11621504
-0.32372722 -0.50643742 0.8327145 0.3156887 -0.0011067548 -0.9488622 0.011481432
-0.38035259 -0.4790692 0.80928445 0.093525253 -0.069994852 -0.99315345 0.043379258
-0.2570923 -0.55956984 0.85908365 0.70901513 -0.093800932 -0.69892699 0.058858853
-0.41819379 -0.37591705 0.80235088 -0.21816534 0.33593291 -0.91627127 0.12410617
-0.41550466 -0.41687188 0.80274975 -0.20706883 -0.0063488926 -0.97830576 0.062224969
-0.35488698 -0.33858615 0.88743526 -0.0066120792 0.98817873 -0.15316378 0.030194737
-0.26301193 -0.40612167 0.85927606 0.64801466 0.16501939 -0.74353576 0.048338085
-0.24705045 -0.58795899 0.86338651 0.77194387 -0.33173111 -0.54227036 0.1130685
-0.30199516 -0.33849287 1.0375881 0.17684713 0.91992635 0.34994379 0.10472208
-0.26811436 -0.53020275 0.85252112 0.57876104 0.027477698 -0.81503415 0.035537727
-0.48130846 -0.34286308 0.99722075 -0.40551761 0.84167457 0.35656616 0.12451631
-0.36675647 -0.33968711 0.86761516 0.057081401 0.97607303 -0.20981687 0.041308429
-0.35488555 -0.36830509 0.82294577 0.31540185 0.54888493 -0.77411044 0.06282942
-0.34149721 -0.33752713 0.88949776 0.041611303 0.98466665 -0.16941075 0.026409041
