# .PCD v0.7 - Point Cloud Data file format
VERSION 0.7
FIELDS x y z normal_x normal_y normal_z curvature
SIZE 4 4 4 4 4 4 4
TYPE F F F F F F F
COUNT 1 1 1 1 1 1 1
WIDTH 302
HEIGHT 1
VIEWPOINT 0 0 0 1 0 0 0
POINTS 302
DATA ascii
-0.17175131 -0.1220675 0.12586565 -0.89531207 -0.00074145052 0.44543886 0.00016816497
-0.17175131 -0.1184912 0.12586565 -0.89531207 -0.00074145052 0.44543886 0.00016816497
0.017767968 -0.1291371 0.18892527 0.045480043 -0.44756722 -0.89309311 0.12563124
-0.021541992 -0.1224317 0.19825272 -0.41688901 -0.63622522 -0.6491695 0.16311318
-0.014859479 -0.12297922 0.19712789 -0.35471639 -0.65167683 -0.67044294 0.1711798
-0.0057117338 -0.12316599 0.19663112 -0.26767287 -0.6990335 -0.66310143 0.1759797
0.0041671982 -0.12583445 0.19407663 -0.15670212 -0.60690033 -0.77917677 0.16043642
0.014631097 -0.12512764 0.19659509 -0.031928021 -0.62520075 -0.77981067 0.17050131
0.024839777 -0.12621316 0.19695474 0.15072662 -0.46520492 -0.87227631 0.14578912
-0.011261124 -0.092458725 0.19917111 -0.40812564 0.24737 -0.8787728 0.2889224
-0.0059747174 -0.093806289 0.19748327 -0.1830408 0.022167094 -0.98285538 0.28911346
0.0054549025 -0.091948122 0.1970648 0.20489548 0.12896313 -0.97025067 0.29070559
0.018980667 -0.092980951 0.1992117 0.45334476 0.186883 -0.87152356 0.26844209
-0.0068000667 -0.085312732 0.19862674 -0.19394736 0.74508744 -0.63814509 0.27353925
0.0053839437 -0.084514908 0.19695431 0.12363856 0.63216287 -0.76490766 0.27034009
0.01190758 -0.088271208 0.19768374 0.30595025 0.47286069 -0.8263154 0.27485529
-0.0031812247 -0.078340225 0.19845067 -0.10362189 0.81770486 -0.56623423 0.24190332
0.00644091 -0.07608261 0.19802824 0.053149451 0.79735959 -0.60115945 0.23959303
0.010948656 -0.074226066 0.19962013 0.14243428 0.81488001 -0.56185681 0.22688814
0.0036475279 -0.067945294 0.1994054 -0.016202329 0.84247804 -0.53848696 0.21778759
-0.03440427 -0.13891624 0.20269515 -0.61662728 -0.54438758 -0.56869417 0.12028522
0.043029238 -0.13915955 0.20205784 0.49778774 -0.34439376 -0.79599017 0.11846738
-0.026536403 -0.12362494 0.20780215 -0.44677752 -0.73536736 -0.50953382 0.15947711
-0.014550229 -0.12219342 0.20377468 -0.30530572 -0.7767418 -0.55087262 0.17379077
-0.0018941382 -0.12170972 0.20344047 -0.21257488 -0.78335375 -0.58409661 0.19305834
0.0080303708 -0.12232022 0.20232317 -0.13720182 -0.75607932 -0.63993734 0.20420419
0.012990803 -0.12224003 0.205599 -0.10072508 -0.78459078 -0.6117776 0.20813493
0.024219867 -0.12364729 0.20562838 0.096710689 -0.65898663 -0.7459113 0.19292341
0.035063922 -0.1265489 0.20569181 0.3335174 -0.44446394 -0.83139515 0.1661911
-0.023267897 -0.09327314 0.20634928 -0.72946852 0.39651284 -0.55736279 0.27036291
-0.01551952 -0.091921218 0.20090017 -0.53478432 0.32713285 -0.77909547 0.28833634
0.019743301 -0.091376401 0.20018086 0.48967469 0.32025558 -0.81095934 0.26618442
0.033839446 -0.092788175 0.20825882 0.56404668 0.46862897 -0.6798811 0.23058076
-0.023876168 -0.084828109 0.2082327 -0.57528174 0.70983535 -0.40642929 0.24363697
-0.016175646 -0.084377587 0.20261712 -0.43596521 0.76183391 -0.47910705 0.25195456
0.018264821 -0.08677119 0.20072901 0.39156857 0.59883863 -0.69861746 0.2600719
0.026095927 -0.083546139 0.20626044 0.45177329 0.67020661 -0.58883286 0.24327214
-0.020662321 -0.076752953 0.20773661 -0.44910803 0.76196301 -0.46659875 0.22911362
-0.016524429 -0.077601917 0.20435467 -0.36548665 0.78663385 -0.49762109 0.65221334
-0.0093850344 -0.077121578 0.20082647 -0.23108993 0.81502873 -0.53134328 0.23083776
0.025183618 -0.07842245 0.20675871 0.38482708 0.75157976 -0.53575742 0.2285015
-0.0027576466 -0.063739397 0.20115286 -0.095314749 0.84540015 -0.52556044 0.21227086
0.009618069 -0.060844045 0.20218863 0.10707997 0.83625495 -0.53778398 0.20588133
0.015341693 -0.064181469 0.20469333 0.18393724 0.82384485 -0.53614068 0.21106742
0.023559401 -0.067369342 0.20906931 0.37184578 0.77317572 -0.5137412 0.21543111
0.0041572894 -0.059805591 0.20031798 0.020957146 0.84782279 -0.52986538 0.20116331
0.010444246 -0.058081526 0.20426777 0.12087277 0.83899808 -0.53053933 0.20142764
-0.01607457 -0.04073773 0.20911647 -0.22645122 0.92725945 -0.29817739 0.15457749
0.012763447 -0.042814091 0.20889011 -0.11007348 0.94076002 -0.32070917 0.15533298
-0.014280956 -0.036375653 0.20492882 -0.20823139 0.91663474 -0.34120449 0.13979214
-0.0015114739 -0.034714099 0.20471251 -0.13458538 0.93239707 -0.33544365 0.13737126
0.0094676884 -0.030133905 0.20642143 -0.058129705 0.933209 -0.354601 0.13003352
0.0083341775 -0.029081045 0.20270105 -0.033094898 0.90956813 -0.41423494 0.12958691
-0.038390517 -0.1376746 0.21473134 -0.59440356 -0.67157203 -0.44235209 0.11296162
0.045396615 -0.13685459 0.21534181 0.37077811 -0.61831832 -0.69296908 0.18139578
-0.033237707 -0.1233173 0.21483582 -0.526429 -0.72231424 -0.4484804 0.15053624
-0.029391954 -0.12134389 0.21182178 -0.45003641 -0.76067978 -0.46779642 0.16154355
0.01686768 -0.12256108 0.21075554 -0.0010504662 -0.8552987 -0.51813424 0.23188245
0.023379931 -0.12266477 0.21591853 0.080758393 -0.88398314 -0.46049097 0.23659652
0.036618873 -0.12598827 0.21577215 0.41489005 -0.51934767 -0.74709046 0.19136705
-0.032657821 -0.10746628 0.21756242 -0.75475186 -0.44596973 -0.48110351 0.21980023
-0.031142395 -0.092208371 0.21704683 -0.78041208 0.56410497 -0.26970837 0.25180849
-0.027920505 -0.0946045 0.21154325 -0.82777423 0.34192771 -0.44483179 0.25428098
0.037851375 -0.091487944 0.21275771 0.60330099 0.50400966 -0.61806327 0.21780992
-0.03069357 -0.087568857 0.2174294 -0.72943759 0.63327277 -0.25862405 0.2372884
-0.026954599 -0.08611881 0.21150725 -0.63389802 0.68367511 -0.3616097 0.24163477
0.034177646 -0.084534712 0.21337092 0.49980125 0.66807228 -0.55125147 0.22687632
-0.026092388 -0.075685397 0.21513873 -0.61697614 0.70995563 -0.3395637 0.22271711
0.034169208 -0.077931508 0.21455903 0.48017102 0.72985744 -0.48656344 0.21354695
0.027699303 -0.064348377 0.21396565 0.39935774 0.77705467 -0.48651773 0.20866939
0.031711683 -0.064306505 0.218485 0.43485209 0.77270579 -0.46241698 0.20549287
0.022763291 -0.053434972 0.21528138 0.25157407 0.84078628 -0.47936293 0.19490571
0.043784451 -0.057779752 0.2102081 0.72590905 0.49145424 -0.48117438 0.14984651
-0.026701946 -0.035964079 0.212475 -0.31668544 0.90195948 -0.29356331 0.14072971
0.014302693 -0.036187984 0.21165875 -0.086175695 0.94539279 -0.31433475 0.14253825
0.02154658 -0.027380902 0.21766001 0.055569209 0.95100909 -0.30412799 0.13433588
-0.04230075 -0.13871053 0.22486317 -0.65753573 -0.65706414 -0.3686645 0.11461097
0.011579677 -0.13253917 0.22845587 -0.050823424 -0.91836119 -0.39246625 0.19962001
0.052683115 -0.13510557 0.22997451 -0.062699012 -0.91836351 -0.3907395 0.22660525
0.065415993 -0.13895769 0.2211505 0.43908352 -0.63138515 -0.63918585 0.19644727
-0.036305241 -0.12266181 0.22445443 -0.60173714 -0.70340168 -0.37833646 0.16210009
0.014688835 -0.12489662 0.22607295 0.060703591 -0.94963193 -0.30743185 0.23637648
0.02863843 -0.12238193 0.22539657 0.091342993 -0.93323499 -0.34746075 0.24008229
0.036433715 -0.12373983 0.22394602 0.34001675 -0.73164326 -0.59083563 0.2254843
0.064899832 -0.12206785 0.22163245 0.84311563 0.21988161 -0.49072212 0.16147073
-0.034220234 -0.11126312 0.22095811 -0.7244038 -0.53113252 -0.43947408 0.20530519
0.064338058 -0.1170049 0.222041 0.85325927 0.26639408 -0.44831121 0.15166305
-0.033852018 -0.10016789 0.22157699 -0.93909323 0.090801686 -0.33144987 0.25330749
-0.034170743 -0.093626238 0.22481814 -0.82094282 0.54076767 -0.18336628 0.24591124
-0.03282252 -0.083319947 0.22557117 -0.77708727 0.60631943 -0.16885541 0.22810964
0.039165929 -0.084778666 0.22153719 0.53581744 0.70637506 -0.46252993 0.21798307
-0.03113408 -0.076108433 0.22598329 -0.74839526 0.64100903 -0.17032896 0.21486649
-0.029603457 -0.072659366 0.22444677 -0.7203576 0.6658234 -0.1943301 0.20752336
0.037554722 -0.077157967 0.2209923 0.49522975 0.7329188 -0.46645215 0.2081739
0.034833651 -0.066524006 0.2229954 0.48137569 0.75305575 -0.44853583 0.20512457
0.027963791 -0.054969579 0.22802161 0.4054819 0.80246037 -0.43776906 0.2028321
0.030702505 -0.058738291 0.22531176 0.43312645 0.78407395 -0.4445554 0.20402488
-0.036591638 -0.03628163 0.22329475 -0.42308748 0.87695801 -0.22790721 0.14383885
0.028431611 -0.031102434 0.2230112 0.13013782 0.95296967 -0.27370235 0.13524121
0.050199322 -0.13839425 0.23303236 -0.053076573 -0.93522006 -0.3500661 0.21905243
-0.039406292 -0.12204332 0.23445457 -0.74645752 -0.60009015 -0.28756395 0.17786811
0.013483074 -0.1256285 0.23172748 0.11556649 -0.96662456 -0.22865123 0.24111062
0.025095874 -0.12291064 0.23456678 0.036449116 -0.99251825 -0.11652932 0.2579017
0.03499376 -0.1219047 0.23443556 0.13048762 -0.96256024 -0.23759361 0.25204852
0.045230523 -0.12543723 0.23216176 0.8583675 -0.25075826 -0.44757745 0.24050429
-0.038129032 -0.11408685 0.23471418 -0.906349 -0.35300088 -0.2322109 0.22006781
-0.015185157 -0.11668727 0.2314719 0.44712135 -0.88525242 0.12810414 0.25964504
-0.037672684 -0.10506775 0.23654905 -0.98963219 0.099741682 -0.10334259 0.23693442
-0.035812389 -0.092257768 0.23208098 -0.80681825 0.57559693 -0.13316286 0.2414546
-0.034333616 -0.085202597 0.23560193 -0.8113997 0.57839209 -0.08422073 0.23128882
0.036892634 -0.089096069 0.23172134 0.52266115 0.7291081 -0.44184467 0.23892309
-0.032993812 -0.075499728 0.23438185 -0.77606523 0.62239701 -0.10170896 0.21232893
-0.032867473 -0.069617167 0.23697531 -0.75882155 0.64542913 -0.087240808 0.20181111
0.029250711 -0.054530688 0.23616828 0.43460524 0.8053686 -0.40311262 0.20871364
0.030269001 -0.056233868 0.23508739 0.457937 0.78616786 -0.41501063 0.20577952
0.024009911 -0.047232218 0.23836982 0.17310217 0.91485077 -0.36480653 0.203687
-0.043735541 -0.034205638 0.23495643 -0.57420087 0.80760652 -0.13440597 0.14353567
0.055133265 -0.13621706 0.24302298 -0.56283098 -0.81691736 -0.12596591 0.26336807
-0.032095298 -0.12051158 0.24291196 -0.73285007 -0.6616556 -0.15856428 0.23347391
-0.0062651322 -0.12239452 0.2426019 0.35045803 -0.93517959 0.05117004 0.26202485
0.027532136 -0.12193666 0.24277551 0.039769229 -0.99863505 0.033859808 0.26567739
0.035547629 -0.12183495 0.24324055 -0.06332393 -0.99211299 0.10817562 0.26505092
0.04484145 -0.12422512 0.24710931 0.96601975 0.23621893 0.10491163 0.2640391
0.11379647 -0.12147595 0.24711576 0.047576047 -0.98966569 0.13527183 0.033097204
-0.041331135 -0.1159678 0.24673459 -0.99236369 -0.095143251 -0.07849884 0.19993407
-0.018166197 -0.11944611 0.24998944 0.43098274 -0.90123183 0.04511176 0.25479308
-0.037873529 -0.10733947 0.24178764 -0.98091054 0.17722642 -0.080033578 0.23047927
-0.035623793 -0.096215785 0.243085 -0.80446923 0.58718061 -0.089711949 0.23675565
-0.034057535 -0.088483207 0.24364774 -0.81452417 0.5772922 -0.05730813 0.23256692
-0.032781448 -0.074588589 0.24379008 -0.78840297 0.61406219 -0.036720075 0.21145341
0.032807153 -0.079886965 0.24649647 0.63261229 0.72221255 -0.27966183 0.25001496
-0.033732653 -0.064209446 0.24551031 -0.73739552 0.67518729 -0.019233536 0.18491451
0.033765532 -0.0644667 0.24534097 0.57393223 0.74380714 -0.3425678 0.21845846
-0.036259968 -0.055038892 0.24461332 -0.70018852 0.71361554 -0.02211068 0.16817284
0.027232045 -0.051173631 0.24150121 0.3934274 0.83542669 -0.38376707 0.21534275
0.03102529 -0.057949025 0.24994236 0.53699827 0.77926099 -0.32308683 0.22078963
0.06156189 -0.13758332 0.25013357 -0.39891037 -0.90225971 -0.16370115 0.23813745
-0.015857201 -0.12049245 0.25840515 0.36961189 -0.92880756 0.026526013 0.2604512
0.019308029 -0.12223205 0.25100568 0.21284679 -0.97698241 -0.014200464 0.26064983
0.026017237 -0.12185755 0.25527218 0.059621327 -0.9968884 0.051564462 0.2604357
0.033046663 -0.12169985 0.25477326 0.39232528 -0.89946365 0.19247338 0.27718687
0.047461048 -0.12429366 0.2526769 0.92057371 0.073385067 0.38361275 0.23473123
0.060074378 -0.12405625 0.25461194 0.92494559 0.26700589 0.27052453 0.22324742
0.072486296 -0.12100707 0.25557694 0.92456573 0.37362948 0.074694231 0.20396185
0.088633686 -0.12064144 0.25400636 0.60369426 0.79689723 -0.022541791 0.20617092
0.099818796 -0.1215282 0.25855821 -0.15455103 -0.98772997 0.022437399 0.11563818
-0.051712379 -0.11373881 0.25792938 -0.99134082 0.11565053 0.062195845 0.14363675
-0.04408817 -0.11600962 0.25420731 -0.99600917 0.033747628 0.082624741 0.182532
-0.033000741 -0.1174109 0.25741509 -0.95203686 0.28468534 0.11216102 0.23634864
-0.026523914 -0.11570656 0.25716135 -0.84787834 0.5256027 0.069599256 0.25621843
0.073782481 -0.11903957 0.25995448 0.91216803 0.3804844 0.15225331 0.20382906
-0.056328241 -0.10203078 0.2560561 -0.99403137 0.09109851 0.060022332 0.13165429
-0.0327904 -0.10546175 0.25409028 -0.92908138 0.3677471 0.039620884 0.23898938
-0.02958752 -0.091308266 0.25544855 -0.80964392 0.58685803 -0.0086272955 0.23164469
0.019996345 -0.096963771 0.25203913 0.1298624 -0.99131942 0.02053188 0.28814521
0.025355686 -0.092545196 0.25818321 0.26153773 0.96185213 -0.080240741 0.28210506
-0.030575998 -0.084737003 0.25501227 -0.80759293 0.58959758 0.012979379 0.21963276
-0.028683277 -0.085588872 0.25705796 -0.80440211 0.59398806 0.010742527 0.2442192
0.02634632 -0.089898251 0.25720274 0.33654636 0.9345938 -0.11520001 0.27987304
-0.030775592 -0.077878185 0.2530607 -0.80276138 0.59625059 0.0077033499 0.21526463
-0.029603571 -0.071946323 0.2555865 -0.77917904 0.62549692 0.04041874 0.20018718
-0.032306504 -0.060472459 0.25460109 -0.72655368 0.68598235 0.039345872 0.17708504
-0.029773664 -0.061760604 0.2584075 -0.73165876 0.67816222 0.069076523 0.17965934
0.029517204 -0.061598778 0.25719741 0.58587122 0.76850718 -0.25719979 0.23960121
0.031659741 -0.06398233 0.25266206 0.59588587 0.74700272 -0.29479986 0.23105316
-0.030878739 -0.057125967 0.25749743 -0.72869217 0.68098253 0.072598644 0.16811164
0.028053172 -0.055781133 0.25595871 0.55821443 0.79236281 -0.24608472 0.2277056
0.030476356 -0.0587998 0.25238559 0.56718683 0.76865661 -0.29574674 0.22686195
-0.036637414 -0.048140153 0.25321403 -0.68841577 0.72404033 0.043004405 0.16165331
0.023975199 -0.044221461 0.25972486 0.18725038 0.97279221 -0.13642831 0.19905797
-0.037893191 -0.035782412 0.25963932 -0.57597804 0.81042838 0.10702875 0.1624445
0.023095537 -0.035773922 0.25986651 0.070621096 0.99684703 -0.036175329 0.17104137
0.017686062 -0.12228691 0.26646724 0.20960587 -0.96508354 0.15709621 0.26790795
0.025186058 -0.12175883 0.26603806 0.43641314 -0.63614035 0.63629329 0.26709136
0.033836618 -0.1214385 0.26186049 0.70268148 -0.22695062 0.67433834 0.24442576
0.044690002 -0.12082034 0.26216963 0.84372568 0.078394949 0.53101903 0.21428743
-0.053061262 -0.11423345 0.26428559 -0.98574728 0.12427508 0.11339365 0.13608833
-0.046619274 -0.11684471 0.26397827 -0.97391492 0.16505183 0.15571642 0.16500616
-0.037045341 -0.11765259 0.26470065 -0.92413604 0.33281454 0.18763572 0.20015727
-0.024434423 -0.11745614 0.26437226 -0.8729251 0.43722117 0.21642438 0.2387204
-0.017236566 -0.11921643 0.26712656 0.76671094 -0.60665333 -0.21006224 0.25314987
-0.0050600008 -0.11969753 0.26938462 0.1204538 -0.99215227 0.033538833 0.27080971
0.074260518 -0.1183759 0.26141778 0.91363847 0.37492174 0.15715739 0.20131342
-0.01463347 -0.10351848 0.26811641 0.69253999 -0.7208758 -0.026952494 0.24608259
-0.016645577 -0.095076144 0.2645584 -0.76838565 0.63860744 0.042000156 0.28397825
0.0035836285 -0.095881902 0.2685563 0.32567546 -0.93965673 -0.10478882 0.27488065
0.015405855 -0.091372453 0.26345435 0.028836926 -0.99391049 -0.10635046 0.28667644
0.03812173 -0.094461575 0.26402259 0.81267625 0.44688463 0.3739672 0.23371935
-0.024926465 -0.087792337 0.26134014 -0.7953763 0.60343033 0.056993797 0.23959769
0.013769327 -0.086422481 0.26666141 -0.14973998 0.97154844 0.18349797 0.28354931
0.024415309 -0.082237713 0.26335236 0.51001155 0.86012894 -0.0081575811 0.27577201
-0.03753848 -0.078053296 0.26598284 -0.81811756 0.51209635 0.26161236 0.17184068
-0.023560256 -0.071972601 0.26512602 -0.75916171 0.64059424 0.11537994 0.20056541
-0.017530005 -0.074583203 0.268684 -0.73111767 0.65487432 0.19132826 0.22479688
0.023995779 -0.073662624 0.26411292 0.57399297 0.81879991 0.0099363178 0.27636901
0.023171993 -0.065611593 0.26608828 0.61391169 0.78937298 -0.0016555282 0.27296802
-0.025509289 -0.055925429 0.26512259 -0.72169054 0.6747843 0.15436631 0.1681643
0.017169543 -0.05353203 0.26850995 0.28721336 0.95188719 0.10686082 0.26918101
0.021516789 -0.052835859 0.26459187 0.47626987 0.87879252 -0.029846324 0.25477642
-0.031954788 -0.043601055 0.26262736 -0.66833019 0.72957784 0.14508942 0.16135018
-0.029804556 -0.040946659 0.26503333 -0.65160865 0.73986316 0.16735828 0.16128856
0.0067845164 -0.042706143 0.26927388 -0.20135064 0.97913599 -0.027398281 0.1920957
0.0172401 -0.047380481 0.26658791 0.13520196 0.99078894 -0.0075918115 0.23001558
0.021381948 -0.046923976 0.26316676 0.26491892 0.95947611 -0.096039154 0.22009031
-0.034680676 -0.033398855 0.26284471 -0.55286074 0.81962818 0.15018234 0.16694535
-0.026034821 -0.033575147 0.26750797 -0.49647012 0.85237461 0.16424063 0.17634785
-0.024099817 -0.12022128 0.27582559 -0.85144711 0.34834826 0.39203501 0.23011611
-0.015507267 -0.12009776 0.27473739 -0.79627448 0.4993341 0.34148553 0.25107649
-0.003966291 -0.12161564 0.27747005 0.5316447 -0.68779951 -0.49425277 0.28671816
0.005990807 -0.12425266 0.27709943 0.11273139 -0.73899591 0.66421127 0.2951026
0.013344927 -0.12391168 0.2766951 0.27318326 -0.42310315 0.86391819 0.26945725
0.024063746 -0.12251333 0.27258363 0.46822584 -0.26675034 0.84238285 0.23983864
-0.050975133 -0.11710009 0.27687895 -0.95352423 0.18797058 0.23549676 0.14552072
-0.047557931 -0.11724917 0.27574214 -0.94695151 0.20801945 0.24497055 0.15470237
-0.035770714 -0.11822292 0.27539119 -0.86918676 0.3407388 0.35834542 0.17868593
-0.023689236 -0.11858425 0.27437499 -0.83940655 0.4099049 0.35689586 0.22108918
0.0062817149 -0.11870438 0.27220416 0.21995737 -0.97441608 0.04617453 0.27590576
-0.0016381724 -0.10510031 0.2719427 0.42306674 -0.90070474 -0.098719351 0.26403829
-0.048619479 -0.090918273 0.27493939 -0.86520267 0.3675352 0.34108981 0.1519154
-0.0047209184 -0.084790625 0.27191254 -0.66424048 0.73035479 0.15926854 0.25767457
-0.0044191051 -0.075044282 0.27387038 -0.64045697 0.72555035 0.2517767 0.24340919
0.0078183515 -0.074591324 0.27306533 -0.56069708 0.78790861 0.2545954 0.26440451
0.013362173 -0.071681894 0.27188641 -0.29124689 0.89262182 0.34409529 0.27325091
-0.014508519 -0.064274088 0.27271202 -0.6946975 0.67295212 0.25402901 0.19569962
-0.0058630509 -0.063509107 0.27575493 -0.62965596 0.68375826 0.36879265 0.20780584
0.0065177139 -0.064713553 0.2753585 -0.5182066 0.73899281 0.4305248 0.24446988
0.015645238 -0.064835772 0.27145019 -0.006422698 0.91618472 0.40070483 0.28063843
-0.013833978 -0.056322929 0.27265769 -0.68465304 0.68272328 0.25522372 0.18505161
-0.0025430447 -0.05493943 0.27518889 -0.61313164 0.69835538 0.36928216 0.20448036
0.0051125744 -0.055290263 0.27434167 -0.53062165 0.73735517 0.41802874 0.23850597
0.012506517 -0.057076134 0.27224341 -0.39130026 0.82081306 0.41611302 0.26951808
-0.00021103793 -0.048055295 0.2729021 -0.57268786 0.77393037 0.27029702 0.2180649
-0.017819844 -0.038623299 0.27003172 -0.44327286 0.89396614 0.065831907 0.17877389
-0.0071230289 -0.038571998 0.27137965 -0.33595583 0.93821847 0.082944565 0.18339823
-0.0028513118 -0.13582115 0.28709555 0.092820056 -0.9726941 -0.21272203 0.27375796
0.0031569977 -0.13644327 0.28926584 -0.17911999 -0.81269556 -0.55447459 0.25616738
-0.022433031 -0.12104683 0.28422424 -0.76490647 0.45910838 0.45181596 0.21847931
-0.016058998 -0.12508653 0.28790048 -0.75164491 0.49991399 0.43025103 0.24010888
-0.0060729044 -0.12535885 0.28125048 0.64812368 -0.59016055 -0.48129648 0.28964087
0.041154422 -0.12072876 0.28960118 0.59599245 0.077216417 0.79926878 0.15214042
-0.046485752 -0.11819275 0.28085035 -0.92098033 0.24578184 0.30230206 0.14561984
-0.034853645 -0.11928163 0.28552765 -0.83692485 0.37527913 0.39839968 0.17910238
0.041288022 -0.1193808 0.28957361 0.59333736 0.080409966 0.8009277 0.15044931
-0.036919888 -0.10243585 0.28333738 -0.83868891 0.37702486 0.39300528 0.16255014
0.020040389 -0.13903759 0.29589421 -0.13365433 -0.93693388 -0.32294196 0.20853505
-0.043875571 -0.12097606 0.29863161 -0.8404752 0.38378948 0.38250116 0.15924016
-0.031796675 -0.12157761 0.29231358 -0.81231618 0.42654032 0.39775103 0.18002363
0.023954934 -0.12547106 0.29108948 0.48566303 0.066138871 0.8716405 0.1905883
-0.0090490449 -0.1147664 0.29038858 -0.53779227 0.6315797 0.55846816 0.23069204
-0.048464008 -0.12156713 0.30767804 -0.92093545 -0.38601273 0.053591695 0.18032008
0.034802675 -0.12161632 0.3019281 0.57044154 0.16317588 0.80496591 0.16490817
0.063972443 -0.1220675 0.3054491 0.52563572 0.59955817 0.60352063 0.16623044
0.063972443 -0.1186074 0.3054491 0.5716303 0.49185348 0.65674883 0.16217865
-0.052646644 -0.1210869 0.31775734 0.00064172043 -0.96943647 -0.2453417 0.11136457
0.071369767 -0.1220675 0.31904641 0.051223062 -0.99795371 0.03827019 0.023636147
-0.051506821 -0.11425559 0.31819904 -0.28256929 0.90773028 0.31012952 0.13794976
-0.030508067 -0.11959339 0.31494293 -0.7120086 0.60519505 0.35606575 0.15579915
-0.029474171 -0.1159615 0.31331351 -0.77465039 0.52498287 0.3525759 0.15528736
-0.023379359 -0.1219668 0.3239632 -0.40110016 0.85169017 0.33725733 0.15517741
-0.0035367487 -0.12288918 0.3211506 0.22155038 -0.89338845 -0.39086124 0.17939091
0.013302011 -0.12118129 0.32792807 0.17806017 -0.95454967 -0.23901786 0.13824235
0.15291086 -0.12125179 0.32316539 0.95668918 0.27017042 -0.10841534 0.0046651638
0.013821212 -0.11745284 0.32668883 0.37116918 -0.86945391 -0.32601139 0.16491219
0.15259513 -0.11975775 0.32367614 0.95668918 0.27017042 -0.10841534 0.0046651638
-0.059818469 -0.12200361 0.33335823 -0.096465349 -0.99520987 -0.015869357 0.016402544
0.015201841 -0.12561357 0.33119434 0.055537544 -0.99094701 -0.12222788 0.076395124
-0.058946121 -0.1146039 0.33378354 -0.0949312 -0.99486041 -0.035226814 0.024002954
0.15639229 -0.133948 0.34463856 0.92467201 -0.31442231 -0.21475646 0.01026963
-0.012419933 -0.12224917 0.34914818 -0.1005096 -0.99459267 0.026138276 0.011695769
-0.0010493929 -0.1220675 0.343281 -0.035440538 -0.99925101 -0.015537919 0.023561429
0.15639211 -0.1220675 0.34463894 0.92467201 -0.31442231 -0.21475646 0.01026963
-0.00104925 -0.117947 0.34328127 -0.029561762 -0.9989801 -0.034130141 0.033271171
0.14933249 -0.11961174 0.34103912 0.95674855 0.26994911 -0.10844256 0.0046620946
-0.10796483 -0.1225073 0.35299069 0.035376843 -0.99937266 -0.0016564922 0.0032894691
-0.018170111 -0.1219152 0.35723528 -0.085962169 -0.99569035 0.034802232 0.010774587
-0.1034379 -0.1188761 0.35480621 0.020672411 -0.99976981 -0.0057514547 0.0032347541
-0.018816613 -0.13516085 0.36587122 -0.033220533 -0.99872315 0.038060065 0.0080974912
-0.02735427 -0.12159295 0.3671211 -0.015874714 -0.99972111 0.017485457 0.0048236013
-0.019285699 -0.12234993 0.36536431 -0.014691606 -0.99974054 0.017409794 0.0050577321
-0.029240122 -0.11852802 0.36473298 -0.012455833 -0.99983853 0.01295388 0.0043268828
-0.0044831247 -0.11773005 0.37976283 -0.01918981 -0.9997375 0.012520373 0.0074939621
-0.014427837 -0.11897884 0.38558221 -0.014367218 -0.9998315 0.011427823 0.0067570112
-0.0047949837 -0.11839218 0.38470909 -0.013623417 -0.99978095 0.015889326 0.0074630799
0.161369 -0.132149 0.3972508 0.17349406 -0.9819867 -0.074846283 0.0070522181
0.16174415 -0.1237791 0.3955597 0.17349406 -0.9819867 -0.074846283 0.0070522181
-0.016546443 -0.12206749 0.40406013 0.024138803 -0.99783611 0.061158434 0.0085594524
0.0076708933 -0.12136871 0.40352547 0.035195269 -0.9982233 0.048078712 0.010183535
-0.016529772 -0.11531562 0.40406206 0.029756427 -0.99846143 0.046791453 0.0082164658
0.0077219461 -0.11648212 0.40755442 0.028822396 -0.99795032 0.057136029 0.010341554
-0.079844519 -0.1220675 0.41262579 0.0030922615 -0.99864233 0.051999785 0.0080386298
-0.069637641 -0.1220675 0.412756 0.0089426544 -0.99908209 0.041892707 0.0063048913
0.1760059 -0.1231613 0.41733941 0.071415514 -0.99670196 0.038537677 0.010614495
-0.079844519 -0.118224 0.41262579 0.0030922615 -0.99864233 0.051999785 0.0080386298
-0.069637641 -0.1197275 0.412756 0.0076891771 -0.99982506 0.017051443 0.0068787527
0.0019607621 -0.1220675 0.42465749 0.035813499 -0.99784505 0.054978814 0.013618727
0.18699616 -0.12173539 0.4290576 -0.25330976 -0.89972115 0.35543787 0.015023863
0.1980554 -0.12324515 0.42877847 -0.25330976 -0.89972115 0.35543787 0.015023863
0.0019607621 -0.1164109 0.42465749 0.035813499 -0.99784505 0.054978814 0.013618727
-0.05042607 -0.12193783 0.51978785 -0.26090029 -0.88107997 0.39449865 0.0050758608
-0.041338392 -0.12143034 0.52775717 -0.26090029 -0.88107997 0.39449865 0.0050758608
-0.033555638 -0.12330935 0.52714729 -0.26090029 -0.88107997 0.39449865 0.003529337
-0.033745617 -0.11609937 0.54407734 -0.26090029 -0.88107997 0.39449865 0.0050758608
