# .PCD v0.7 - Point Cloud Data file format
VERSION 0.7
FIELDS x y z
SIZE 4 4 4
TYPE F F F
COUNT 1 1 1
WIDTH 607
HEIGHT 1
VIEWPOINT 0 0 0 1 0 0 0
POINTS 607
DATA ascii
0.033699349 -0.1414828 0.16575789
0.0043047499 -0.073638253 0.1894998
0.03032903 -0.084487282 0.19366241
0.01968053 -0.093078591 0.1997298
0.007060837 -0.066219941 0.1912182
-0.0287669 -0.14295571 0.13039599
-0.023815829 -0.088502727 0.2118454
0.01473827 -0.050070319 0.27181721
-0.0191216 -0.06833744 0.1984828
-0.0006823577 -0.067263439 0.1925371
-0.01351532 -0.074598998 0.1925327
0.01469808 -0.072017431 0.1920719
-0.02000469 -0.078659177 0.208528
-0.031726182 -0.084175877 0.2019528
0.038636021 -0.05932276 0.2415334
0.0916434 -0.1249497 0.5858441
0.1893854 -0.1101581 0.50853378
0.1869657 -0.1218658 0.42911401
0.1618692 -0.1254907 0.39499599
0.161369 -0.132149 0.3972508
0.1760059 -0.1242551 0.41733941
0.1980554 -0.1244228 0.4287785
0.1827282 -0.1366446 0.3914651
0.1089181 -0.1370336 0.31286129
0.0095736235 -0.059580501 0.27151361
0.032542001 -0.059286028 0.25754139
-0.01055335 -0.07417725 0.19773901
-0.0200761 -0.073839523 0.2031597
-0.030605741 -0.087359428 0.2077304
-0.02708609 -0.074118182 0.20846701
-0.026590301 -0.07321573 0.2109382
-0.01308195 -0.078754641 0.20036639
-0.0100593 -0.076956481 0.1997719
-0.06926389 -0.13894761 0.15194391
-0.02155681 -0.082629263 0.1982463
-0.02813491 -0.093399704 0.2061145
-0.035861518 -0.069821663 0.23305351
0.018721189 -0.053174909 0.27021721
0.034814451 -0.057941321 0.25672451
0.01110798 -0.059972219 0.27216581
0.01161318 -0.074638583 0.1949016
0.0085063577 -0.08785823 0.1900894
0.0025231319 -0.07997261 0.1947165
0.0066965972 -0.081778109 0.1936976
0.0027971191 -0.087225281 0.19259021
0.006648019 -0.079579443 0.19432411
0.040633101 -0.1391502 0.21607549
0.05201498 -0.1385704 0.2461092
0.04593195 -0.1393512 0.2346645
-0.029197671 -0.0982292 0.20859221
-0.03753138 -0.1390778 0.2171419
-0.043357119 -0.1383632 0.22436979
0.024548721 -0.051922418 0.26618591
-0.038705438 -0.1386701 0.2020172
0.01849742 -0.056221481 0.26979131
0.01316403 -0.05817499 0.272423
0.043480631 -0.1390266 0.2020006
0.04932807 -0.13866059 0.230461
0.060488358 -0.13840871 0.251571
0.020110879 -0.05273138 0.26947179
0.01197722 -0.05842337 0.27286381
0.01308961 -0.0589795 0.2730923
0.01699057 -0.04959283 0.2719757
0.065415993 -0.13895769 0.2211505
-0.030429261 -0.079983309 0.20894399
-0.022111859 -0.078752697 0.203444
-0.02202226 -0.071759067 0.2074002
-0.02657279 -0.086256087 0.20407841
-0.025727451 -0.086537391 0.203269
-0.031480711 -0.1386798 0.2127648
0.015864311 -0.13641091 0.19420239
-0.02751312 -0.091815233 0.20353401
-0.02938202 -0.068353638 0.21497931
-0.030858319 -0.071415506 0.21716259
-0.03418171 -0.086160131 0.21549159
-0.028948501 -0.071034312 0.21244849
-0.038373709 -0.081450768 0.22647069
-0.035671711 -0.082065359 0.2184964
-0.0210177 -0.078199171 0.2075804
-0.033660341 -0.070907101 0.2280906
-0.03538676 -0.07074067 0.23545469
-0.038614169 -0.095090799 0.2225733
-0.038866978 -0.084565267 0.2280346
-0.038658109 -0.08549276 0.23538829
-0.02168137 -0.13435601 0.2836625
-0.03399815 -0.071089253 0.2231829
-0.036781471 -0.077215753 0.24232329
-0.015699949 -0.1353227 0.294397
-0.03367592 -0.067423068 0.2495351
-0.031165089 -0.085599981 0.2107311
-0.0088523626 -0.087429568 0.1929877
-0.02610651 -0.079673126 0.21275561
-0.034466028 -0.086942263 0.25971311
-0.02808718 -0.085816033 0.26578611
-0.038833588 -0.084603287 0.23956271
-0.0029306409 -0.13542379 0.28307399
-0.03737836 -0.080831118 0.2219895
-0.031965051 -0.073137693 0.25550821
-0.034845039 -0.079749674 0.2578727
-0.03490397 -0.1029654 0.25607991
-0.0031707289 -0.1358247 0.28414619
-0.028877329 -0.085669249 0.2083891
-0.03282699 -0.083945982 0.2138233
-0.03779323 -0.1378904 0.2174212
-0.033698902 -0.069382049 0.2398297
-0.03370801 -0.069450133 0.23408671
-0.034495249 -0.072408557 0.2321436
-0.036903251 -0.083246969 0.2224095
-0.034316629 -0.078070059 0.24260101
-0.03341661 -0.071953557 0.24313229
-0.038831331 -0.086493753 0.2316225
-0.03724226 -0.076703943 0.2366401
-0.033413179 -0.081565849 0.25468031
-0.02507804 -0.1140544 0.25824401
-0.0022676741 -0.072556853 0.27517071
-0.001631737 -0.104121 0.27893791
0.01378387 -0.053685721 0.1946031
0.0083670914 -0.0749413 0.2747069
0.02329855 -0.068721168 0.26799941
0.01679625 -0.073073663 0.27356589
0.02890702 -0.084644303 0.27143109
0.02335388 -0.068367757 0.26883861
0.02498362 -0.066198133 0.26738769
-0.003788576 -0.088019833 0.27995029
0.01925258 -0.060696129 0.2668398
-0.001263984 -0.081717312 0.27892941
0.032927331 -0.051913772 0.26052949
0.038157459 -0.094429269 0.26397169
0.03196983 -0.053264499 0.25778291
0.0042232131 -0.13908491 0.2848587
-0.031623151 -0.04778662 0.2647973
0.005878672 -0.082899749 0.192451
0.0071341689 -0.071249753 0.1973865
0.01024286 -0.09384504 0.1922138
0.004908904 -0.087313011 0.1931124
0.02055076 -0.086093433 0.1954166
-0.0096315518 -0.078681633 0.19837759
-0.01317711 -0.090392008 0.19322079
-0.01211751 -0.09172906 0.19452611
-0.01271164 -0.079798982 0.1983256
-0.0089361668 -0.088749543 0.1939237
-0.0082307011 -0.080207258 0.19628359
0.01130372 -0.089539573 0.19592731
0.15639199 -0.133948 0.34463921
0.031816069 -0.061459851 0.26046139
-0.033774901 -0.13002279 0.52667087
0.05421361 -0.1341168 0.41441301
-0.071671396 -0.1307155 0.45683199
-0.01303857 -0.094167888 0.19724379
-0.032026712 -0.088085689 0.20746531
-0.033090699 -0.099057198 0.20631909
-0.02840708 -0.079844072 0.20591889
0.006086424 -0.065143198 0.27397129
0.0078155249 -0.055315211 0.27276239
-0.01892603 -0.092111111 0.1940649
-0.02467555 -0.07654091 0.202277
-0.024730351 -0.079925083 0.27488941
-0.019806109 -0.050969228 0.26427981
-0.03466323 -0.054698318 0.2408185
-0.032900479 -0.05973899 0.24042881
-0.033377022 -0.05361202 0.2466621
0.02189034 -0.062572487 0.20449729
-0.017563431 -0.058174931 0.26884869
0.04054188 -0.085959122 0.2201743
-0.03185726 -0.057621472 0.25822341
-0.01074294 -0.058033641 0.27182439
0.006272472 -0.0890605 0.19530229
0.01722197 -0.05309331 0.27190351
-0.028983761 -0.054673359 0.26163459
0.038365781 -0.09033899 0.21283831
-0.026499251 -0.0562106 0.25878209
0.03392829 -0.087636784 0.2091379
0.036644168 -0.09194988 0.2101194
0.01425831 -0.06021313 0.27475289
0.0085414695 -0.062895477 0.27548891
0.01463364 -0.056859441 0.27327389
0.017699569 -0.05995965 0.2709876
0.03998144 -0.081857339 0.22020049
0.039118782 -0.076823913 0.21994551
0.04221582 -0.084659368 0.221347
0.03660322 -0.0803781 0.2155354
0.040191911 -0.092039302 0.214605
-0.0152006 -0.051713198 0.26734209
-0.02445503 -0.0581568 0.2644209
-0.02460647 -0.059347749 0.2649512
0.0034998129 -0.085206017 0.19703449
0.019817069 -0.091158196 0.1964034
0.01137751 -0.085536733 0.1968437
0.00082573289 -0.090122662 0.1942836
0.024090691 -0.067170292 0.20841549
0.020537561 -0.096078083 0.1960934
0.033349842 -0.062580183 0.2173641
-6.8634748e-05 -0.065774441 0.2011144
0.01128106 -0.065237448 0.20083129
0.03529777 -0.067780003 0.223796
0.016009931 -0.062238742 0.2039503
0.034663789 -0.077840663 0.21398281
-0.001036763 -0.054500949 0.27631411
0.02865031 -0.067128018 0.2117666
0.03128843 -0.062419832 0.2128109
0.034249451 -0.093022533 0.2077729
0.030251641 -0.062478449 0.2131115
-0.01764961 -0.069761828 0.2761642
0.024691129 -0.07711646 0.20416
0.02641217 -0.084432617 0.2039046
0.006496225 -0.059971929 0.2009977
0.0098329298 -0.060711339 0.2016249
-0.00032098591 -0.078030109 0.1984484
-0.02192883 -0.075327948 0.2056071
0.006344751 -0.076306507 0.19405331
-0.017375611 -0.090741158 0.19840451
-0.01578459 -0.077802822 0.1992147
0.00743515 -0.077663422 0.19904719
-0.02072789 -0.082797013 0.2013427
0.007342685 -0.080409631 0.1976313
0.01380804 -0.089536227 0.1971257
-0.0036121679 -0.079713717 0.1980879
-0.03016245 -0.098186299 0.2079
-0.006554917 -0.094457567 0.1950448
0.0049848179 -0.082927443 0.19714309
-0.0058464478 -0.061152861 0.20152859
-0.0051386212 -0.082903787 0.1973577
-0.19878151 -0.1254601 0.53840262
-0.1617706 -0.136169 0.32585901
-0.006789967 -0.076593697 0.1954273
-0.024838449 -0.091279343 0.2025034
-0.029401001 -0.07652615 0.2157525
-0.026967751 -0.076402061 0.2106299
-0.03485674 -0.081184886 0.2267886
-0.03234819 -0.091975637 0.21028291
-0.035560701 -0.092776097 0.2171827
-0.03053263 -0.075927302 0.2166111
-0.03032166 -0.072107889 0.2450065
-0.033239681 -0.091796793 0.2572493
-0.033139169 -0.07664337 0.227201
-0.03225838 -0.076476298 0.2211435
-0.028586101 -0.084714778 0.2080182
-0.032265831 -0.085352577 0.25589141
-0.035064548 -0.078592837 0.2351775
-0.03082091 -0.078516103 0.25312951
-0.037240889 -0.1066674 0.2415822
-0.032605231 -0.075449221 0.2447461
-0.03186734 -0.0738388 0.24096879
-0.038763579 -0.095309019 0.2280827
-0.03145479 -0.072892249 0.2476213
-0.02078661 -0.072508693 0.26428029
-0.036504891 -0.1001602 0.22049759
-0.03241542 -0.075736813 0.2256874
-0.032692298 -0.09112677 0.2142417
-0.036159988 -0.086907603 0.2242758
-0.033660829 -0.075829253 0.2338241
-0.035767451 -0.090199903 0.22080401
-0.033780381 -0.075571157 0.2293559
-0.033338439 -0.087559119 0.21621519
-0.032226291 -0.087475598 0.21682739
-0.02963558 -0.090734988 0.2085577
-0.036762401 -0.090020217 0.2256777
-0.035460919 -0.081793383 0.2232406
-0.032851309 -0.1079754 0.25391021
-0.0350306 -0.081164658 0.2244101
-0.03565124 -0.081691213 0.2357824
-0.035143811 -0.078975134 0.23062409
-0.03756924 -0.089852683 0.2331742
-0.031508479 -0.090775684 0.2128047
-0.025367299 -0.079713807 0.2070974
0.032733459 -0.058024921 0.26264659
-0.019964529 -0.072027102 0.2651279
-0.015635559 -0.07122343 0.26819149
-0.02687213 -0.08969415 0.2636534
-0.02905247 -0.075856127 0.25334609
-0.02096766 -0.072222583 0.26028991
-0.01619589 -0.073743783 0.26887959
-0.01095568 -0.078999937 0.27454719
0.020040389 -0.13903759 0.29589421
-0.0305258 -0.084565133 0.25822121
-0.033345912 -0.077755816 0.2374256
-0.03479844 -0.081757888 0.2285966
-0.031559318 -0.093084611 0.21218599
-0.032185812 -0.077231258 0.2233851
-0.020025659 -0.077990957 0.2044221
-0.02851272 -0.085417122 0.21050391
-0.027266709 -0.073655948 0.21631169
-0.016740831 -0.088250823 0.198846
-0.02399108 -0.0995415 0.2019065
-0.0089333951 -0.092894077 0.1926012
-0.02365111 -0.092112511 0.2030572
-0.025258821 -0.091147132 0.20366029
-0.02130216 -0.077154808 0.20711841
-0.016429219 -0.079328343 0.20044351
-0.034347132 -0.092815101 0.2205742
0.042198811 -0.06037683 0.2188767
-0.030308601 -0.090057343 0.25978431
-0.02548228 -0.075158753 0.2133062
-0.02336764 -0.093184501 0.20219409
-0.028951289 -0.091953717 0.20707829
-0.033029228 -0.084521912 0.2226837
-0.035654981 -0.092656881 0.2253426
-0.03478992 -0.082431898 0.22890399
-0.036447469 -0.092572503 0.2322398
-0.033716019 -0.088546783 0.24360961
-0.028303429 -0.078447118 0.2150266
-0.02014007 -0.078630254 0.2044313
-0.03113536 -0.077015623 0.2241132
-0.035963189 -0.096152008 0.2431118
-0.017404331 -0.093070611 0.27124491
-0.030546561 -0.086926691 0.25443751
0.041061621 -0.064431027 0.2470981
-0.02915198 -0.08012902 0.25158891
0.041478049 -0.060690571 0.2130191
-0.02737366 -0.085744768 0.2065133
-0.01985517 -0.085075721 0.19970471
0.040578689 -0.063170247 0.2473032
-0.01542629 -0.072759688 0.26510069
0.043439191 -0.063271686 0.2249532
-0.004180551 -0.081948429 0.27369171
0.031028319 -0.063005723 0.2011186
-0.035794839 -0.097753763 0.2254719
-0.036326811 -0.093923047 0.2304292
-0.0051145852 -0.086882472 0.2689229
0.16258299 -0.1208602 0.2277818
-0.019213291 -0.13534421 0.365385
0.071369767 -0.13809609 0.31904641
0.043524981 -0.0570499 0.21022411
0.0060802251 -0.05847621 0.1954595
0.04255712 -0.063031442 0.2467812
-0.03380001 -0.1278363 0.2918112
-0.018368861 -0.069652922 0.24991199
-0.002085 -0.1390339 0.2899164
-0.016044259 -0.097535968 0.2584331
0.01525377 -0.129164 0.3311756
0.099864237 -0.1204048 0.25861669
0.048472598 -0.1187505 0.2519919
0.1532632 -0.1204143 0.32308361
0.022851409 -0.052122708 0.26773489
0.03579469 -0.1180147 0.23036361
-0.016471179 -0.1201166 0.3586522
-0.0077452208 -0.038806841 0.2735863
-0.057081949 -0.1189086 0.26086581
-0.046576709 -0.062281489 0.25383231
-0.023820881 -0.072915383 0.28236201
0.095854864 -0.1239002 0.29561499
0.146741 -0.1213916 0.34052941
-0.00104934 -0.117947 0.34328109
0.072439671 -0.1193062 0.2554343
-0.019505739 -0.065275311 0.27951899
-0.04895125 -0.1185925 0.2641986
0.030496489 -0.053493202 0.2360768
-0.03736807 -0.1190777 0.27750731
-0.17444851 -0.1193193 0.1721682
-0.1725845 -0.1199227 0.1241884
-0.14182051 -0.1180819 0.4086338
0.019294471 -0.068329044 0.27335691
-0.040937562 -0.048865769 0.25347549
-0.001780882 -0.037670478 0.19899809
-0.0027912259 -0.06158248 0.2741071
-0.0039871628 -0.062175851 0.28692871
0.01041664 -0.056093991 0.273368
-0.00049671531 -0.054309029 0.2836872
-0.029474171 -0.1159615 0.31331351
0.097824857 -0.12598491 0.2302421
0.1346647 -0.1198715 0.36074999
0.1137965 -0.1208844 0.24711581
-0.023379359 -0.1218661 0.3239632
-0.05017601 -0.1207652 0.30719051
-0.007206887 -0.071212739 0.28482941
-0.04385915 -0.1207235 0.29852229
-0.019311439 -0.060825851 0.2756612
0.03590576 -0.1198332 0.23799831
-0.1094738 -0.1229471 0.35238549
-0.0078035002 -0.1159185 0.37981591
0.048894182 -0.118347 0.2316294
0.10451 -0.118098 0.1164603
0.063972443 -0.1186074 0.3054491
-0.02266234 -0.1187834 0.2853055
-0.047402959 -0.1156544 0.56183851
-0.078176193 -0.1177725 0.49304539
-0.040761549 -0.1182207 0.5271644
-0.0084321052 -0.1112448 0.53264081
-0.079844519 -0.118224 0.41262579
-0.03260133 -0.1179457 0.5265395
0.040177628 -0.088175029 0.2325477
0.1523388 -0.1197808 0.32358441
0.01415661 -0.1177589 0.32593429
-0.02827202 -0.116845 0.36578551
-0.1117102 -0.1188289 0.4025155
-0.050199699 -0.1211222 0.51920742
-0.0035367161 -0.1237109 0.32115051
0.02886303 -0.0617758 0.25184691
0.034802359 -0.1211527 0.3019284
0.01032674 -0.062722333 0.2812193
-0.069637641 -0.1197275 0.412756
-0.040721461 -0.1193744 0.4097358
-0.01775099 -0.03839552 0.26984021
-0.1038056 -0.115276 0.2475892
0.042836528 -0.1267952 0.1040187
-0.01438785 -0.1168144 0.3855831
-0.1034379 -0.1188761 0.35480621
0.1491807 -0.1216738 0.2920399
0.1305114 -0.1211861 0.31173709
0.0075893402 -0.1203693 0.40155429
0.041288 -0.1193808 0.28957361
-0.03285113 -0.1207582 0.28737879
0.026648181 -0.030594889 0.2224384
-0.0124495 -0.1222673 0.3491295
-0.0350569 -0.1128824 0.54457867
0.0162473 -0.092739701 0.26449311
0.016504681 -0.02913354 0.22295231
0.01122853 -0.1325907 0.2293735
0.020380471 -0.057290021 0.27031571
0.02855536 -0.068901539 0.26664719
0.030673681 -0.054006372 0.2537064
-0.048619479 -0.090918273 0.27493939
-0.023108659 -0.1148707 0.27977321
-0.039157841 -0.1153673 0.2866773
0.018160099 -0.0494598 0.26727691
-0.03600451 -0.02817136 0.26648811
0.0050118272 -0.05418846 0.27951971
0.02983564 -0.053257611 0.22532921
0.023118939 -0.092339128 0.25579941
0.003676713 -0.05138037 0.27158299
0.00072100759 -0.055966228 0.27387989
-0.01310626 -0.056030121 0.28074631
0.0232704 -0.073721237 0.26107249
0.02653357 -0.071981587 0.26397991
-0.01389658 -0.049415581 0.2758972
-0.0070824032 -0.054123539 0.27599019
0.0004103184 -0.04527789 0.2752777
0.02281365 -0.051028632 0.2151431
0.02319568 -0.082910001 0.21645451
0.02077195 -0.052904449 0.217839
0.021150289 -0.05909827 0.21539059
0.026527669 -0.06418708 0.2178788
0.02648836 -0.05549819 0.2303782
0.029448749 -0.060840748 0.2283925
0.017626019 -0.049886499 0.26604661
0.019297389 -0.09563835 0.2510055
0.0068346262 -0.092884503 0.26921421
0.02064267 -0.085344531 0.21712629
0.023568209 -0.047606461 0.23859151
-0.038079169 -0.1156647 0.28664029
0.0060357451 -0.043039221 0.2679418
0.01463841 -0.069468237 0.27280229
0.028227501 -0.067727283 0.2679345
0.027547089 -0.078405187 0.2427613
0.01295811 -0.086972818 0.26911929
0.018951589 -0.046225511 0.26017359
0.0078848302 -0.02887651 0.2039478
-0.055707339 -0.1018311 0.2562778
-0.041770119 -0.078838088 0.26236579
-0.001272187 -0.05527018 0.2800293
-0.0052224551 -0.063792013 0.28347561
0.02768508 -0.06032658 0.26778141
0.009465158 -0.064909473 0.28216651
0.0255221 -0.043749321 0.26108399
0.019811319 -0.051644009 0.26681301
-0.01127288 -0.058470462 0.2847001
0.02495989 -0.075578958 0.271934
0.03679372 -0.062914222 0.2469832
0.01762509 -0.048697669 0.26775089
-0.039133839 -0.083512656 0.25837171
-0.021631749 -0.1157203 0.27108911
-0.045160629 -0.1150099 0.24562749
-0.056847371 -0.1162885 0.26514959
0.1198897 -0.1165662 0.28631869
-0.0002350882 -0.04915804 0.27966601
-0.01080783 -0.063501284 0.28327039
-0.017959179 -0.063714772 0.2822814
-0.0054500848 -0.070055433 0.28571159
-0.0072790091 -0.1150711 0.38289681
0.02780953 -0.061836731 0.26799041
0.0107732 -0.054038849 0.27829501
0.02494085 -0.06174776 0.2730504
0.0062615499 -0.063223347 0.27942789
0.023345331 -0.04798029 0.2646178
0.074085787 -0.1165792 0.26088291
0.018655481 -0.058836531 0.27482721
-0.0046019261 -0.072320238 0.2839812
-0.038316529 -0.061963741 0.26513639
-0.028358171 -0.054698039 0.27692851
-0.01620559 -0.1026313 0.27096599
-0.001728021 -0.1162469 0.37976629
0.0019607621 -0.1164109 0.42465749
0.0098233446 -0.1170162 0.40822399
0.018869171 -0.1166657 0.37415871
-0.0093857944 -0.059953172 0.2796354
-0.01653982 -0.1153156 0.4040609
-0.0071394071 -0.035118181 0.27625221
0.01828574 -0.039234161 0.27012321
0.018335139 -0.088782787 0.2706368
-0.17091811 -0.1170597 0.1275429
-0.1624324 -0.1152539 0.22289909
-0.035580851 -0.1160375 0.4432911
-0.017749131 -0.03556278 0.2036133
0.01439011 -0.071079329 0.27946389
-0.0024537439 -0.117014 0.38850579
-0.01216996 -0.1164597 0.29862019
0.01762432 -0.049724132 0.27320951
0.001605034 -0.047057848 0.28049591
-0.04954106 -0.1147982 0.31903249
-0.059380591 -0.1145405 0.3335717
0.026104931 -0.091759384 0.25817579
0.017466551 -0.068242483 0.27944171
0.019928571 -0.062867314 0.198192
0.0243361 -0.03540371 0.26121581
0.064338058 -0.1170049 0.222041
0.01427104 -0.037827041 0.20947181
-0.01251391 -0.034356069 0.202204
0.033602089 -0.056423381 0.25064749
0.031471401 -0.047427941 0.24098261
0.017343611 -0.060901571 0.27419519
0.020063329 -0.06872274 0.27669799
0.032387231 -0.055252749 0.22187459
0.026845019 -0.066714078 0.26404491
0.0098196119 -0.031374451 0.1982616
0.00028219819 -0.0500645 0.2792913
0.004092678 -0.055318009 0.27986509
0.027232289 -0.068352029 0.26869959
-0.01150432 -0.03501131 0.2008854
0.044677939 -0.1165745 0.2619004
0.15880799 -0.1161118 0.26229891
0.18920571 -0.1165792 0.2180018
0.088705212 -0.1161109 0.25403631
0.186267 -0.1163326 0.1854676
0.03013885 -0.031588148 0.2236554
0.02007897 -0.059740901 0.27522549
0.036237668 -0.055026259 0.2519443
0.030781601 -0.066067457 0.25225809
-0.047740892 -0.1127433 0.28138399
-0.03617977 -0.102419 0.28213209
-0.01967435 -0.05411689 0.28052461
0.034660269 -0.063175052 0.253858
0.00061865151 -0.058450479 0.1954927
-0.024293359 -0.031729039 0.2679556
-0.0151678 -0.037846088 0.2070031
0.035975192 -0.1150141 0.22484
0.024082519 -0.063981041 0.27195621
-0.00069192803 -0.0334775 0.20506421
-0.04387337 -0.030743569 0.2372022
-0.041862 -0.033738881 0.2330748
-0.034030721 -0.03017321 0.271716
-0.0093147159 -0.06049329 0.28422451
-0.038934872 -0.03235824 0.2609092
-0.028662341 -0.038233578 0.20940851
-0.016213249 -0.043171939 0.20624
-0.037668239 -0.038088799 0.26138791
-0.038925599 -0.03596741 0.26327479
-0.031974319 -0.1111796 0.2215471
-0.03039341 -0.035343949 0.27195001
-0.043847919 -0.1075459 0.2414895
0.031371981 -0.062248379 0.25861061
-0.01295139 -0.036687519 0.2048485
0.03076729 -0.055874228 0.2350437
-0.03754298 -0.03699705 0.2684477
-0.01502949 -0.1150175 0.23048951
0.01152974 -0.1164952 0.23074649
-0.043993771 -0.03691965 0.2357842
-0.04120316 -0.1141541 0.233862
-0.142785 -0.1131949 0.1160176
-0.044777561 -0.032913148 0.23816369
-0.036708008 -0.04133299 0.26569989
-0.04673095 -0.03605032 0.23349591
0.0002318248 -0.098893277 0.2677477
-0.045611631 -0.1033542 0.2342457
-0.03734662 -0.035850052 0.25936869
-0.043181319 -0.037832651 0.2336856
-0.041802678 -0.1050969 0.2377387
-0.0284441 -0.1077544 0.219395
-0.018766809 -0.03733021 0.20215181
-0.04081833 -0.034564171 0.2207184
-0.01416209 -0.04100731 0.2063164
-0.001390964 -0.039305359 0.2067944
-0.030720489 -0.1068408 0.2177771
-0.0061870068 -0.100574 0.24265841
-0.1449112 -0.1167981 0.2114379
-0.04228165 -0.028504981 0.2389102
-0.0013483691 -0.03267704 0.2022028
-0.017396379 -0.1162219 0.28911501
-0.003596582 -0.094686687 0.1995406
-0.018064519 -0.053510401 0.28397119
0.018287679 -0.051496189 0.27333269
0.03436156 -0.05763552 0.25475809
-0.056862 -0.1153822 0.26740149
0.002162799 -0.0612281 0.28560209
-0.046232902 -0.1170365 0.2765072
-0.03251823 -0.030808941 0.25932759
0.01133075 -0.054143582 0.28350809
-0.03351263 -0.039488111 0.27456579
0.0076090102 -0.053195979 0.27917701
0.01412038 -0.049954191 0.27817601
-0.03137299 -0.1156783 0.2794981
0.016866989 -0.034290921 0.210728
0.01087901 -0.03112066 0.2042872
-0.01371305 -0.03699496 0.2038717
-0.0121657 -0.037421089 0.2067094
0.01262721 -0.04285261 0.2090497
0.02821188 -0.06416066 0.27155021
-0.0062611401 -0.093647748 0.1995035
-0.003422461 -0.056179419 0.28526741
-0.01536348 -0.05655152 0.28511059
-0.0019878519 -0.054054219 0.2817938
0.026291439 -0.05794831 0.27309671
-0.041422341 -0.076224208 0.21072669
-0.041543279 -0.034875508 0.23193391
-0.03184909 -0.1131437 0.290301
-0.05089343 -0.1168001 0.2767944
-0.031451799 -0.1100502 0.29251289
0.0070699751 -0.067549653 0.2841067
