# .PCD v0.7 - Point Cloud Data file format
VERSION 0.7
FIELDS x y z
SIZE 4 4 4
TYPE F F F
COUNT 1 1 1
WIDTH 268
HEIGHT 1
VIEWPOINT 0 0 0 1 0 0 0
POINTS 268
DATA ascii
-0.2431464 -0.32747081 0.39855149
-0.2453659 -0.32634759 0.34557411
-0.2687726 -0.32264829 0.3882603
-0.25781021 -0.32614219 0.40219861
-0.1716902 -0.3160516 0.47146121
-0.20945521 -0.31335491 0.43962231
-0.1451955 -0.326855 0.51147372
-0.36491439 -0.32038271 0.70279551
-0.2547344 -0.31850669 0.47839171
-0.1080352 -0.31079909 0.48295671
0.048287619 -0.309937 0.83869058
0.043495402 -0.3043282 0.85181928
0.07560955 -0.3204276 0.69421148
0.1487294 -0.29638901 0.93150407
0.1458392 -0.2895689 0.96336752
0.14064211 -0.3133269 1.031718
0.2325929 -0.2987524 0.99132538
-0.027173789 -0.3145487 0.2197002
-0.0039780289 -0.3193084 0.22075211
-0.0052390839 -0.31496641 0.2354622
0.59996152 -0.98022532 0.52694118
0.69019908 -0.99387163 0.650998
0.68887532 -0.99068922 0.62849963
-0.01305354 -0.30230561 0.21556769
0.4071497 -0.99736238 0.48647201
0.60336852 -0.98954678 0.45757219
0.13369571 -0.31650129 1.052146
0.1356111 -0.30311331 1.034254
0.13908289 -0.2840884 0.94467872
0.033137921 -0.30519611 0.82556152
0.064355142 -0.30633771 0.6603756
0.1491956 -0.32046169 0.92535651
-0.0107508 -0.30673549 0.20512161
-0.03355971 -0.29811999 0.2008381
0.091875114 -0.3021076 0.48601341
0.002658315 -0.30649599 0.26486409
0.2000882 -0.29991809 0.40867499
0.38373271 -0.30382141 0.57437319
0.40629771 -0.29408661 0.52021468
0.34479001 -0.3081291 0.52957082
-0.019676659 -0.301276 0.26313019
-0.1633109 -0.310357 0.44923359
0.13705809 -0.30443141 0.30976
0.215409 -0.30571589 0.31477919
0.066605523 -0.3038573 0.34609079
0.1053143 -0.30023769 0.29095119
-0.01140925 -0.3054662 0.2457812
0.25744751 -0.2983267 0.39901659
-0.0089501217 -0.30190861 0.2616761
0.046632491 -0.30429441 0.32935449
-0.1566674 -0.31121141 0.35295489
-0.035708401 -0.30733261 0.4147388
-0.09051726 -0.30687499 0.2848058
0.1782764 -0.30580509 0.3057507
0.25411201 -0.30073929 0.3177852
-0.1219399 -0.30633649 0.3020429
0.13205209 -0.30164519 0.31395781
-0.01117989 -0.30549631 0.2066092
-0.1089696 -0.30555961 0.30091771
-0.070642613 -0.30027941 0.25738221
0.2344927 -0.30239281 0.30702791
0.1180867 -0.3005242 0.26561221
-0.05674899 -0.30185869 0.2864106
-0.02686345 -0.305525 0.27180049
-0.097905427 -0.30517629 0.29578489
0.1626835 -0.099998116 0.99506217
0.1638415 -0.05543682 0.86510259
0.221056 -0.1228214 1.014585
0.23534919 -0.28063601 0.97405839
0.21498241 -0.29518691 0.99391413
0.14861029 -0.048208822 0.92326838
0.20349041 -0.082128488 0.93738008
0.152133 -0.29672691 1.00406
0.1416741 -0.29889539 0.94356447
0.1806664 -0.05360062 0.90208101
0.1802016 -0.048093319 0.94229043
0.1984335 -0.035697449 0.96078843
0.04262203 -0.30407569 0.59379542
0.2385307 -0.28748009 0.97235531
0.1557883 -0.05096459 0.952456
0.032418031 -0.30510151 0.85399163
0.22997481 -0.30439261 0.59287548
0.1511032 -0.090214908 0.95850521
0.1109644 -0.29229471 0.96802449
0.21574201 -0.024037451 1.04711
0.1840758 -0.063986152 0.93507463
0.19674359 -0.034772161 0.95868361
0.1197942 -0.29132801 0.98722851
0.2208136 -0.274277 0.94602221
0.14406361 -0.30054939 0.95046258
0.19154011 -0.1042021 0.91964447
0.23620839 -0.29000729 0.97993308
-0.09539935 -0.30428141 0.280141
0.1316417 -0.087066799 0.95986599
0.1553607 -0.051294889 0.95284432
-0.1911608 -0.2840746 0.3230055
-0.2120979 -0.30401421 0.4024362
-0.1884619 -0.29839191 0.35847241
0.1453678 -0.30452511 0.95714468
0.1208248 -0.29442489 0.96206701
0.2022943 -0.2859346 0.96008992
0.20835561 -0.29163581 0.95783138
0.135839 -0.2898984 0.95884192
0.1447124 -0.28536189 0.97797823
0.1765296 -0.30195269 0.94870663
0.1258976 -0.27482611 0.91601223
0.14572389 -0.29673481 0.99841237
0.15171909 -0.092962407 0.961344
0.2036991 -0.1104336 0.96325028
0.20513371 -0.1011776 0.95764208
0.1946695 -0.068920083 0.971425
0.1323885 -0.2888118 0.97072393
0.1264129 -0.28733689 1.000038
0.20692199 -0.02957375 0.9873687
0.2067184 -0.03767905 0.98247713
0.21221121 -0.085465491 0.9545778
0.22318099 -0.2469991 0.95260072
0.1237297 -0.29837191 0.98191392
0.2187054 -0.084286503 0.95849198
0.1739351 -0.30464521 0.94355011
0.1520099 -0.03288075 0.95748901
0.1459673 -0.032984991 0.98059362
0.15402921 -0.093819857 0.96759862
0.122128 -0.29760119 1.002517
0.231014 -0.28252691 0.9589287
0.23299161 -0.2433317 0.962219
0.2291484 -0.27798209 0.96343482
0.1648784 -0.083027147 0.97434992
0.13995349 -0.098528549 0.93732268
0.22853211 -0.2646507 0.96696299
0.1448921 -0.049534161 0.91660678
0.21899229 -0.28179801 0.94175392
0.1969496 -0.1067917 0.94337881
0.1887912 -0.07810998 0.94168359
0.1563464 -0.087040327 0.95474333
0.1557588 -0.1039794 0.92321658
0.1372399 -0.30353799 0.94355577
0.18831059 -0.2791439 0.92715162
0.1238294 -0.28574401 0.94408661
0.1221048 -0.26220989 0.89094597
0.1956694 -0.2829673 0.92522532
0.1902709 -0.295241 0.92261708
0.16078 -0.30546409 0.92783362
0.16284031 -0.30148771 0.85304272
0.057043832 -0.2986705 0.45526311
0.19547351 -0.3022964 0.41474101
0.1922387 -0.30365899 0.42314839
0.06597054 -0.29944679 0.47861561
0.15119579 -0.30363941 0.88025618
0.1102335 -0.3033163 0.3310909
0.2221299 -0.29910481 0.5822165
0.117885 -0.30117309 1.019124
0.1124018 -0.30253109 0.99947917
0.02648472 -0.30132049 0.80759197
0.02803139 -0.30546409 0.84442812
0.0059880521 -0.2931315 0.56151521
0.1107702 -0.3041178 0.51952767
0.097753793 -0.30255961 0.47306699
0.0050249901 -0.29641151 0.60179502
0.054246381 -0.29898319 0.63587087
0.13585091 -0.2989032 0.3774651
0.1847689 -0.30091691 0.46178451
0.1206165 -0.30274731 0.63492519
0.073243693 -0.29977521 0.56390393
0.075422861 -0.2994104 0.57937121
0.2191674 -0.30320999 0.78714043
0.02642921 -0.30545011 0.43643191
0.004664693 -0.30439961 0.61263448
0.1825963 -0.073934913 0.93866009
0.1887667 -0.1108964 0.92606401
0.1972868 -0.1062639 0.93662381
0.14398929 -0.040748939 0.95032102
0.19001479 -0.036695749 0.96326399
0.1890309 -0.045160111 0.95353711
0.18761089 -0.079918668 0.93553519
0.2098718 -0.092457972 0.9568696
0.1295996 -0.1177197 0.96023679
0.14445101 -0.058373079 0.933025
0.1769432 -0.028922919 0.92545521
0.1276771 -0.070779033 0.91820878
0.1785496 -0.064168088 0.91474628
0.2059215 -0.092656083 0.96009243
0.1177642 -0.1042385 0.9259696
-0.17071471 -0.30090991 0.30869821
0.1366192 -0.096994221 0.9299013
0.1968403 -0.1198405 0.96368229
0.1944323 -0.1096943 0.94445997
0.16496991 -0.088618197 0.89843303
0.1132613 -0.29296809 0.96861511
0.1313881 -0.086118288 0.95092303
0.14868461 -0.062808052 0.94951439
0.1929896 -0.2826421 0.93970758
0.13142809 -0.3015047 0.99216658
0.1686289 -0.30525509 0.90687943
0.16863801 -0.1021878 1.001424
0.17987441 -0.30033731 0.92537153
0.16197219 -0.30302569 0.92805558
0.14083099 -0.1002743 0.94779599
0.1968544 -0.040749211 0.98604131
0.2123422 -0.049151961 1.02574
0.17692649 -0.03973721 0.96641302
0.1873986 -0.079294547 0.97206348
0.1139867 -0.029026959 0.88928282
0.1335604 -0.075620607 0.9510029
0.2162908 -0.095346749 0.97854978
0.153925 -0.044661939 0.98848069
0.1481335 -0.1214106 1.107457
0.20324451 -0.29901519 0.97686392
0.1477007 -0.1054848 0.96947271
0.2342006 -0.3021923 1.033541
0.1382788 -0.029321689 0.96750462
0.1352405 -0.096665308 0.89638782
0.19794559 -0.1178025 0.95883101
0.1984839 -0.051566999 0.98613179
0.20191459 -0.1117038 0.96238017
0.19532309 -0.085801877 0.96861488
0.1523329 -0.089260653 0.95403552
0.1949959 -0.042628448 0.98456979
0.1453127 -0.1030048 0.96066272
0.14156739 -0.1008396 0.9392004
0.1750306 -0.060344439 0.95021778
0.153313 -0.063363031 0.96521139
0.20556299 -0.051187761 1.011616
0.1938861 -0.1160438 0.94880778
0.1301654 -0.1001165 0.98135972
0.1923081 -0.079454727 0.97828889
0.21047521 -0.041777682 1.04533
0.2028625 -0.03553085 1.013795
0.20515899 -0.1119862 0.96955252
0.1329693 -0.08771731 0.94125038
0.18492 -0.06897749 0.92801321
0.1928914 -0.084891208 0.95290458
0.1338758 -0.119811 0.95759308
0.12896331 -0.1113113 0.96034962
0.1495472 -0.087939397 0.95033169
0.2133061 -0.099457517 0.99794471
0.19467179 -0.28811961 0.95133078
0.204542 -0.29802451 0.96587467
0.1416457 -0.30150649 1.00445
0.1477336 -0.1019582 0.97272009
0.2247657 -0.2959671 0.99249607
0.1931908 -0.07931146 0.98182482
0.20603549 -0.04754442 1.012977
0.2030021 -0.1117045 0.9640922
0.1545748 -0.061910361 0.97675782
0.14047921 -0.090591073 0.98247421
0.20197891 -0.085641213 0.99277067
0.19745991 -0.072059423 0.97938132
0.13287359 -0.1136983 0.98296273
0.1342378 -0.1209497 0.965415
0.1578691 -0.090871267 0.97987139
0.1622528 -0.1142756 0.95340919
0.1448155 -0.1015135 0.95909238
0.1309485 -0.099334061 0.98656583
0.1860503 -0.062081039 0.99050498
0.22719049 -0.294058 0.98121619
0.130247 -0.2977508 0.9782939
0.1294876 -0.29564199 0.91420019
0.108198 -0.30094239 0.97647172
0.12615439 -0.28166831 0.92854488
0.1197315 -0.28582159 0.93278497
0.025219809 -0.29811919 0.78486282
0.025443731 -0.29965839 0.81762218
0.040714871 -0.2939232 0.82659131
0.1376292 -0.098708369 0.9300043
0.24148171 -0.29276651 1.014305
0.0067827781 -0.30166239 0.60541189
0.007472537 -0.30121121 0.53737158
