# .PCD v0.7 - Point Cloud Data file format
VERSION 0.7
FIELDS x y z normal_x normal_y normal_z curvature
SIZE 4 4 4 4 4 4 4
TYPE F F F F F F F
COUNT 1 1 1 1 1 1 1
WIDTH 416
HEIGHT 1
VIEWPOINT 0 0 0 1 0 0 0
POINTS 416
DATA ascii
-0.033628456 -0.30481198 0.20414118 -0.067164309 -0.99774069 0.0016185251 0.0017688452
-0.010739081 -0.30822951 0.206256 -0.067169078 -0.99774039 0.0015933602 0.0017767451
-0.026647437 -0.30745658 0.21987972 -0.055330653 -0.99844503 -0.006777829 0.0015785886
-0.012869472 -0.3095108 0.21563047 -0.067169078 -0.99774039 0.0015933602 0.0017767451
-0.0040859673 -0.31126332 0.22071528 -0.067169078 -0.99774039 0.0015933602 0.0017767451
-0.0051471917 -0.30980462 0.23541501 -0.055346318 -0.99844402 -0.006802124 0.0015781678
-0.011312958 -0.30894738 0.24568723 -0.055341288 -0.99844432 -0.0068009165 0.0015783256
-0.070805058 -0.3052575 0.2576755 -0.016582044 -0.99976826 -0.013728016 0.00076940603
-0.019599887 -0.30735454 0.26270124 -0.033704903 -0.99938983 -0.0091602514 0.0012013628
-0.008883615 -0.30779055 0.26130453 -0.055341288 -0.99844432 -0.0068009165 0.0015783256
0.0027282001 -0.30764708 0.26447362 -0.031153597 -0.99945158 0.011217819 0.0014966573
0.1180867 -0.31061551 0.26561221 -0.032792702 -0.99911028 -0.026520751 0.0073877107
-0.026739897 -0.3070384 0.2718465 -0.025696212 -0.99959588 -0.012157916 0.0010608868
-0.093033299 -0.3070516 0.28264326 -0.01678363 -0.99655735 -0.081188843 7.1887021e-05
-0.056693949 -0.30757001 0.28657576 -0.0067258645 -0.99995863 -0.0061306637 0.00044715905
-0.097804949 -0.30840787 0.29605734 -0.029560551 -0.99530244 -0.092192158 0.001706128
0.10566698 -0.30504969 0.29095998 -0.013597273 -0.99924999 -0.036255937 0.0041901595
-0.17071471 -0.31061551 0.30869821 -0.18677604 -0.96472299 -0.18553759 0.014671719
-0.12182503 -0.30809179 0.30235437 -0.13209714 -0.97595358 -0.17339261 0.0096700601
-0.10887493 -0.30853558 0.3011744 -0.042095643 -0.99458706 -0.094997689 0.0013998148
0.13716978 -0.30694622 0.30988389 -0.025841501 -0.99894595 -0.037937835 0.0030415417
0.1782764 -0.31061551 0.3057507 0.0014407062 -0.99951214 -0.031199586 0.0022044843
0.23401612 -0.30549014 0.3085064 0.087094709 -0.94968712 -0.30084679 0.0034359274
0.13216411 -0.30693558 0.31408206 -0.023306986 -0.99906826 -0.036323924 0.0051122759
0.21539591 -0.31032616 0.31492388 0.019572556 -0.99860257 -0.049089462 0.0023131522
0.25374433 -0.30666137 0.31892583 0.087243646 -0.94931489 -0.3019765 0.0034410229
-0.18073945 -0.30591452 0.32620052 -0.20807633 -0.96062124 -0.1841494 0.019545732
0.046632491 -0.31061551 0.32935449 0.022978416 -0.99953252 -0.020168886 0.0028729702
0.11023846 -0.31061554 0.33109716 -0.013597273 -0.99924999 -0.036255937 0.0041901595
0.066605523 -0.31061551 0.34609079 -0.0059607122 -0.9990291 -0.043649215 0.004264392
-0.18734683 -0.30457997 0.35722345 -0.048447683 -0.98488325 -0.16630612 0.026817534
-0.1566674 -0.31061551 0.35295489 -0.2061794 -0.96395779 -0.16815305 0.010432981
-0.26973748 -0.31056795 0.39049459 0.31670564 -0.90873832 -0.27183148 0.036706951
-0.24292132 -0.3108137 0.3975389 0.17966986 -0.98195839 -0.058960736 0.022548838
-0.25542629 -0.31073302 0.39667842 0.17966986 -0.98195839 -0.058960736 0.022548838
-0.21399178 -0.3067866 0.40327492 0.0895193 -0.99562931 -0.026616691 0.013279896
0.19969687 -0.31061351 0.40846506 -0.96597803 0.032233875 -0.25660756 0.00099078775
0.19613853 -0.31061894 0.41509777 -0.96597803 0.032233875 -0.25660756 0.00099078775
0.1938643 -0.31064925 0.42359 -0.96597803 0.032233875 -0.25660756 0.00099078775
-0.20945521 -0.31061551 0.43962231 0.23542297 -0.94357538 -0.23289813 0.012311677
0.02642921 -0.31061551 0.43643191 0.62486219 -0.55385214 -0.55026805 0.0029158008
-0.1633109 -0.31061551 0.44923359 0.063881971 -0.98717099 -0.1463304 0.0022638948
0.051919758 -0.30731738 0.46001944 -0.030618291 -0.99775785 0.059513886 0.0094848536
0.1847689 -0.31061551 0.46178451 -0.96598685 0.032283712 -0.25656801 0.00099693285
-0.1716902 -0.31061551 0.47146121 0.056290559 -0.9923234 -0.11011643 0.005202306
0.066306628 -0.30489695 0.47854865 0.0039080242 -0.99985427 -0.016618729 0.0068114083
0.097987458 -0.30653998 0.47319293 -0.058097303 -0.99803168 -0.02361092 0.0083541228
0.092114918 -0.3063705 0.48600793 -0.058097303 -0.99803168 -0.02361092 0.0083541228
0.4071497 -0.31061554 0.48647201 0.99967784 -0.00026493132 0.025377655 0
0.1107702 -0.31061551 0.51952767 -0.060892574 -0.99811405 0.0077701798 0.0033867687
0.40629771 -0.31061551 0.52021468 0.99967784 -0.00026493132 0.025377655 0
0.007472537 -0.31061551 0.53737158 -0.024522429 -0.99961746 -0.012789398 0.021080876
0.0059880521 -0.31061551 0.56151521 -0.016453411 -0.99980038 -0.011337087 0.019047318
0.073243693 -0.31061551 0.56390393 -0.031860512 -0.99942642 0.011472823 0.010993579
0.074405767 -0.3041994 0.57869112 -0.022405317 -0.99974698 0.0019668108 0.010834343
0.2221299 -0.31061551 0.5822165 0.80533028 -9.7856595e-05 -0.59282637 9.3581315e-07
0.042046521 -0.31056774 0.59221292 -0.019975776 -0.99959117 -0.020455742 0.012747713
0.22997481 -0.31061551 0.59287548 0.80533028 -9.7856595e-05 -0.59282637 9.3581315e-07
0.0078135701 -0.30812764 0.60821456 -0.019975776 -0.99959117 -0.020455742 0.012747713
0.0049513336 -0.31060591 0.61266881 -0.019945746 -0.99959278 -0.020407043 0.013039335
0.054246381 -0.31061551 0.63587087 -0.043505438 -0.99665421 -0.069192715 0.0092263576
0.063677743 -0.31060821 0.66062373 0.0016614583 -0.99664676 -0.081807137 0.010303578
0.07560955 -0.31061551 0.69421148 -0.93893665 0.0044807787 0.3440609 3.5845285e-05
0.025485104 -0.3106133 0.78485888 0.0052956413 -0.99796963 -0.063471638 0.0085369106
0.026511535 -0.30526155 0.80800706 0.0052956413 -0.99796963 -0.063471638 0.0085369106
0.025502332 -0.30587339 0.81791335 0.0052956413 -0.99796963 -0.063471638 0.0085369106
0.033164505 -0.30629292 0.8258906 0.0052956413 -0.99796963 -0.063471638 0.0085369106
0.040740691 -0.3064172 0.82691097 0.0052956413 -0.99796963 -0.063471638 0.0085369106
0.048307519 -0.30737934 0.83893698 0.0052956413 -0.99796963 -0.063471638 0.0085369106
0.028049381 -0.30768979 0.84465086 0.0055010929 -0.99796027 -0.063601442 0.0085733915
0.032466829 -0.30867356 0.85419071 0.0055010929 -0.99796027 -0.063601442 0.0085733915
0.043254513 -0.30768105 0.85196203 0.0055010929 -0.99796027 -0.063601442 0.0085733915
0.16492903 -0.30990359 0.85400653 0.077685423 -0.99573982 0.049670268 0.012643187
0.16439998 -0.30877069 0.86528999 0.03963469 -0.99598813 0.080229349 0.038717739
0.11446989 -0.31288937 0.88962388 -0.17312437 -0.98463547 0.022822632 0.02897514
0.15113387 -0.30865151 0.88035792 -0.019194705 -0.99831015 0.054848362 0.036394473
0.1220175 -0.30955619 0.89092398 -0.10357584 -0.99406958 0.033128697 0.0232557
0.13527496 -0.30862239 0.89651591 -0.026797894 -0.99903542 0.034784425 0.027464202
0.16489574 -0.3088657 0.89836091 0.0084647797 -0.99960428 0.026826438 0.027216606
0.1685268 -0.30831188 0.90688199 0.024751009 -0.99958122 0.01499457 0.028151322
0.1797251 -0.30505633 0.90236378 0.043389369 -0.99890727 0.017366996 0.030210307
0.13030024 -0.30488297 0.91490287 -0.033396784 -0.99936455 0.012457867 0.020731179
0.14524207 -0.30685458 0.91633087 -0.0042275204 -0.99982184 0.018394941 0.020649444
0.17769583 -0.30556393 0.91497213 0.048021786 -0.99882466 0.0065841745 0.028711958
0.19048196 -0.30366391 0.92006004 0.10982696 -0.99373055 -0.020920662 0.040716488
0.12819016 -0.30037305 0.92349023 -0.038527895 -0.99925292 -0.0030471676 0.017401358
0.13152997 -0.3012048 0.92899346 -0.043167226 -0.99892473 -0.016909698 0.017452667
0.13967861 -0.30370614 0.93033755 -0.011142369 -0.99983513 -0.01433662 0.017996933
0.14928734 -0.30686018 0.92411476 0.0065322244 -0.9999786 0.00027977931 0.021836795
0.15575695 -0.30810538 0.9230662 0.0082082041 -0.99996585 0.0010105148 0.021827918
0.16150163 -0.30774507 0.92792583 0.019867178 -0.99978948 -0.005125971 0.02095804
0.1771255 -0.30536506 0.92559522 0.087232895 -0.99618697 -0.001423292 0.036953386
0.18612306 -0.30480161 0.92786789 0.098603338 -0.99491638 -0.020466553 0.037285812
0.19223067 -0.30408671 0.92455292 0.10576866 -0.99407464 -0.025071604 0.038616631
0.1266249 -0.29942757 0.93292552 -0.041949645 -0.99898863 -0.016184179 0.017987613
0.14021198 -0.30541921 0.93301308 -0.0088011166 -0.99986714 -0.013723127 0.017804801
0.14567226 -0.3054007 0.93420446 0.0052711652 -0.99990171 -0.012988818 0.020863578
0.18389106 -0.30534008 0.93686897 0.085534923 -0.99589318 -0.029674847 0.034670986
0.19329603 -0.30333927 0.93963176 0.12813994 -0.99026 -0.054454673 0.04725742
0.20220822 -0.30197123 0.93979621 0.1788872 -0.98074496 -0.078349598 0.044248316
0.12706783 -0.30137822 0.94421685 -0.045800753 -0.99852645 -0.02910677 0.016339043
0.13808945 -0.3041096 0.94297868 -0.007788816 -0.99972087 -0.022305744 0.017369386
0.14469492 -0.30558449 0.94698799 0.0052877301 -0.99971765 -0.023163998 0.019610824
0.17473617 -0.30615214 0.94628733 0.07431189 -0.99688953 -0.026248258 0.033133149
0.1838166 -0.30555472 0.94263494 0.07822834 -0.99656183 -0.027289787 0.034373615
0.19409782 -0.3047404 0.9468621 0.12476341 -0.9910394 -0.047695708 0.042097006
0.20922355 -0.30231118 0.95183295 0.20175028 -0.97392583 -0.10375556 0.045425095
0.21123362 -0.29988107 0.95337403 0.21255387 -0.97095728 -0.10983058 0.045810282
0.13508579 -0.30408037 0.95569694 -0.02148753 -0.99913168 -0.035695605 0.013697386
0.1461311 -0.3059327 0.95315099 0.0090048285 -0.99954343 -0.028840492 0.018143496
0.15430975 -0.30672258 0.95475769 0.035937004 -0.99904686 -0.024776474 0.019987226
0.16242419 -0.30708238 0.95335031 0.046214297 -0.99881983 -0.014937558 0.021079361
0.17478319 -0.30638075 0.95018977 0.069945291 -0.9971801 -0.027192941 0.031880178
0.18879874 -0.30700657 0.95378512 0.10047564 -0.99340856 -0.055173565 0.039853185
0.19530222 -0.30670854 0.95585072 0.12671845 -0.98918313 -0.073886089 0.040600233
0.20645761 -0.30456561 0.95853275 0.16706485 -0.9825905 -0.08127182 0.042102635
0.21134901 -0.30177778 0.95936716 0.20575124 -0.9719646 -0.11380325 0.042506248
0.21466959 -0.29995689 0.95937568 0.21848297 -0.9682048 -0.12183949 0.044230882
0.21986434 -0.29963845 0.96516305 0.26734033 -0.95223039 -0.14760184 0.050796129
0.11590448 -0.2999419 0.96939129 -0.13213031 -0.98950469 -0.058497727 0.011978889
0.12825109 -0.30256096 0.96104008 -0.053835183 -0.99754298 -0.044832148 0.012935706
0.13736922 -0.30469611 0.96657592 -0.030228686 -0.99807435 -0.054163858 0.013265961
0.14737654 -0.30571115 0.96477902 0.0015327397 -0.9986164 -0.052563772 0.016789211
0.15362741 -0.30662498 0.9648639 0.029672801 -0.99831688 -0.049828988 0.01960494
0.1768211 -0.30766183 0.96661264 0.064546779 -0.99605584 -0.060881808 0.029240316
0.19502549 -0.30701464 0.9641692 0.11532242 -0.9914211 -0.061521955 0.036954828
0.20311882 -0.30585459 0.96430534 0.15318146 -0.98496151 -0.079914622 0.039579574
0.22262502 -0.29931459 0.96682632 0.3143025 -0.93093032 -0.18596387 0.055123612
0.22345629 -0.29785869 0.96530604 0.33208564 -0.92130989 -0.2022552 0.054936737
0.11236084 -0.29885575 0.97703487 -0.17242381 -0.98158652 -0.082206339 0.011013151
0.13243599 -0.30386311 0.97441626 -0.066009834 -0.99535382 -0.070096642 0.01060271
0.1469757 -0.30619252 0.97519863 -0.00073971704 -0.99792629 -0.064362787 0.015647445
0.15660174 -0.30726242 0.97847402 0.039799985 -0.99712151 -0.064534023 0.018929914
0.16526775 -0.30779949 0.97441334 0.050224122 -0.99727416 -0.054053828 0.02286656
0.18707959 -0.30794412 0.97216243 0.087733649 -0.99436504 -0.059506781 0.034427494
0.19453257 -0.30756027 0.97644258 0.11894935 -0.99072593 -0.065674365 0.035133559
0.20298052 -0.30673492 0.97680515 0.15235196 -0.98432314 -0.088864841 0.039843682
0.21407354 -0.30488259 0.97897983 0.21110937 -0.96800256 -0.13566086 0.049968731
0.22875421 -0.2987096 0.97701967 0.39218757 -0.8898598 -0.23310611 0.05794714
0.12080543 -0.30254322 0.98760051 -0.14253445 -0.98636758 -0.082237713 0.010304214
0.12454872 -0.30294418 0.982104 -0.11924709 -0.98962474 -0.080143757 0.0096905846
0.13243474 -0.3039571 0.98385286 -0.085711278 -0.9933182 -0.077281907 0.0091001512
0.14408846 -0.30573654 0.9815681 -0.023293933 -0.99705791 -0.073026754 0.012284766
0.15458165 -0.30693844 0.9882133 0.02337051 -0.99763048 -0.064709343 0.013839437
0.19559507 -0.30846539 0.98478723 0.12468313 -0.98903561 -0.079137377 0.035295956
0.20643212 -0.30731007 0.98503125 0.16317499 -0.97950727 -0.11806614 0.045450713
0.22353445 -0.30255565 0.98237193 0.27780333 -0.94418716 -0.17701961 0.059106447
0.11383075 -0.30220178 0.99960303 -0.16083863 -0.98245871 -0.094370723 0.0064457939
0.13233534 -0.3043485 0.99261266 -0.085492007 -0.99438047 -0.06243825 0.0064012208
0.14633541 -0.30756125 0.99861872 -0.03595278 -0.99700177 -0.068519413 0.0069822096
0.16291067 -0.30769444 0.9948433 0.039578661 -0.99685836 -0.068607636 0.016535029
0.18599601 -0.30830041 0.99039179 0.06435056 -0.99639529 -0.055275511 0.018382972
0.2017709 -0.30844554 0.99276209 0.13523446 -0.98608255 -0.096710011 0.040438477
0.21350522 -0.30703819 0.99592841 0.21427743 -0.965056 -0.15083832 0.054885823
0.22277266 -0.30420145 0.99255455 0.26816553 -0.94760227 -0.17360051 0.06034971
0.2294168 -0.30191076 0.99148196 0.38145918 -0.89476794 -0.23211896 0.063279822
0.12481894 -0.30464724 1.0017214 -0.11998487 -0.98836577 -0.093471475 0.0059935465
0.1422271 -0.30694348 1.0046494 -0.067073651 -0.99526924 -0.070287138 0.005878231
0.15242864 -0.3081367 1.0041311 -0.01459039 -0.99812233 -0.059488583 0.0048037297
0.16884023 -0.30764264 1.0010712 0.050874893 -0.99698675 -0.058560304 0.014710456
0.1179603 -0.30706942 1.0196381 -0.14727134 -0.98498791 -0.090056092 0.0030726446
0.20471793 -0.30958897 1.0128561 0.12133825 -0.98813325 -0.094179735 0.027194133
0.22020164 -0.30774194 1.014847 0.18326062 -0.97002268 -0.15959778 0.040504958
0.23995286 -0.30333868 1.0148128 0.45680714 -0.8460865 -0.27470857 0.070056215
0.2123303 -0.31056613 1.025745 0.12387086 -0.98645049 -0.10756992 0.028606284
0.13564503 -0.310103 1.0343549 -0.073257037 -0.99315333 -0.090993144 0.0030627574
0.14068662 -0.30994326 1.0318505 -0.076240972 -0.99361306 -0.083188809 0.0030531255
0.23283204 -0.30579183 1.0338402 0.33922276 -0.9207204 -0.19287808 0.034587927
0.21305208 -0.3102808 1.0462183 0.09624587 -0.99040395 -0.0991804 0.016121795
0.13340808 -0.31304973 1.0516827 -0.067129105 -0.99129122 -0.11329337 0.003482508
-0.24359548 -0.32707536 0.40057185 0.17966986 -0.98195839 -0.058960736 0.022548838
-0.26983067 -0.32259613 0.39071038 0.31670564 -0.90873832 -0.27183148 0.036706951
-0.25554654 -0.32625377 0.39695686 0.19483304 -0.97747999 -0.081073686 0.028329445
-0.1716902 -0.3160516 0.47146121 0.056290559 -0.9923234 -0.11011643 0.005202306
-0.20945521 -0.31335491 0.43962231 0.23542297 -0.94357538 -0.23289813 0.012311677
0.048303373 -0.3073754 0.83888561 0.0052956413 -0.99796963 -0.063471638 0.0085369106
0.043386564 -0.30865934 0.85137528 0.0055010929 -0.99796027 -0.063601442 0.0085733915
0.07560955 -0.3204276 0.69421148 -0.93893665 0.0044807787 0.3440609 3.5845285e-05
0.14704804 -0.30456775 0.93126214 0.0076507912 -0.99995428 -0.0057290397 0.019720176
0.14150578 -0.30304614 0.96185565 -0.010458341 -0.99893475 -0.044944033 0.015195278
0.14085867 -0.31005555 1.0323626 -0.076240972 -0.99361306 -0.083188809 0.0030531255
0.23283724 -0.29927313 0.99120182 0.42477995 -0.86792707 -0.25741908 0.063413233
-0.026011778 -0.30757481 0.22009653 -0.055330653 -0.99844503 -0.006777829 0.0015785886
-0.0039714114 -0.31023958 0.22113268 -0.067169078 -0.99774039 0.0015933602 0.0017767451
-0.0046620141 -0.30987409 0.23516586 -0.055346318 -0.99844402 -0.006802124 0.0015781678
-0.014212469 -0.30926099 0.21517242 -0.067169078 -0.99774039 0.0015933602 0.0017767451
0.13407029 -0.31333098 1.0527494 -0.051412601 -0.99328971 -0.10359701 0.0021715022
0.13421762 -0.30964428 1.0324832 -0.083973691 -0.9915579 -0.098799586 0.0028967769
0.13163599 -0.29856333 0.94524431 -0.033710856 -0.99908155 -0.026453732 0.015702466
0.033131368 -0.30626148 0.8254804 0.0052956413 -0.99796963 -0.063471638 0.0085369106
0.063718438 -0.30633083 0.66060883 0.0016614583 -0.99664676 -0.081807137 0.010303578
0.1492001 -0.30849224 0.92511302 0.0075808298 -0.99995667 -0.0054126345 0.021091128
-0.01074877 -0.30660099 0.20516168 -0.067169078 -0.99774039 0.0015933602 0.0017767451
-0.033221271 -0.30356839 0.19850381 -0.067164309 -0.99774069 0.0016185251 0.0017688452
0.091635831 -0.30634344 0.48601887 -0.058097303 -0.99803168 -0.02361092 0.0083541228
0.0026329171 -0.30757481 0.26500598 -0.031153597 -0.99945158 0.011217819 0.0014966573
0.19973953 -0.2999163 0.40848792 -0.96597803 0.032233875 -0.25660756 0.00099078775
0.40629771 -0.29408661 0.52021468 0.99967784 -0.00026493132 0.025377655 0
-0.019815907 -0.30719069 0.26390818 -0.033704903 -0.99938983 -0.0091602514 0.0012013628
-0.1633109 -0.310357 0.44923359 0.063881971 -0.98717099 -0.1463304 0.0022638948
0.13698193 -0.30693346 0.30967554 -0.025841501 -0.99894595 -0.037937835 0.0030415417
0.21574602 -0.30867711 0.31286401 0.019572556 -0.99860257 -0.049089462 0.0023131522
0.066605523 -0.3038573 0.34609079 -0.0059607122 -0.9990291 -0.043649215 0.004264392
0.10501202 -0.30500814 0.29094368 -0.013597273 -0.99924999 -0.036255937 0.0041901595
-0.01161107 -0.30893612 0.2459852 -0.055341288 -0.99844432 -0.0068009165 0.0015783256
-0.0090850024 -0.30763781 0.26242968 -0.055341288 -0.99844432 -0.0068009165 0.0015783256
0.046632491 -0.30429441 0.32935449 0.022978416 -0.99953252 -0.020168886 0.0028729702
-0.1566674 -0.31121141 0.35295489 -0.2061794 -0.96395779 -0.16815305 0.010432981
-0.090512499 -0.30710113 0.28479502 -0.01678363 -0.99655735 -0.081188843 7.1887021e-05
0.1782764 -0.30580509 0.3057507 0.0014407062 -0.99951214 -0.031199586 0.0022044843
0.25388077 -0.30380836 0.31937525 0.087243646 -0.94931489 -0.3019765 0.0034410229
-0.12201647 -0.30801901 0.30183527 -0.13209714 -0.97595358 -0.17339261 0.0096700601
0.13189162 -0.3069171 0.31377983 -0.023306986 -0.99906826 -0.036323924 0.0051122759
-0.011791333 -0.30916592 0.20640066 -0.067169078 -0.99774039 0.0015933602 0.0017767451
-0.10910113 -0.30844957 0.30056104 -0.042095643 -0.99458706 -0.094997689 0.0013998148
-0.070492908 -0.30521721 0.25711194 -0.016582044 -0.99976826 -0.013728016 0.00076940603
0.23471639 -0.30479836 0.30633399 0.087094709 -0.94968712 -0.30084679 0.0034359274
0.1180867 -0.3005242 0.26561221 -0.032792702 -0.99911028 -0.026520751 0.0073877107
-0.056851692 -0.30754149 0.28610241 -0.0067258645 -0.99995863 -0.0061306637 0.00044715905
-0.026915485 -0.30703151 0.27178112 -0.025696212 -0.99959588 -0.012157916 0.0010608868
-0.0980483 -0.30831537 0.29539749 -0.029560551 -0.99530244 -0.092192158 0.001706128
0.16156577 -0.097412109 0.99577403 -0.3489463 -0.247042 0.90399486 0.18165556
0.23037195 -0.27942753 0.97612107 0.45737314 -0.85281771 -0.25201547 0.055701155
0.21854573 -0.304791 0.99107146 0.23681507 -0.95980406 -0.15064777 0.057715036
0.15104002 -0.056404289 0.92584181 -0.36397037 -0.062403113 0.92931771 0.22406319
0.19183329 -0.085573293 0.94168854 -0.52422386 0.062476996 0.84928554 0.21128392
0.14978412 -0.3079966 1.0026779 -0.023893597 -0.9978562 -0.060927324 0.0058395448
0.14024051 -0.30316108 0.94371206 -0.010923862 -0.99963063 -0.024884643 0.016957983
0.17426801 -0.061505981 0.91787648 -0.47637644 -0.19974965 0.85625088 0.18009935
0.17832239 -0.053834967 0.94805223 -0.59923518 -0.095470101 0.79486012 0.19579096
0.19327165 -0.034028627 0.96330959 -0.66184974 -0.32760793 0.67426103 0.16727521
0.041943211 -0.30433878 0.59184271 -0.019975776 -0.99959117 -0.020455742 0.012747713
0.22740036 -0.28589323 0.97583598 0.39218757 -0.8898598 -0.23310611 0.05794714
0.15995511 -0.052850947 0.95552325 -0.56868732 0.00313844 0.82254779 0.20940344
0.032329798 -0.30861282 0.85363168 0.0055010929 -0.99796027 -0.063601442 0.0085733915
0.22997481 -0.30439261 0.59287548 0.80533028 -9.7856595e-05 -0.59282637 9.3581315e-07
0.14718968 -0.088521637 0.95899701 -0.46913046 0.096856654 0.87780142 0.21801195
0.11045436 -0.29861337 0.96694887 -0.13269877 -0.99010336 -0.045677371 0.013767999
0.21380845 -0.024163738 1.0476803 -0.94014019 0.27252361 0.20461504 0.0082506435
0.18277222 -0.064787306 0.93537414 -0.50389075 -0.0025229531 0.86376375 0.20642215
0.19183923 -0.033849876 0.96076626 -0.66615587 -0.32693943 0.67033345 0.16238132
0.11966009 -0.30293632 0.98629028 -0.14253445 -0.98636758 -0.082237713 0.010304214
0.21576253 -0.274149 0.95223778 0.30818489 -0.93492579 -0.17588559 0.0529829
0.14314052 -0.3048456 0.9505806 0.0052819434 -0.99971801 -0.023154171 0.019610517
0.18245488 -0.10469627 0.92745262 -0.38307589 0.45640203 0.80308783 0.20373067
0.23335584 -0.28800419 0.98117638 0.45529738 -0.85337543 -0.2538791 0.057049047
-0.095342673 -0.30697483 0.28001261 -0.01678363 -0.99655735 -0.081188843 7.1887021e-05
0.14326845 -0.092516482 0.95792532 -0.43378529 0.15167838 0.88815767 0.22528371
0.15952305 -0.053179231 0.9559083 -0.56868732 0.00313844 0.82254779 0.20940344
-0.18992831 -0.2835227 0.32338548 -0.24921326 -0.95148039 -0.1804931 0.028542444
-0.21146579 -0.30529213 0.40215626 0.0895193 -0.99562931 -0.026616691 0.013279896
-0.19000423 -0.30351564 0.35739541 0.032875754 -0.99023902 -0.13544607 0.028317295
0.14515397 -0.30560902 0.95712489 0.0098938346 -0.99939734 -0.033273343 0.017436663
0.1193848 -0.29884839 0.96198702 -0.10727745 -0.99336809 -0.041369889 0.011870802
0.20891631 -0.29596522 0.95413518 0.19606467 -0.97553688 -0.099431224 0.045227319
0.21103786 -0.29580069 0.95533252 0.21255387 -0.97095728 -0.10983058 0.045810282
0.13203734 -0.30223137 0.95757163 -0.025646122 -0.99883133 -0.040967926 0.013852612
0.13765584 -0.30264527 0.97617352 -0.043299351 -0.99684775 -0.066480048 0.010440657
0.17679366 -0.30501017 0.94844747 0.072441712 -0.99691063 -0.030353982 0.032735448
0.1258626 -0.27482596 0.91602445 -0.037660211 -0.99922192 0.011712544 0.024473555
0.14375205 -0.30669424 0.99735445 -0.049189236 -0.9965747 -0.066478185 0.0065113483
0.14846195 -0.090867996 0.96202648 -0.46913046 0.096856654 0.87780142 0.21801195
0.20210013 -0.11048089 0.96344161 -0.50667638 0.29580754 0.80980051 0.21115308
0.20036827 -0.10193355 0.95864946 -0.57586175 0.18309984 0.79677957 0.20583378
0.19637367 -0.068436675 0.97097832 -0.61582375 -0.095465824 0.78207892 0.2005139
0.12932071 -0.30129254 0.96992242 -0.067385979 -0.9961828 -0.055487491 0.011194218
0.12535588 -0.30346444 0.99773079 -0.12609233 -0.98891956 -0.078350879 0.0065312972
0.20811437 -0.030610895 0.98685277 0.71785384 0.47628102 -0.50778168 0.092110418
0.1995243 -0.036180835 0.98456842 0.75644636 0.30756173 -0.57723016 0.15999499
0.19765532 -0.088637501 0.95779997 -0.61346918 0.094752602 0.78401369 0.20621286
0.22433984 -0.24700381 0.9519856 0.65102112 -0.64646405 -0.39781371 0.052620925
0.1231886 -0.30220243 0.98164237 -0.12522072 -0.98879838 -0.081224918 0.0097161494
0.19945727 -0.089377858 0.96170276 -0.62220377 0.068380885 0.77986312 0.20451862
0.1740195 -0.30540729 0.94352281 0.07378684 -0.99709779 -0.018747635 0.032509316
0.15237302 -0.046279091 0.96171367 -0.74971402 0.47414064 0.46164873 0.19999279
0.14643118 -0.032713775 0.98057866 -0.74405283 0.51753175 0.42254725 0.15473808
0.15100364 -0.091892079 0.96929955 -0.51704699 0.075672381 0.85260552 0.21734215
0.12193091 -0.30466652 1.0015526 -0.1352111 -0.98629081 -0.094595365 0.0061693238
0.2242097 -0.28096372 0.96371806 0.39611167 -0.89029831 -0.2246429 0.054068573
0.23051021 -0.24330531 0.96352506 0.71241504 -0.56303269 -0.41887838 0.046396669
0.22549888 -0.27713114 0.96562731 0.42222646 -0.87111658 -0.25076047 0.056531489
0.16644305 -0.085208826 0.97155833 -0.62428534 0.017695425 0.78099597 0.20263304
0.13581869 -0.097095132 0.93950164 -0.28630772 0.29583994 0.91132134 0.24663197
0.23138741 -0.26578337 0.96433967 0.58565938 -0.74085677 -0.32883778 0.048763134
0.14996053 -0.059245463 0.92020053 -0.25031766 0.010164808 0.96811038 0.24000533
0.21236895 -0.28076875 0.94973856 0.25845671 -0.95486259 -0.14641576 0.048768908
0.19248188 -0.10526708 0.94662797 -0.50718272 0.32321006 0.79893738 0.20295624
0.18792008 -0.078445442 0.94202024 -0.55998105 0.044256438 0.82732248 0.20957462
0.15437317 -0.08499331 0.95478439 -0.46913046 0.096856654 0.87780142 0.21801195
0.15637986 -0.099272996 0.92305738 -0.26577184 0.60418063 0.75121981 0.20842494
0.13723797 -0.30354694 0.94355655 -0.007788816 -0.99972087 -0.022305744 0.017369386
0.19723706 -0.28971139 0.92429322 0.14989953 -0.98741412 -0.050432347 0.05217189
0.11937573 -0.29366562 0.9441638 -0.094361968 -0.99522686 -0.024886489 0.012788388
0.19929869 -0.28635359 0.92360598 0.16576901 -0.98273408 -0.082184367 0.055128422
0.19199896 -0.29895514 0.92202258 0.1334722 -0.99057436 -0.030783918 0.048496943
0.16077687 -0.3070482 0.92782873 0.019867178 -0.99978948 -0.005125971 0.02095804
0.16258822 -0.30157363 0.85292637 -0.038398013 -0.99646586 0.074708149 0.037349369
0.055297963 -0.29754677 0.45688367 -0.030618291 -0.99775785 0.059513886 0.0094848536
0.1961717 -0.30229998 0.41511557 -0.96597803 0.032233875 -0.25660756 0.00099078775
0.19417594 -0.30377117 0.42365363 -0.96597803 0.032233875 -0.25660756 0.00099078775
0.065652579 -0.30485699 0.47867897 0.0039080242 -0.99985427 -0.016618729 0.0068114083
0.15135305 -0.30862597 0.87999791 -0.020132352 -0.9982208 0.056124832 0.037171301
0.11025178 -0.30331638 0.33111396 -0.013597273 -0.99924999 -0.036255937 0.0041901595
0.2221299 -0.29910481 0.5822165 0.80533028 -9.7856595e-05 -0.59282637 9.3581315e-07
0.11776402 -0.306871 1.018298 -0.14727134 -0.98498791 -0.090056092 0.0030726446
0.11233829 -0.30406955 0.99924982 -0.16083863 -0.98245871 -0.094370723 0.0064457939
0.026465261 -0.30520579 0.80729073 0.0052956413 -0.99796963 -0.063471638 0.0085369106
0.028017886 -0.30765992 0.84426093 0.0052956413 -0.99796963 -0.063471638 0.0085369106
0.0059880521 -0.2931315 0.56151521 -0.016453411 -0.99980038 -0.011337087 0.019047318
0.1107702 -0.3041178 0.51952767 -0.060892574 -0.99811405 0.0077701798 0.0033867687
0.097527534 -0.30650595 0.47294503 -0.029856514 -0.99935198 -0.020104606 0.0060727228
0.0051647825 -0.29618046 0.60216916 -0.013941565 -0.9998889 -0.0052796029 0.01711919
0.054246381 -0.29898319 0.63587087 -0.043505438 -0.99665421 -0.069192715 0.0092263576
0.1847689 -0.30091691 0.46178451 -0.96598685 0.032283712 -0.25656801 0.00099693285
0.073243693 -0.29977521 0.56390393 -0.031860512 -0.99942642 0.011472823 0.010993579
0.076119699 -0.30380625 0.57983714 -0.037235178 -0.99917561 -0.016178021 0.011219838
0.02642921 -0.30545011 0.43643191 -0.005848024 -0.99804187 0.062276389 0.015340036
0.0047462508 -0.30439687 0.61264426 -0.019945746 -0.99959278 -0.020407043 0.013039335
0.17933568 -0.077818386 0.94513452 -0.55998105 0.044256438 0.82732248 0.20957462
0.17973076 -0.10604382 0.93705463 -0.41923669 0.4304454 0.79934812 0.20497195
0.18973786 -0.10368781 0.94211382 -0.48242241 0.35988542 0.7985931 0.2047051
0.14570275 -0.051587243 0.95294249 -0.64178991 0.33789286 0.68842882 0.22369406
0.18626986 -0.036823835 0.96692491 -0.64663231 -0.21965733 0.7304911 0.19006935
0.18261832 -0.047747046 0.9576503 -0.64569104 -0.16268617 0.74606723 0.18688673
0.18591097 -0.080550574 0.9363929 -0.48148739 0.077315196 0.87303621 0.21202202
0.19930182 -0.094761372 0.95920944 -0.63752592 0.18826249 0.74707288 0.20159297
0.12712133 -0.11547374 0.96075714 -0.068655461 0.75861007 0.64791763 0.19991687
0.14894113 -0.060837217 0.93154621 -0.42072713 0.051599398 0.90571856 0.22778912
0.17080382 -0.043747019 0.93468058 -0.48165801 -0.23985815 0.84289593 0.17951757
0.13831326 -0.073754281 0.91749245 -0.0050818361 0.024178635 0.99969476 0.24749537
0.17278251 -0.068981051 0.91951978 -0.40382081 -0.084379844 0.91093844 0.19311419
0.19984587 -0.09403763 0.96161103 -0.65108907 0.1660779 0.74060869 0.20060448
0.135839 -0.097506896 0.93029839 -0.14351936 0.52282715 0.84027016 0.22238661
-0.17071471 -0.30090991 0.30869821 -0.18677604 -0.96472299 -0.18553759 0.014671719
0.13581778 -0.096851796 0.9301464 -0.14351936 0.52282715 0.84027016 0.22238661
0.19554982 -0.11912547 0.96440673 -0.36204278 0.61887777 0.69707626 0.22263029
0.1913704 -0.10864942 0.94668674 -0.48242241 0.35988542 0.7985931 0.2047051
0.16139925 -0.08566469 0.90638781 -0.20217457 0.41071022 0.88906831 0.20054592
0.11235662 -0.29575366 0.96803874 -0.14715436 -0.98733383 -0.059308928 0.01239638
0.13996986 -0.089628771 0.94797313 -0.37074798 0.15791203 0.91521025 0.23199569
0.15133335 -0.063859329 0.94721174 -0.44902188 0.050825763 0.89207399 0.21553326
0.19921763 -0.29002362 0.93334538 0.14630887 -0.98735207 -0.061070293 0.051304411
0.13104987 -0.30411741 0.99198061 -0.090476155 -0.99393654 -0.062483881 0.0063235355
0.16884637 -0.30626097 0.90688443 0.024751009 -0.99958122 0.01499457 0.028151322
0.1683507 -0.10153889 1.0017554 -0.28374931 -0.36458606 0.88688409 0.17420276
0.18089336 -0.30436894 0.92518681 0.10019782 -0.99491638 -0.010088748 0.038008399
0.1622114 -0.30617076 0.9281618 0.032051153 -0.99948394 -0.0021364356 0.02273754
0.13949351 -0.099470474 0.94812214 -0.28642011 0.29607496 0.91120976 0.24671644
0.19869484 -0.041030176 0.98551506 0.74032402 0.31682596 -0.5929094 0.15466775
0.20956072 -0.049365621 1.026528 -0.87862128 -0.052868281 0.47458354 0.1512994
0.17782876 -0.045764547 0.96591628 -0.62448764 -0.16781044 0.76279414 0.18907972
0.18689816 -0.078222826 0.96725416 -0.62480199 0.01816641 0.78057188 0.20271151
0.14346331 -0.078043558 0.94745445 -0.43548778 0.070922419 0.89739639 0.22184749
0.203381 -0.097878374 0.97908181 -0.46200252 -0.078721792 0.88337791 0.21275879
0.15714304 -0.041386876 0.98745459 -0.71729243 0.44650882 0.53490323 0.1815428
0.20551161 -0.30635244 0.97551441 0.16030607 -0.98285753 -0.091066256 0.040202908
0.14427716 -0.10228308 0.97114336 -0.39950699 0.21156269 0.89198399 0.23812611
0.23503596 -0.30513665 1.0333583 0.39030948 -0.89033645 -0.23443425 0.046263739
0.14414804 -0.027457323 0.96712077 -0.75020337 0.50631374 0.42525432 0.14751035
0.14103115 -0.085401736 0.90579402 -0.090822347 0.51178449 0.85429966 0.23138569
0.1945195 -0.11555616 0.96070737 -0.41456825 0.42451802 0.80493337 0.21775146
0.19786182 -0.051514491 0.9863134 -0.67750305 -0.27779132 0.68104452 0.17444062
0.201882 -0.1117045 0.96238697 -0.50667638 0.29580754 0.80980051 0.21115308
0.19535351 -0.085786954 0.96860737 -0.59207654 -0.0037347062 0.80587304 0.20352395
0.14791067 -0.087267414 0.95441353 -0.46913046 0.096856654 0.87780142 0.21801195
0.197873 -0.043096058 0.98373848 -0.72352594 -0.29984659 0.62177342 0.16147077
0.14222652 -0.10015132 0.96117866 -0.39950699 0.21156269 0.89198399 0.23812611
0.13646874 -0.098479629 0.94210625 -0.28642011 0.29607496 0.91120976 0.24671644
0.17435771 -0.060050722 0.95263338 -0.58554274 0.021798795 0.81034833 0.20558932
0.15555951 -0.063778825 0.96287125 -0.58488619 0.021300331 0.8108356 0.20549831
0.20454188 -0.051072232 1.0118409 -0.724953 -0.32295394 0.60839456 0.15204912
0.19179462 -0.11532434 0.94994563 -0.38778841 0.57848477 0.71761793 0.20539325
0.13943639 -0.1083413 0.97705847 -0.33466545 0.37196779 0.86581695 0.24104245
0.1905904 -0.079047427 0.97552007 -0.59207654 -0.0037347062 0.80587304 0.20352395
0.21400037 -0.041506894 1.0443314 0.96438062 -0.010477402 -0.26431102 0.017834753
0.20726763 -0.037423883 1.0129002 -0.76586485 -0.28572428 0.5760318 0.14150651
0.20425998 -0.11208736 0.96973079 -0.35516661 0.041113466 0.93389845 0.21817483
0.1381294 -0.089280613 0.93901056 -0.3132571 0.23577531 0.91993481 0.2435932
0.18489592 -0.068984747 0.92801666 -0.46306273 -0.12797952 0.87703717 0.19325607
0.19209047 -0.085195668 0.95314598 -0.58516246 0.021515824 0.81063062 0.20558354
0.12755355 -0.11355818 0.95898294 -0.097049288 0.73563284 0.67039216 0.19500516
0.13135801 -0.11297259 0.95981991 -0.12434044 0.73507446 0.66648704 0.19328874
0.14765675 -0.087087311 0.95049328 -0.41911265 0.096760996 0.90276343 0.22603168
0.21089831 -0.100372 0.9985984 -0.10993855 -0.51427263 0.85055113 0.20676664
0.20118245 -0.2993893 0.94745255 0.16256836 -0.98258549 -0.089984789 0.041962229
0.20679384 -0.30362806 0.96420974 0.16158734 -0.9834587 -0.081844248 0.0406189
0.14070635 -0.30667949 1.0039563 -0.070601054 -0.99485546 -0.072650224 0.0059802202
0.14643469 -0.10112832 0.9733094 -0.43018919 0.16221675 0.88804448 0.23507503
0.22731867 -0.30149698 0.99137938 0.33887595 -0.91586667 -0.21529342 0.063675098
0.19139734 -0.078675978 0.97912186 -0.6295644 -0.028911386 0.77641022 0.20264354
0.20414095 -0.046496667 1.0134515 -0.76672208 -0.30765024 0.5634613 0.14211698
0.20222597 -0.11172745 0.96418506 -0.48138446 0.23772493 0.8436563 0.21695207
0.16039592 -0.061759677 0.96870303 -0.62436372 0.017717274 0.78093278 0.20260763
0.15010543 -0.096006177 0.97735298 -0.51666629 0.075455137 0.85285544 0.21729977
0.19395664 -0.084536985 0.98827189 -0.48634657 -0.15627688 0.85967702 0.20694105
0.19931293 -0.071421474 0.97874552 -0.62978637 -0.15842469 0.76044118 0.20346928
0.13208824 -0.1129141 0.98301387 -0.21542351 -0.016257897 0.97638541 0.21648394
0.13161407 -0.11965248 0.96484369 -0.069262862 0.7756961 0.62729436 0.19839175
0.15919578 -0.093685165 0.97862303 -0.55646956 0.051407646 0.8292762 0.215537
0.16363493 -0.10407967 0.95275718 -0.47571042 0.20224559 0.85603523 0.22196528
0.14180516 -0.099854931 0.95915586 -0.39950699 0.21156269 0.89198399 0.23812611
0.14083391 -0.10823031 0.98272371 -0.28125894 0.13638747 0.94989049 0.21429601
0.19067377 -0.060660332 0.98357469 -0.66112489 -0.19045138 0.72570109 0.19449759
0.2289649 -0.2965385 0.98041373 0.39218757 -0.8898598 -0.23310611 0.05794714
0.12930751 -0.30260748 0.97798759 -0.088868864 -0.99300611 -0.077725634 0.0091890367
0.12582037 -0.30224711 0.91687649 -0.038925938 -0.99918526 0.010659324 0.020886781
0.11124522 -0.29556394 0.97760737 -0.17826961 -0.98060423 -0.081457071 0.011115988
0.12337631 -0.28391457 0.93050236 -0.048601657 -0.99864733 -0.018474864 0.019630507
0.11997763 -0.28597543 0.93308806 -0.046770174 -0.99871784 -0.019368578 0.019861065
0.025381546 -0.29811785 0.78486037 0.0052956413 -0.99796963 -0.063471638 0.0085369106
0.025607055 -0.30598518 0.81723958 0.0052956413 -0.99796963 -0.063471638 0.0085369106
0.040638633 -0.30632037 0.82564741 0.0052956413 -0.99796963 -0.063471638 0.0085369106
0.13577677 -0.098457031 0.93055987 -0.16974363 0.61512911 0.76993716 0.20893468
0.24394482 -0.29809022 1.0128969 0.54221439 -0.7920565 -0.28044644 0.06714043
0.0067095128 -0.30175784 0.60523498 -0.019975776 -0.99959117 -0.020455742 0.012747713
0.007472537 -0.30121121 0.53737158 -0.024522429 -0.99961746 -0.012789398 0.021080876
