# .PCD v0.7 - Point Cloud Data file format
VERSION 0.7
FIELDS x y z
SIZE 4 4 4
TYPE F F F
COUNT 1 1 1
WIDTH 1149
HEIGHT 1
VIEWPOINT 0 0 0 1 0 0 0
POINTS 1149
DATA ascii
0.081120759 -0.084508874 0.4994168
0.071760647 -0.06514895 0.49189031
0.073684663 -0.0727119 0.49553141
0.056959551 -0.054866109 0.4949806
0.065661401 -0.067994162 0.49509779
0.05142412 -0.05134714 0.49443811
0.064761192 -0.052678362 0.4973107
0.081990167 -0.054341819 0.50329018
0.03874661 -0.035014208 0.48759061
0.076922163 -0.0097035244 0.50143099
0.032444142 0.0080880374 0.48543599
0.069455951 -0.074267671 0.50157893
0.077292003 -0.01526688 0.50013059
0.040121641 0.04681604 0.49167171
-0.053123798 -0.094629213 0.46216941
0.068276197 -0.09013246 0.49913901
0.01368046 -0.13552099 0.47506681
0.0543296 -0.1537053 0.4960742
-0.067313492 -0.1276193 0.45775971
0.04665241 -0.064510867 0.488038
0.016822809 -0.086974591 0.48489031
0.02342543 -0.038877521 0.48684141
-0.066664837 -0.050410759 0.45988941
-0.0367218 -0.1125721 0.46468109
-0.033696849 -0.004952841 0.46584639
-0.050582439 0.02629821 0.46283749
0.02501619 -0.0333938 0.48404431
-0.062750667 0.02278759 0.4541097
-0.073227987 0.047634222 0.45465589
-0.045789931 -0.1001374 0.4613314
-0.00036072731 0.003939331 0.4774867
-0.049791481 0.032358378 0.4607434
-0.02153663 -0.02919234 0.4736284
-0.035323799 -0.0091635734 0.46403119
0.05153884 -0.1306023 0.49485409
-0.055149872 0.019864099 0.45759019
-0.07323961 0.02865709 0.4570106
-0.044544749 -0.051795419 0.46659651
-0.00071337819 0.0093252957 0.47632211
-0.01149249 -0.024930259 0.47355241
-0.079036921 0.0088108182 0.45334399
0.0076215342 -0.13583399 0.48172969
-0.01331136 -0.02938983 0.47686231
-0.0024726989 -0.1666058 0.47669759
-0.00043642521 -0.1689757 0.47785279
-0.002853855 -0.20037819 0.47743911
-0.032022089 -0.238538 0.46534401
-0.028544219 -0.2067945 0.4650079
-0.087747581 -0.1968133 0.44682121
-0.089249708 -0.1931427 0.4474256
-0.085958138 -0.2308086 0.44508851
-0.088412173 -0.23114219 0.44376209
0.067639723 -0.20022599 0.50023228
-0.03559484 -0.1570168 0.46658379
0.024920991 -0.24155401 0.48326799
-0.061872348 -0.1577532 0.45718351
-0.075566463 -0.17951579 0.4515534
-0.027493309 -0.24185389 0.4654361
-0.091943003 -0.17096961 0.4452315
-0.032539569 -0.1494762 0.4659307
0.044417389 -0.1732382 0.48932409
-0.068773843 -0.1510684 0.449018
-0.04803751 -0.18436369 0.4600457
-0.031678319 -0.16087811 0.46711361
-0.047627121 -0.22653849 0.461768
0.00639081 -0.19163769 0.49032789
0.02147761 -0.18422391 0.48647359
-0.091556087 -0.2034445 0.44807911
0.004936039 -0.20585421 0.48010981
-0.044124559 -0.1780743 0.4609364
-0.058042571 -0.144996 0.46155819
-0.06763868 -0.2225433 0.45724609
-0.1089646 -0.041879971 0.44331169
-0.1328409 0.046328831 0.4487322
-0.091577567 -0.087099627 0.4490864
-0.098389983 -0.065808371 0.445519
-0.124302 0.002658427 0.43679461
-0.09595082 -0.069209553 0.44947729
-0.12887309 -0.1140665 0.43980411
-0.1478422 -0.103365 0.4832308
-0.13008261 -0.1110528 0.43996161
-0.1310076 0.01485465 0.4375363
-0.1083032 -0.01109654 0.44446519
-0.1041934 -0.01274697 0.44367599
-0.1089867 -0.0048969542 0.44276431
-0.1142631 -0.071776122 0.44327909
-0.1181846 -0.031797729 0.4428592
-0.1216415 -0.030975619 0.43788379
-0.091138303 -0.1727142 0.44423059
-0.099210799 -0.1432081 0.4444609
-0.1137682 -0.1824131 0.4440589
-0.14939781 -0.1364466 0.48599631
-0.1483333 -0.14603411 0.48435989
-0.1475987 -0.18165541 0.4783884
-0.1250753 -0.13615669 0.4413428
-0.1094735 -0.1494883 0.44416901
-0.1286965 -0.1981691 0.4351615
-0.099128664 -0.15316799 0.43482009
-0.1457337 -0.2179351 0.49136651
-0.1243885 -0.2331896 0.45001531
-0.1017406 -0.1901606 0.44738749
-0.119583 -0.24582981 0.44264159
-0.099071011 -0.1966698 0.44661471
-0.1004078 -0.2006854 0.44571289
-0.1010148 -0.15185 0.44563639
-0.1047609 -0.1697551 0.4459511
-0.093742378 -0.16181409 0.44494921
-0.1472781 -0.2460618 0.48540619
-0.1148843 -0.24922509 0.4309682
-0.1327401 -0.1629426 0.44747531
-0.1326348 -0.16287079 0.4448449
-0.054276839 -0.043370619 0.46414781
0.019512249 -0.1366211 0.48866591
-0.019507211 -0.045869078 0.4765816
-0.078577302 -0.026426479 0.45599759
0.01122051 0.021238061 0.47951141
-0.01468679 0.035622589 0.47206381
-0.038456518 -0.22638039 0.46638161
-0.019744281 -0.187059 0.46926889
-0.068678923 -0.1965439 0.4460628
-0.1012113 -0.076961733 0.44918269
-0.1117902 -0.1139754 0.43878421
-0.082697287 0.017212991 0.46085611
-0.096401982 -0.1826119 0.44747639
-0.1115964 -0.1439902 0.44682691
-0.1043319 -0.20490029 0.43916669
-0.049593769 -0.1916391 0.4586899
-0.078158051 0.020221891 0.45415959
-0.075373471 -0.0049884468 0.45003369
-0.082804501 0.016511381 0.4557195
0.01384966 -0.1444504 0.48337889
0.02579361 -0.1244348 0.4828853
-0.021860071 -0.211124 0.46593171
-0.1273195 -0.0092075318 0.43803859
-0.1329584 -0.088940009 0.4470135
-0.069963619 -0.045015659 0.4567799
-0.1123154 -0.1586166 0.44558761
-0.055616841 -0.05986169 0.46243089
-0.067502201 -0.027683569 0.451242
-0.1082854 -0.25831449 0.43643251
-0.041919921 -0.0085673779 0.46341071
-0.0619081 0.01128468 0.4559561
-0.037686761 -0.2497749 0.46497661
-0.018872751 -0.2459556 0.4666099
-0.1066944 -0.2079262 0.44114059
-0.049432371 0.031617399 0.45705241
-0.168029 -0.085547447 0.55089939
-0.1011284 -0.061302479 0.44568571
-0.055132478 -0.05544797 0.46278599
0.0062306901 -0.017011451 0.48075739
-0.13655511 -0.1560104 0.4590424
0.03496176 -0.01580039 0.4906607
-0.04423172 -0.16658039 0.46272591
-0.069452673 -0.034588549 0.46244529
-0.1057638 -0.02115332 0.44282821
-0.071813881 -0.035558719 0.45620179
-0.091455624 -0.21910641 0.44395599
-0.1032561 -0.0054814671 0.44514099
-0.004040733 -0.023109891 0.47535759
0.0003692731 -0.2450989 0.48012319
0.051647339 -0.1179668 0.49413949
-0.059912361 -0.2433645 0.45853329
-0.036322769 -0.1690038 0.46337181
0.0055929651 -0.25143611 0.48146531
-0.071267977 0.0035893619 0.45703751
0.026324211 -0.13853119 0.4850668
-0.1033521 -0.2157152 0.4410221
-0.066250198 -0.2331659 0.45635399
-0.034294728 -0.037614889 0.4645704
-0.06076378 0.00096523762 0.45627299
-0.087795638 -0.21164081 0.4477877
-0.068940736 -0.1983176 0.45601389
0.0049366578 -0.022470269 0.47839141
-0.091568343 -0.1172347 0.44671199
-0.00024557111 -0.01163047 0.4774614
-0.0061526368 0.01147933 0.47769719
-0.1078433 0.001421005 0.4417446
-0.2345579 -0.2658385 0.2990787
-0.097329266 -0.087028727 0.44846141
-0.1098362 -0.049001649 0.44881341
0.01946253 -0.059034709 0.4839586
-0.1181804 0.0098254979 0.43779981
-0.0067188442 -0.15786371 0.47541931
-0.1552227 -0.2537556 0.49389651
-0.045524009 -0.2081123 0.46542749
0.068474531 0.03326172 0.50010252
0.033972912 -0.18500561 0.48450869
-0.05683022 -0.19407929 0.45797119
-0.064765103 -0.06111379 0.45473409
0.031273089 -0.00036006421 0.48340151
0.066433363 -0.089731157 0.4953655
-0.1263365 -0.1189694 0.43804801
-0.1530596 -0.19655231 0.49572659
-0.1003839 0.045581091 0.44349459
-0.1096527 -0.1372748 0.44649729
0.072143167 -0.1650542 0.50088221
-0.050344229 -0.13998809 0.46106461
-0.075914472 -0.25640631 0.44815841
0.02454355 0.022937121 0.48661461
0.03623414 -0.02475423 0.48609751
0.05633384 -0.01284933 0.49306121
0.086751759 -0.0039891899 0.50787789
-0.1161885 -0.12556431 0.58022147
-0.1030075 -0.0088593364 0.5455333
-0.091051102 -0.1815291 0.49453771
-0.092411399 -0.021850679 0.47517881
-0.07933569 -0.2382358 0.4599548
-0.1307817 0.01309007 0.62952411
-0.1114292 -0.25475979 0.54268551
-0.081411302 -0.1683334 0.4688316
-0.1321687 -0.2001937 0.62004822
-0.092137523 -0.1667136 0.4977991
-0.1095151 -0.1003165 0.56159139
-0.09938845 -0.1332172 0.49639589
-0.1246374 -0.05556855 0.61167598
-0.1223601 -0.1609796 0.60929918
-0.1158383 -0.2368606 0.58281243
-0.1127269 -0.2135742 0.58109647
-0.09713161 -0.24956471 0.51754272
-0.09548974 -0.2556842 0.51798427
-0.1087188 -0.27320501 0.55256218
-0.1235514 -0.098912358 0.62618542
-0.1257848 -0.1916633 0.62239581
-0.084957182 -0.1071526 0.49277431
-0.087436743 -0.1618792 0.493644
-0.088566422 -0.14248601 0.49811631
-0.094545357 -0.065000683 0.52394462
-0.1098601 -0.052037269 0.58862579
-0.1110009 -0.094112583 0.57837898
-0.098961532 -0.1455967 0.53872991
-0.079323113 -0.01323301 0.47891709
-0.1276494 -0.174345 0.63605362
-0.118225 -0.077067137 0.60916221
-0.1140817 -0.1484538 0.58715957
-0.093925118 0.003098622 0.53426361
-0.1247469 -0.1673746 0.61238158
-0.099142671 -0.1936273 0.52443397
-0.1202207 -0.1986468 0.61464047
-0.1130746 -0.19652151 0.5835219
-0.088968039 -0.018674729 0.51303959
-0.1113873 -0.2043923 0.57790399
-0.1040499 -0.1177925 0.55413568
-0.1181982 0.004667819 0.56527883
-0.1236296 -0.13603389 0.61397398
-0.092488229 -0.070498943 0.52355689
-0.096061289 -0.029323939 0.54847002
-0.089412212 -0.02910215 0.51248229
-0.092622399 -0.051907811 0.5193857
-0.1092272 -0.1654364 0.56317121
-0.087590039 -0.25116849 0.49203709
-0.086617887 -0.2223002 0.49354509
-0.1316397 -0.24622419 0.63866109
-0.080677807 -0.17706101 0.4704721
-0.072687984 -0.2013104 0.46245879
-0.089628458 -0.1541767 0.4999935
-0.096458673 -0.05376482 0.5302999
-0.090124309 -0.08561939 0.50679249
-0.1242576 -0.140705 0.64239287
-0.09589386 -0.17200559 0.53045177
-0.1147991 -0.003871799 0.61255419
-0.1071391 -0.084659673 0.57198739
-0.097663157 -0.1332563 0.53992039
-0.1253581 -0.1299832 0.62183237
-0.1045488 -0.1152818 0.5629431
0.02936542 0.0083511174 0.57505459
-0.083117723 -0.075069308 0.48077399
-0.076255918 0.001554847 0.464266
-0.088781208 -0.1038336 0.47165409
-0.064653642 -0.26472631 0.45314059
-0.1202325 -0.05023757 0.62412828
-0.1111273 -0.059268501 0.59055978
-0.09705615 -0.041723698 0.53573519
-0.1020507 -0.02998149 0.56858671
-0.095080674 -0.032858819 0.53262669
-0.1065238 -0.04741025 0.579274
-0.09837395 -0.04545724 0.54440451
-0.1049478 0.0066882521 0.59541059
-0.1062724 -0.04034033 0.58297789
-0.12703399 -0.037779331 0.64377588
-0.1144283 -0.1171778 0.58788371
-0.097047873 -0.033881221 0.54239029
-0.12966479 -0.23952509 0.63527578
-0.1116549 -0.1352132 0.57347071
-0.1128761 -0.1838852 0.58439958
-0.037635211 -0.24972621 0.46206981
-0.1395233 -0.069920272 0.64215487
-0.1107727 -0.18118919 0.5651685
-0.100036 -0.01832247 0.56243259
-0.081635296 -0.02039987 0.47549391
-0.08983767 -0.1972279 0.49819189
-0.1183873 -0.08967185 0.60870612
-0.076240599 -0.0099606514 0.46825859
-0.00065034628 0.0074639618 0.58866322
-0.0941661 -0.1882066 0.51025462
-0.078658581 0.0068309749 0.58451492
-0.099302053 -0.14956319 0.5377844
-0.1144853 -0.2398434 0.57925951
-0.1221554 -0.2191963 0.60955548
-0.1253642 -0.16471399 0.63199949
-0.099715292 -0.2433223 0.5302996
-0.1044862 -0.1460215 0.55626768
-0.1252328 -0.18860289 0.64422661
-0.07959187 -0.0304791 0.47520471
0.065639317 0.0069286232 0.6463778
-0.085380323 -0.0053687692 0.49436271
0.01272064 0.0069973171 0.64636612
-0.099045686 -0.19579139 0.52184778
-0.1071311 -0.26747999 0.54717648
-0.097898722 -0.25289071 0.52010381
-0.1023157 -0.2377232 0.53985173
-0.077132277 -0.1289317 0.46551219
-0.1191472 0.00044584271 0.62182349
-0.1236506 -0.003105253 0.64182538
-0.109278 -0.01047406 0.59454942
-0.1034834 -0.063239373 0.55720443
-0.1182189 -0.22413211 0.59343928
-0.1086251 -0.2434433 0.5551998
-0.1215335 -0.119365 0.61806113
-0.095550179 -0.059051689 0.53420699
-0.065729678 0.002468169 0.52719241
-0.091347523 -0.02283394 0.52068591
-0.078307807 0.001303196 0.61516279
-0.1004151 -0.02924159 0.56379849
-0.097507663 -0.02874336 0.5472945
-0.1073447 -0.0079325736 0.58439672
-0.1064369 -0.1291711 0.56297553
-0.1187544 -0.2477936 0.58705598
-0.1266546 -0.250269 0.62219232
-0.102338 -0.1091552 0.56168258
-0.097319782 -0.00400281 0.5505085
-0.1184983 -0.1340622 0.59179449
-0.1214002 -0.007420301 0.6303761
-0.03381836 0.0077659339 0.63818449
-0.093562722 -0.02164286 0.53047669
-0.1294315 -0.27270031 0.64849192
-0.088740997 -0.1311744 0.50053221
-0.01793718 0.006230175 0.58061838
-0.1255904 -0.090474777 0.64067382
-0.1205159 -0.076945484 0.6233958
-0.1219437 -0.084288478 0.629309
0.069934353 0.01308665 0.54839379
-0.09569639 -0.19706041 0.51874048
-0.11945 -0.050815821 0.63379377
-0.1048868 -0.003118962 0.57303268
-0.089424908 0.0091306716 0.54590589
-0.1263264 -0.019641099 0.64837962
-0.1176311 -0.073505461 0.61367249
-0.121157 -0.097018272 0.625458
-0.098802917 -0.063270569 0.54423702
-0.1045349 -0.021366449 0.58165431
-0.13252071 -0.22251301 0.64878613
-0.1241611 -0.062365081 0.63677198
-0.1209748 -0.1263877 0.61256742
-0.1252694 -0.01301321 0.64259201
-0.1103103 -0.1132598 0.58205467
-0.112723 -0.081698447 0.5849514
-0.113721 -0.081344903 0.59820777
-0.1204445 -0.04073057 0.6292327
-0.066419117 -0.001731515 0.50434798
-0.1272331 -0.1237737 0.62416017
-0.095181882 -0.1869238 0.5202949
0.01070487 0.001932263 0.57166982
0.044387762 0.002686203 0.53842628
-0.077416718 0.0030626799 0.46490341
-0.03474414 0.005804494 0.472139
-0.067021072 -0.24704 0.46356079
-0.090543091 0.003857821 0.59468341
-0.1189941 -0.04788458 0.61681342
-0.073245823 0.0086525083 0.64449131
-0.1061395 -0.037920389 0.58257949
-0.108564 -0.033018172 0.58458501
-0.1115525 -0.18838011 0.58071673
-0.12872881 -0.1677317 0.64370883
-0.1265153 -0.090166993 0.63410038
-0.1277975 -0.087697119 0.64566559
-0.1238782 -0.1646705 0.62570018
-0.1053216 -0.062836498 0.55994087
-0.1178185 -0.095163293 0.60259479
-0.1220755 -0.141286 0.62186128
-0.093389273 -0.1859601 0.5135811
-0.062402248 0.00096425408 0.51733088
0.083091378 0.0083625317 0.63684899
0.1051737 0.0036187021 0.58331388
-0.025726739 0.003667861 0.56777823
-0.11769 -0.075936563 0.60379249
-0.1217056 -0.17640141 0.60774893
-0.1165383 -0.05107424 0.60904771
-0.1162391 -0.2000093 0.59076619
-0.1216041 -0.070135273 0.62508333
-0.082945228 -0.01584569 0.49252281
-0.110739 -0.1037453 0.5752666
-0.1167922 -0.1001984 0.6039263
-0.13174731 -0.2729331 0.61786842
-0.12708899 -0.095796503 0.61403328
-0.1237108 -0.2453091 0.60554951
-0.068599217 0.0047405958 0.54178691
-0.099666119 -0.01597801 0.53298593
-0.093821108 -0.0086354325 0.54507351
-0.1023628 -0.00081917638 0.54839188
-0.084607013 0.005303591 0.4871451
-0.1223584 -0.1968298 0.6108638
-0.1210374 -0.091633171 0.61833441
-0.118956 -0.1696941 0.60247368
-0.12708931 -0.2013064 0.63246518
-0.1327285 -0.25384039 0.64863378
-0.01582462 0.006144837 0.64817542
-0.1158447 -0.038846608 0.61092681
0.023605879 0.0020481651 0.57820779
-0.070930779 -0.1489619 0.4611063
-0.1037161 -0.065663837 0.53782111
-0.08917129 -0.0298391 0.50741887
-0.094950847 -0.2321675 0.50310969
-0.078072667 -0.03425258 0.48111859
-0.1204376 -0.2078853 0.61239541
-0.128691 -0.2186753 0.63660097
-0.1199802 -0.13976841 0.59925032
-0.1195384 -0.089673787 0.62462598
-0.095579334 -0.1640812 0.51680303
-0.088484347 -0.1670198 0.50522423
-0.1055713 -0.039897472 0.56458652
-0.09442693 -0.23384809 0.50219268
-0.05961132 0.0062603951 0.58033842
-0.097032733 -0.095557839 0.54094392
-0.1041904 -0.1741225 0.5542447
-0.0083964467 0.004936635 0.634763
-0.097660057 0.0055115069 0.6232357
-0.1208866 0.0081112534 0.63051921
-0.109266 0.006970033 0.62455362
-0.1131487 -0.076407023 0.58905178
-0.1032545 -0.2593976 0.53408962
-0.1044703 -0.077479988 0.58641958
-0.1180432 -0.068488933 0.62201738
-0.098982751 -0.20632561 0.54131311
-0.1143264 -0.2287637 0.58861768
-0.098778427 -0.14471699 0.52765042
-0.1075336 -0.2694256 0.56013173
-0.097725511 -0.2703833 0.52351552
-0.096656077 -0.27471861 0.50930238
-0.1202065 -0.26080349 0.57471251
-0.10123 -0.05305681 0.56014788
-0.1034301 -0.12621769 0.54859632
-0.098320253 -0.20284989 0.53624201
-0.1223413 -0.184664 0.61497629
-0.094861329 -0.089595847 0.54691488
-0.096123807 -0.22558101 0.5172199
-0.1009276 -0.1555094 0.54583949
-0.1040835 -0.2017033 0.56162542
-0.1037649 -0.18486319 0.54239559
-0.127735 0.0136939 0.63345307
-0.1107891 0.01272371 0.5572654
-0.043712251 0.01417336 0.50576347
0.069903359 0.018328341 0.5241878
-0.044450201 0.01269484 0.59838349
-0.03220674 0.01362512 0.47872359
-0.05314552 0.01288244 0.63563448
-0.01118536 0.01160723 0.48270819
-0.1099453 0.0069154198 0.55679882
0.054199971 0.01265123 0.55806708
-0.01699936 0.0095371306 0.51640421
-0.064291351 0.013125 0.51115692
-0.02797028 0.0079007149 0.53159082
-0.058809381 0.0082868338 0.59646308
0.030493051 0.015649499 0.50002748
0.02481734 0.01092473 0.53084338
0.040073629 0.01165882 0.62977183
0.084279783 0.01433042 0.61510807
-0.1172637 0.0087639391 0.57300287
0.085492887 0.0097019076 0.51475137
-0.1081327 0.01047069 0.52555698
-0.091702588 0.01090074 0.50392962
0.01053572 0.02147913 0.50773531
0.01230678 0.01151025 0.54886228
0.078753278 0.01141584 0.58721912
-0.0048318212 0.01884076 0.63073939
-0.016116779 0.01016951 0.62194133
-0.0076317629 0.01441395 0.56279957
-0.089387417 0.0063071549 0.47643819
-0.077212393 0.01302266 0.61445129
-0.063083738 0.01356035 0.5371148
0.1197246 0.01174584 0.56362128
-0.00097632408 0.01662812 0.64859283
0.03285056 0.01893067 0.62998217
-0.043365911 0.01443619 0.62122482
-0.1095679 0.0110884 0.51545709
-0.082379811 0.009544909 0.59605962
0.062544413 0.0076591969 0.60092628
-0.029007539 0.015925789 0.62799382
0.042163089 0.01071751 0.64780581
-0.043060292 0.0094370842 0.55604857
-0.053084701 0.01151437 0.58258581
-0.093023352 0.01008135 0.45714101
-0.099294752 0.01305243 0.54417461
0.044975732 0.0054466128 0.55078977
0.041621599 0.01779357 0.60420132
0.04648741 0.018052399 0.53976363
-0.01406113 0.01404747 0.58181763
0.1024341 0.01370665 0.59798932
0.09711206 -0.26607069 0.6400224
-0.1242566 0.01712322 0.64028698
0.1007279 0.0092419982 0.60596192
0.0933429 -0.074349463 0.62705112
0.098788694 -0.077801377 0.61589998
0.1046599 0.0082591176 0.61374122
0.051834889 0.01987922 0.63804072
0.1073651 -0.0561128 0.5974105
0.1019209 -0.03614163 0.61674511
0.082128741 0.01980212 0.64647168
0.07931938 0.01555443 0.57339358
0.1261425 -0.1772159 0.538553
0.124596 -0.2111757 0.53541547
0.12676039 -0.1219701 0.52567488
0.1013871 -0.034292161 0.61347097
0.1173783 -0.061877102 0.56897891
0.1052401 -0.06228688 0.62346601
0.100793 -0.01527271 0.61171871
-0.095078267 0.02022907 0.59258097
0.042355191 0.01766911 0.64262712
0.1211845 -0.12936971 0.56764102
0.1092533 -0.22433031 0.61210817
0.1232749 -0.088825971 0.54406178
0.112809 -0.20494869 0.58720589
0.1197006 -0.084411979 0.57240617
0.1238214 -0.14007109 0.54577613
-0.1109299 0.016969619 0.59354877
0.1005846 0.017254081 0.58147311
0.1319949 -0.1727947 0.52077359
0.12828051 -0.1473607 0.52781671
0.1143007 -0.094276249 0.58148032
0.1235811 -0.21753819 0.52326202
0.1358694 -0.1529085 0.5240317
0.097361647 -0.2287059 0.63564658
0.1285685 -0.077899657 0.54863119
-0.1160266 0.020217931 0.57115752
0.1126703 -0.1776122 0.60490602
0.09991248 -0.00040340421 0.61516029
0.01515152 0.01473293 0.57645577
0.1078783 -0.2616545 0.61341339
0.065963916 0.01403195 0.55165422
0.1078768 -0.1212503 0.61130321
-0.077311084 0.01451096 0.56398523
0.032026451 0.01295477 0.63955021
0.098569691 0.015973181 0.61361587
0.1182404 -0.042970002 0.56587589
0.095473602 0.01327336 0.54848242
0.1051924 -0.1407402 0.63380527
-0.02561504 0.01220176 0.51312488
0.031320989 0.01200196 0.5498901
-0.05617528 0.01254088 0.48327041
0.1155273 -0.02031308 0.57255602
-0.071863897 0.01494914 0.46672791
0.016908091 0.01683411 0.56286627
-0.01409216 0.0093259215 0.53133768
0.096377298 -0.1340632 0.64319462
0.095932737 -0.1180032 0.64065832
0.093078203 -0.083512537 0.63798791
0.09956038 -0.17000981 0.61365461
0.088575631 0.02490947 0.63876641
0.086012468 -0.079159893 0.62714273
0.1040534 -0.090182573 0.61686867
-0.01676154 0.01833773 0.61093861
0.097219743 -0.057409849 0.6358214
0.1128997 -0.26929 0.59837037
0.091531232 -0.0042604799 0.64598781
0.094248243 -0.01354346 0.64305753
0.1202696 -0.21706609 0.57703447
0.097377934 -0.1815567 0.64460099
0.133707 -0.115436 0.51813442
-0.054144468 0.01505128 0.61388862
0.016625229 0.01396894 0.53160292
0.096150666 0.01010785 0.63202399
0.1111717 0.01507139 0.52665269
0.1467361 -0.1046985 0.51736689
0.1121949 -0.038003828 0.58981627
0.1244656 -0.041322589 0.55749232
0.134636 -0.1279535 0.52892148
0.1249202 -0.107724 0.52891368
0.135359 -0.193782 0.53029311
0.1374152 -0.2014636 0.52104789
0.1248214 -0.054365959 0.54149759
0.1266465 -0.066222638 0.53047562
-0.02269271 0.01286814 0.54800481
0.1152773 -0.094994903 0.58666807
0.12503821 -0.09584263 0.50882387
0.1142989 -0.1535818 0.57930827
0.1173248 -0.1914724 0.57718408
0.093892843 -0.037345801 0.62451982
0.071046047 0.01163858 0.51211327
-0.025524201 0.01367557 0.48324379
0.002812773 0.01620576 0.51152098
-0.04101938 0.02023581 0.6088677
-0.051797871 0.018869489 0.64654791
0.089326411 0.017356429 0.53055769
0.075133681 0.018422689 0.55893612
0.0278295 0.018161479 0.62136912
-0.0099936724 0.01961693 0.49831459
-0.1306144 0.01330182 0.63274181
-0.1274161 0.01428193 0.63675201
-0.1086752 0.01558891 0.5745731
0.02511308 0.017898951 0.54662049
-0.1108854 0.018372649 0.57090259
0.05665645 0.016808361 0.56708068
-0.02719802 0.01534328 0.5500766
-0.081892937 0.021440711 0.57761341
0.04056868 0.01766214 0.64369959
-0.0379338 0.015771721 0.50083369
-0.01770952 0.01822257 0.53246981
0.063001327 0.02391264 0.54553193
-0.088022768 0.015975861 0.62893993
-0.085535422 0.0050766771 0.47435251
-0.03854296 0.0152823 0.62128872
0.072575837 0.01561764 0.57773602
-0.063502699 0.016243819 0.52720702
-0.0096391141 0.025487751 0.58117032
0.1155813 -0.0088525116 0.64874011
-0.1405236 -0.26838961 0.64882863
-0.097678177 0.01017305 0.64540642
-0.14070091 -0.25192621 0.59830213
-0.096752517 -0.065493077 0.47478351
-0.042810678 0.009459585 0.61746043
-0.1354606 -0.082351387 0.6332283
-0.1236761 -0.2303126 0.57421392
-0.1305819 0.0089804232 0.62076712
-0.1226049 -0.0071040089 0.57770753
-0.090281963 -0.01465338 0.4584963
-0.1329785 -0.20986719 0.603387
-0.1296812 -0.089226961 0.594145
-0.1257126 -0.1782233 0.57575482
-0.1268566 -0.069727749 0.60259491
-0.1117654 -0.01965284 0.54076612
-0.13258471 -0.060769591 0.61607158
-0.1016665 -0.017515721 0.51476991
-0.1366407 -0.1989467 0.62046123
-0.1125031 0.0086950958 0.60929108
-0.1421849 -0.08282727 0.64944339
-0.1325731 -0.23741721 0.60131723
-0.1296128 -0.2525841 0.57132232
-0.1368681 -0.085475147 0.61603701
-0.1203301 -0.1932784 0.56601739
-0.1336623 -0.16172729 0.60791349
-0.13768519 -0.24191649 0.63567442
-0.13800161 -0.2157774 0.64514542
-0.1375843 -0.1783042 0.63810313
-0.1486824 -0.17739861 0.64475012
-0.085280783 -0.1744716 0.46411851
-0.132879 -0.26545539 0.59901559
-0.1206022 -0.044461101 0.5812428
-0.08043766 -0.2496303 0.44990131
-0.1325614 -0.2005606 0.64532542
-0.13597821 -0.24011549 0.61853403
-0.1382021 -0.26564011 0.62572289
-0.089333586 -0.060683489 0.46707389
-0.099854887 -0.0075638592 0.4847354
-0.072374277 -0.2394449 0.45935291
-0.1099123 0.01521808 0.58529592
0.071109712 0.01589668 0.63647592
-0.096129 -0.053682089 0.4810603
-0.077683032 -0.072091818 0.4607034
-0.12675621 -0.1404373 0.57923812
-0.1325718 -0.1576858 0.62575978
-0.101685 -0.061029341 0.50686133
-0.089426458 -0.024472181 0.47473979
-0.091951072 -0.056099471 0.52475619
-0.1087505 -0.049981002 0.52758628
-0.039641019 0.016428711 0.63049978
-0.1325513 -0.061648071 0.63728857
-0.1397322 -0.1656784 0.64664513
-0.1357602 -0.18375219 0.63681787
-0.095119767 0.01086187 0.4957827
-0.055462841 -0.063469946 0.4563109
-0.094703726 -0.060826629 0.44386739
-0.1267985 -0.002423316 0.62234747
-0.095791042 0.01888961 0.59698862
-0.1135079 0.01550576 0.64924711
-0.14382529 -0.07379958 0.64963961
0.1196593 -0.073632121 0.50956261
0.1212114 -0.01185182 0.51148081
0.1095217 -0.047704339 0.50456423
0.097243734 0.01281598 0.59172702
0.088751018 -0.053828482 0.50049633
0.0071606641 -0.026779739 0.48047751
0.088151932 -0.093758941 0.50019473
0.081630051 -0.072577953 0.49491301
0.026300879 -0.001835018 0.47960451
0.1063501 0.00050088757 0.50732613
0.084781297 0.0078363717 0.64821261
0.052391231 -0.023597481 0.49155
0.04199535 -0.02865018 0.486191
0.031513728 -0.050097261 0.49230269
0.1007379 -0.087545253 0.50016809
0.1162543 -0.1990771 0.51075399
0.033433001 -0.024806591 0.48785141
0.1005009 0.01211292 0.5189023
-0.003997758 -0.005249023 0.47457159
0.066746257 -0.070989311 0.49274039
0.1145535 -0.101208 0.50420952
0.1084883 -0.1229468 0.50467777
0.031140151 -0.06127733 0.4865686
-0.1103966 0.01589847 0.55966622
-0.09443488 0.01075214 0.49718729
0.096691757 -0.067639053 0.49922931
0.076047212 -0.01940139 0.4990342
0.1238583 -0.100366 0.50786018
0.1197186 -0.087211847 0.50443792
0.1187923 -0.1329031 0.50588322
0.105693 -0.00045537949 0.50497472
0.067166083 0.01400992 0.54173511
0.1230619 0.0098840594 0.51151758
0.066259108 0.0073263049 0.52747321
0.057240259 0.0149622 0.61487591
0.041839082 0.01035315 0.59779477
0.07201463 -0.0306271 0.49253649
0.086448722 -0.055941079 0.49847841
0.09396559 -0.1012622 0.50177169
0.1058851 -0.2330019 0.50129002
0.092942446 -0.083292574 0.50367647
0.1059241 -0.23599119 0.50345021
0.01059192 -0.038930152 0.48156711
0.126736 -0.14588439 0.50919467
0.1225626 -0.1851365 0.51141089
0.083417334 -0.03566188 0.49867621
0.058820158 -0.065530092 0.49737161
0.1094363 -0.26287809 0.50054938
0.1255919 -0.033617381 0.51384097
0.067162633 -0.02226047 0.4954558
-0.05539823 0.017976761 0.59568739
-0.054420229 0.0145613 0.58375162
-0.032094371 0.01234099 0.48054531
-0.04060366 0.0144223 0.5486654
0.01206739 0.01314661 0.54776001
-0.039637189 0.01517954 0.58619058
-0.02734194 0.01625267 0.53154749
0.02123975 0.0041922028 0.64683503
0.056410071 -0.1051562 0.48682001
0.1127185 -0.21755859 0.50214982
0.060027141 -0.003287941 0.4900088
0.028630041 -0.04986462 0.48325229
0.1288123 -0.2500031 0.50993001
0.1234935 -0.2458868 0.50943542
0.076782249 -0.0448162 0.4984124
-0.029764671 0.01030982 0.51256502
-0.1026977 0.01111895 0.64106822
-0.097060539 0.0081793666 0.51264852
0.1208816 -0.069593906 0.50901872
0.1241926 -0.27430549 0.51646757
0.1626682 -0.27414829 0.55787039
0.070690051 -0.0099915862 0.49144411
0.05413888 -0.15432569 0.48426011
-0.01100862 0.01424715 0.47896281
-0.069062687 -0.1696609 0.45175111
-0.065328307 -0.04889119 0.4587281
-0.069489107 -0.064900897 0.45503229
-0.058579139 -0.075368732 0.45740759
0.1019733 0.01271483 0.52089858
-0.058892019 -0.04809713 0.4580659
-0.061843172 -0.2084716 0.4506301
0.13053779 -0.26950791 0.50741923
0.056483619 0.01349247 0.55354339
-0.060763389 -0.033696141 0.45559651
0.086825207 0.01424171 0.54446173
0.06215262 0.01412785 0.52839822
-0.076656222 -0.2604683 0.45065191
-0.058027931 -0.05695796 0.457086
-0.063535683 -0.081615657 0.4562892
0.096317291 0.01294971 0.51894742
-0.066925272 -0.1028398 0.45034871
-0.079759277 0.01772943 0.63501132
0.07913363 0.01415022 0.584077
0.084769852 0.01141912 0.64647001
0.1163809 2.682209e-06 0.50577182
0.089313492 -0.041270819 0.50267488
0.079222172 -0.019090589 0.49991339
0.001540981 0.01407468 0.64633918
-0.1087835 0.017219311 0.57191008
0.01244867 0.01536787 0.52307582
0.064293981 0.017181691 0.53580451
0.08183454 -0.037540171 0.4999443
-0.06419912 -0.17229541 0.45184681
0.08212626 -0.054052468 0.49521771
-0.02217993 -0.087444067 0.46439949
-0.0123124 -0.24925371 0.463144
-0.042998709 -0.02154729 0.4604297
-0.03333471 -0.18280131 0.46160549
0.07421419 -0.01264215 0.50154841
-0.05034918 0.01884282 0.62657791
-0.071740568 -0.25439131 0.45286021
-0.00092627481 -0.2548261 0.46696261
-0.041964982 0.01200089 0.60860562
0.01349959 0.01770648 0.5354619
0.075465888 -0.02705067 0.49375871
0.044711221 0.01307379 0.58807319
0.02619675 0.002892822 0.47970659
-0.096960247 0.01534393 0.53310198
0.2410962 -0.27361861 0.34913629
0.02735758 0.005471915 0.4818438
0.1017132 0.00016090269 0.4996084
0.065610044 0.018639451 0.59143102
0.1063031 -0.0078315437 0.50290972
0.087172911 -0.053797271 0.4985778
0.1011163 -0.042612638 0.4989996
-0.04105185 0.0149786 0.471185
0.063847274 -0.01624638 0.49378651
-0.060609311 0.007042706 0.5107072
0.067984588 -0.069718033 0.49445039
0.1167066 -0.022664551 0.51489288
0.1205036 -0.071376413 0.51120949
0.045631461 0.01809025 0.64719683
-0.082586654 -0.064954728 0.453284
-0.1003823 0.01349279 0.63127601
0.077130087 -0.04726005 0.4975965
-0.043246049 -0.23022041 0.4529582
0.050624941 -0.2329389 0.4812586
-0.064705297 -0.27205551 0.44014081
-0.091011807 0.0108403 0.53548658
0.005026767 0.01613557 0.57225168
-0.061125681 0.01355276 0.51932287
0.1058728 0.002701879 0.50497711
0.094190657 0.02033468 0.5341332
0.12647989 -0.01455337 0.50818902
-0.087069929 0.01443222 0.61533481
-0.05311818 0.018231871 0.56874001
-0.066305988 -0.035624709 0.45396081
-0.091457859 0.01586977 0.64007878
-0.07380788 0.01284984 0.49708179
-0.065144047 -0.15509561 0.45020321
-0.03534491 0.01239417 0.46117881
-0.05837265 0.01346429 0.56401569
0.041373249 0.01446977 0.4869417
0.043813519 0.0047807102 0.48912469
0.0041818731 0.01751003 0.59040213
0.13320699 -0.100872 0.51029432
0.01506909 0.01677723 0.4918046
-0.069522113 0.01093255 0.5145337
-0.082792781 0.01023234 0.58373928
-0.029752349 0.016948741 0.47247329
-0.072167397 -0.031521499 0.45114371
-0.083200842 -0.2414854 0.462006
-0.083769374 -0.02013555 0.45176339
-0.059013069 0.001634747 0.45798051
-0.035992019 -0.06121555 0.46614861
-0.092119373 0.01147424 0.50281233
-0.075376302 -0.040312681 0.44861501
-0.082102552 -0.055794779 0.45463711
-0.079563871 0.01391561 0.59442592
-0.070844427 -0.01742414 0.45073691
-0.036704089 0.01729575 0.50804102
-0.076733381 -0.02314228 0.4489871
0.21728361 -0.26951161 0.53361958
0.099847473 -0.26290929 0.36306909
-0.078165479 0.01383503 0.44856569
-0.077174708 0.01726073 0.51869851
-0.050329011 -0.04866511 0.45986471
0.097488753 0.003015876 0.50696093
-0.06734442 -0.15094879 0.4534027
0.080534913 0.01687303 0.56153393
-0.1261086 0.0080082417 0.6137501
-0.1337216 -0.1606001 0.63183999
-0.1155899 -0.012016 0.57265031
-0.1039503 -0.018744141 0.53845918
-0.1123607 -0.018470179 0.55598098
-0.1147176 0.0073045492 0.56808192
-0.1314186 -0.039003611 0.6221627
-0.1326119 -0.051710311 0.64711159
-0.119934 -0.045764681 0.58174419
-0.1359992 -0.097301133 0.63940859
-0.1362232 -0.080881707 0.64093399
-0.1166511 -0.03024435 0.57425678
-0.096501648 0.01297635 0.60263419
0.049501959 0.01521063 0.63912672
-0.139182 -0.052381068 0.6332258
-0.13118529 0.0048205699 0.6291492
-0.1215742 -0.068781883 0.59708482
-0.1029059 -0.1360957 0.53217942
-0.1003741 -0.13995139 0.52574331
-0.1262996 -0.067603983 0.60146707
-0.094691813 -0.063936964 0.51629359
-0.091484644 -0.0065658991 0.48116919
-0.1156191 -0.038122401 0.57479548
-0.1078417 -0.03506327 0.52734917
-0.1296026 -0.16079371 0.60517418
-0.1317312 -0.089237623 0.61761278
-0.099505961 -0.059390631 0.51643348
-0.13780139 -0.16395999 0.64510071
-0.12887581 -0.1515781 0.60136408
-0.1357815 -0.1626914 0.62727112
-0.1071244 -0.036431029 0.53610033
-0.12910131 -0.2226017 0.57360959
-0.1186791 -0.15577009 0.55511588
-0.1110651 -0.1194632 0.5562343
-0.1224136 -0.13827281 0.57895893
-0.1335711 -0.1960627 0.61812758
-0.1231628 -0.2285773 0.57211697
-0.1106409 -0.056350421 0.55345571
-0.089291573 -0.019032691 0.47266069
-0.103198 -0.045826759 0.5245384
-0.1303709 -0.13542239 0.63533968
-0.099744737 -0.076504201 0.5009371
-0.1073141 -0.059575289 0.533216
-0.1198195 -0.20258079 0.56979299
-0.1032451 -0.02379078 0.5357635
-0.12908369 -0.07973063 0.59982419
-0.1260419 -0.21232229 0.58541548
-0.14089151 -0.2105999 0.64270061
-0.1237193 -0.1077457 0.57887632
-0.12925319 -0.040942948 0.61551863
-0.083230138 -0.001280621 0.4633173
-0.1104161 -0.01500037 0.5668878
-0.1026922 -0.026233289 0.52615649
-0.1384789 -0.2367719 0.63089561
-0.097908847 -0.04382515 0.51336408
-0.084839582 -0.02298245 0.4690195
-0.1113705 -0.1077658 0.54685372
-0.1161597 -0.25840679 0.53982139
-0.1199739 -0.0032589729 0.58217603
-0.1269877 -0.08564575 0.59406149
-0.1087288 -0.1289345 0.54457968
-0.13035519 -0.2084682 0.60151601
-0.13855051 -0.078306079 0.64784431
-0.1174745 -0.1689086 0.55708063
-0.096828878 -0.020358739 0.50318623
-0.088386707 -0.022217119 0.4734084
-0.112362 -0.054341521 0.5496403
-0.13596749 -0.2417952 0.61376238
0.080480397 0.018636329 0.54385352
-0.091801763 -0.065086193 0.4735373
-0.1250042 -0.056785882 0.59169108
-0.1357961 -0.078801267 0.6318624
-0.1144176 -0.2330962 0.54873133
-0.1251601 0.0056596701 0.60342568
-0.090877064 0.00282827 0.48663971
0.041092131 0.01313095 0.56473708
-0.1094453 -0.1724581 0.54763043
-0.043259442 0.01354842 0.55813038
-0.1206258 -0.1768751 0.57199663
-0.13655031 -0.2336351 0.62663418
-0.1318453 -0.060795128 0.63631082
-0.1109864 -0.1637224 0.5475114
-0.14042699 -0.2125264 0.64054722
-0.1328073 -0.081980027 0.62640989
-0.1172256 -0.1207215 0.57266003
-0.1045235 -0.049347039 0.52759612
-0.12765279 -0.06704098 0.6149323
-0.088849373 -0.068016052 0.4781841
-0.08647278 0.00059008598 0.4691872
-0.085988581 -0.000358969 0.47225109
-0.083550163 0.01338327 0.57841402
-0.1292363 0.01568839 0.62807298
-0.1308841 -0.084716603 0.61525702
-0.098686099 -0.01455095 0.51493979
-0.094789617 0.01119976 0.58912748
-0.1218076 -0.043127421 0.60692829
-0.11583 -0.03751649 0.57112062
-0.1149436 0.006318077 0.56602019
-0.1361409 -0.079355031 0.63183308
-0.1220109 -0.1817414 0.57481748
-0.1347494 -0.1876794 0.6157254
-0.1308036 -0.073813692 0.62032932
-0.1417046 -0.1538289 0.64233953
-0.1121183 0.0082859397 0.60914338
-0.1395649 -0.1798142 0.64388871
-0.1272061 -0.04027259 0.6005649
-0.1228691 -0.1722374 0.57681388
-0.13141631 -0.1547619 0.61816221
-0.13050561 -0.15772501 0.59254408
-0.04486626 0.01659864 0.63022321
-0.03326112 0.01363893 0.60607833
0.023702141 0.01399162 0.50036412
-0.091476262 -0.0081447661 0.4790493
-0.043505792 0.01180242 0.61548358
-0.13142011 -0.1863392 0.60409188
-0.1359137 -0.17394219 0.63527912
-0.1292053 -0.081862263 0.60975212
-0.13672221 -0.196532 0.63727027
-0.1266602 -0.16775499 0.60049629
-0.1041372 -0.075235464 0.52657098
-0.112627 -0.1353299 0.54901838
-0.094055407 0.01534696 0.52615982
-0.1227163 -0.1924246 0.56975979
-0.1364214 -0.01094329 0.63897222
-0.1367051 -0.1910588 0.62412179
-0.13397931 -0.028903039 0.63629073
-0.1358514 -0.058075339 0.6155014
-0.1268528 -0.057923321 0.61303067
-0.1381779 -0.24815939 0.63694668
0.063775778 0.01014392 0.52379471
-0.087229073 -0.00054508448 0.4635506
0.076650321 0.01457864 0.63776273
0.065755673 0.01763262 0.62765002
0.038072292 0.01438609 0.60882813
-0.032971859 0.01772256 0.63390732
-0.1274257 0.01271641 0.64687282
-0.048674401 0.01408075 0.55542982
-0.1146027 -0.071342438 0.58483231
-0.1145362 0.01627731 0.61133581
-0.119232 -0.23230439 0.54957879
-0.1244707 -0.089637823 0.59622842
-0.12759531 0.018141789 0.62094837
-0.1118739 -0.036100831 0.55314869
-0.085321717 0.01729277 0.63552648
-0.1210403 -0.1175546 0.56688821
-0.04929674 0.01047479 0.54726708
-0.1031505 -0.057441618 0.50665259
-0.094553292 -0.0083068609 0.4957476
-0.1182438 -0.043975171 0.56819117
-0.1290345 -0.01591265 0.62343758
-0.1166596 0.00074216718 0.57673079
-0.129054 -0.23779669 0.58442229
-0.12741239 -0.1235653 0.61065078
-0.1224971 -0.0066453218 0.59155673
-0.125701 -0.1888781 0.58363581
-0.13245641 -0.0049512978 0.63532972
-0.1028313 -0.01323003 0.52377838
-0.1471898 -0.27914751 0.64615542
-0.122689 0.01518193 0.64909959
-0.1115334 0.01543008 0.55132067
0.069762662 0.01563096 0.54149401
-0.15126289 -0.23918509 0.64381909
-0.08921209 0.018189341 0.60905743
-0.032204669 0.016098199 0.4750365
0.055891391 0.0139105 0.55333662
-0.027569231 0.0135515 0.53017151
0.080523431 0.01525134 0.64860988
0.071562313 0.01314571 0.56376332
0.067041278 0.01525384 0.5046491
-0.12718441 0.01579514 0.62931579
0.02307748 0.01571795 0.53104979
-0.1297784 0.0137386 0.61763752
0.026591569 0.016805651 0.64941311
-0.045754541 0.017086361 0.61560887
-0.092004821 0.01357409 0.6387307
-0.109327 0.01256086 0.55589402
-0.091260053 0.020940959 0.49250501
-0.089183807 0.01077726 0.47675079
-0.1066 0.016728669 0.5239805
0.084082738 0.018215541 0.52834779
0.041188799 0.015874861 0.63031977
0.09025418 0.01562169 0.5451892
0.053578131 0.01639265 0.61673909
-0.058057439 0.01482317 0.60695571
-0.01242345 0.017169559 0.48446789
0.033772361 0.016240509 0.50142288
-0.062588207 0.01507244 0.50545192
-0.046278652 0.020111989 0.5144304
-0.1355494 0.01486236 0.64030951
-0.054084919 0.01377892 0.62297142
-0.044523261 0.01994675 0.60666132
0.0115824 0.02935335 0.51308519
-0.02736803 0.008094579 0.55116743
-0.04624318 0.017032981 0.54111201
0.092611663 0.01338723 0.60862648
0.056183901 0.01546386 0.5803805
-0.080147572 0.01684585 0.55527413
-0.098276697 0.019579619 0.58684438
-0.060626671 0.0090821087 0.51191872
0.059188008 0.01882145 0.64340621
-0.1169741 0.01949963 0.58114648
-0.1090828 0.02136394 0.57833612
0.04316723 0.016515249 0.64556158
0.1052659 0.01999617 0.60339189
0.077214018 0.01495901 0.55999988
-0.048091289 0.017701389 0.627321
0.065841258 0.0073165889 0.5474906
0.064663619 0.01873764 0.52663678
0.0580923 0.0209119 0.5084163
0.078232713 0.01674098 0.56941092
-0.067386903 0.016848059 0.46493229
-0.01120752 0.020303819 0.47565049
0.061459731 0.01603988 0.53578568
-0.037305441 0.0148434 0.61163652
0.096572518 0.01302725 0.5967257
0.082714863 0.0096691549 0.59247601
-0.1194454 0.019380299 0.6025182
-0.067435093 0.0150432 0.49754721
0.067033529 0.01462159 0.64195073
0.076587021 0.002887368 0.49804929
-0.079478912 0.01576391 0.46698219
-0.030608241 0.0196175 0.46986541
-0.01638845 0.01924229 0.50175017
0.077317178 0.017271491 0.58639407
-0.075309627 0.02092034 0.4614898
0.1029817 0.01516527 0.52019781
-0.070803851 0.01732862 0.513174
-0.091678977 0.01915005 0.62347192
-0.095883973 0.01443776 0.61323249
-0.016429311 0.01339883 0.51384139
0.04132849 0.01789582 0.59868687
0.081449687 0.0202474 0.64606369
-0.02650729 0.017582949 0.53373653
0.002933264 0.018098179 0.4832212
-0.088032991 0.01703709 0.4779788
0.049250741 0.018015681 0.62808359
-0.12804779 0.018742351 0.61361498
-0.022284809 0.017762089 0.51625162
-0.083539337 0.01316565 0.50212008
-0.1028591 0.01655677 0.64794171
-0.052822761 0.019721059 0.53581232
-0.025019011 0.01375094 0.54292488
-0.08287549 0.01589286 0.57818508
-0.044141412 0.01942566 0.59714937
-0.075647779 0.01531592 0.4965829
-0.030843491 0.0157809 0.56230992
-0.042160101 0.016841739 0.5578689
-0.047821108 0.017411379 0.54673171
-0.03720279 0.01348257 0.56835842
-0.043481011 0.02447411 0.4636766
0.071020067 0.01907617 0.54784149
-0.052143369 0.01554745 0.58260179
-0.0512104 0.016591011 0.56451052
-0.1013297 0.0211516 0.54604542
-0.038588461 0.021948781 0.59590262
-0.092937857 0.01505324 0.52147079
-0.1025274 0.017510951 0.53769648
-0.076616123 0.01901209 0.56923842
0.040087368 0.01511061 0.58619767
0.1099802 0.020340409 0.52046019
-0.062531628 0.01501513 0.57102323
-0.031853739 0.020047219 0.55247879
-0.1305691 0.01799858 0.64296383
-0.076312616 0.017287189 0.61835033
0.068355553 0.020481439 0.56997138
-0.001836598 0.018540051 0.4964008
-0.058788151 0.0085711479 0.50972068
0.07215818 0.01358202 0.61402792
-0.054938242 0.01351166 0.60469079
-0.0383242 0.02182686 0.44503689
0.08733663 0.021932511 0.55179799
-0.083494782 0.018483549 0.52056652
0.045880489 0.0174351 0.61185151
0.06609761 0.018655449 0.63232398
-0.067109831 0.01621655 0.53684372
0.092718117 0.01911157 0.52338451
0.047949139 0.01370445 0.57697022
0.074980728 0.0078797936 0.6438942
0.04971173 0.01681626 0.51574188
-0.130968 0.017925739 0.63157582
-0.071056567 0.01259595 0.52291548
-0.040791512 0.020121399 0.61836487
0.0980184 0.01572481 0.56629151
0.1083409 0.017925801 0.55583477
-0.1109632 0.0152556 0.63649642
0.069445871 0.016777551 0.59718251
-0.117428 0.02105296 0.56217992
0.04655518 0.0142006 0.47710559
0.076186441 0.01431254 0.51529461
0.088160299 0.016155871 0.57389277
0.097999148 -0.002430737 0.51463741
0.100402 0.01700124 0.50163531
-0.065679669 0.0086470842 0.55765349
-0.090619422 0.01241109 0.58729362
-0.02171313 0.01400712 0.56490868
