# .PCD v0.7 - Point Cloud Data file format
VERSION 0.7
FIELDS x y z normal_x normal_y normal_z curvature
SIZE 4 4 4 4 4 4 4
TYPE F F F F F F F
COUNT 1 1 1 1 1 1 1
WIDTH 588
HEIGHT 1
VIEWPOINT 0 0 0 1 0 0 0
POINTS 588
DATA ascii
-0.15414116 -0.2922475 0.49481153 -0.00018501126 -0.99497145 0.10015911 0.084288836
-0.1457337 -0.2922475 0.49136651 -0.086105369 -0.98851204 0.12421674 0.12593976
-0.094342694 -0.2911621 0.49618378 -0.14526339 -0.98617661 -0.079713583 0.14335419
-0.086942405 -0.29154569 0.494984 -0.14265376 -0.98620695 -0.083939478 0.13315728
-0.074727833 -0.2922475 0.49683234 -0.07283698 -0.99382275 -0.083732501 0.11940271
-0.066348702 -0.2922475 0.4992398 -0.14693798 -0.97913134 -0.14039612 0.11971467
-0.0059151351 -0.2922475 0.4973577 -0.0018115478 -0.98672801 -0.16237168 0.053119931
0.00639081 -0.2922475 0.49032789 -0.016934469 -0.98061186 -0.19522703 0.060468324
0.01506909 -0.2922475 0.4918046 -0.023610532 -0.98426855 -0.1750944 0.055688564
0.033237744 -0.2922475 0.49148169 -0.018901875 -0.99308676 -0.11585101 0.033392631
0.040121641 -0.2922475 0.49167171 -0.016338134 -0.99643952 -0.082712717 0.025581932
0.054180581 -0.2922475 0.49455869 0.037153885 -0.9916442 -0.12353699 0.045443356
0.065655559 -0.2922475 0.4948172 0.056864165 -0.99358994 -0.09770117 0.036372952
0.074755296 -0.2922475 0.49556863 0.065616347 -0.99485946 -0.077130929 0.033203695
0.08339294 -0.2922475 0.49788913 0.065289773 -0.99485087 -0.077517852 0.034525037
0.096691757 -0.2922475 0.49922931 0.12459849 -0.98111457 -0.14795065 0.063848995
0.10141475 -0.2922475 0.499304 0.13975075 -0.9757567 -0.16842975 0.077865072
-0.086617887 -0.2223002 0.49354509 -0.92930824 -0.061917938 -0.3640776 0.095464163
-0.090017572 -0.1972468 0.49815685 -0.94968545 -0.062485889 -0.30690891 0.10639717
-0.089497738 -0.18160024 0.49484622 -0.95379698 -0.14086702 -0.26538232 0.12670518
-0.09020067 -0.16694233 0.49831191 -0.96693391 -0.11328844 -0.22848324 0.13127415
-0.088968687 -0.16177693 0.49378523 -0.95059025 -0.26890877 -0.15513314 0.14219977
-0.089640036 -0.15416035 0.49991328 -0.94847286 -0.26848999 -0.1682632 0.1949569
-0.089053504 -0.14269114 0.4992502 -0.96355754 -0.18550298 -0.19273199 0.12450477
-0.09938845 -0.1332172 0.49639589 -0.98239076 -0.065928482 -0.17481974 0.10166541
0.068403043 -0.090087362 0.49759024 0.27431709 -0.033593386 -0.96105236 0.004401891
0.065959394 -0.089528732 0.49717483 0.26715752 -0.02657225 -0.96328646 0.0038645002
0.081192896 -0.084557727 0.49884805 0.27995506 -0.017989039 -0.95984459 0.005277093
0.068114698 -0.073021591 0.49625376 0.26224166 0.00048570495 -0.96500212 0.0034827061
0.073463447 -0.072608985 0.49697903 0.27277619 0.0057645198 -0.96206027 0.0036256884
0.080881521 -0.07211028 0.49824381 0.27930135 -0.0039457073 -0.96019542 0.004226374
0.045854144 -0.064720362 0.49001378 0.24668126 -0.0051793503 -0.96908283 0.00096623879
0.059746969 -0.0650497 0.49409935 0.26662385 0.018657088 -0.96362007 0.0013989367
0.06708917 -0.068659849 0.49565709 0.27174053 0.0114986 -0.96230191 0.0030899243
0.071362145 -0.065514304 0.49636576 0.27459273 0.01731424 -0.96140474 0.0037933562
0.054606497 -0.053061094 0.49378121 0.29392612 0.16082992 -0.94220018 0.029655183
0.064989798 -0.052555304 0.4955627 0.30659947 0.19192131 -0.93228912 0.034547862
0.085328721 -0.05432751 0.49894637 0.30522597 0.14326899 -0.941441 0.02221336
0.077141538 -0.046082474 0.49733019 0.33045182 0.25068969 -0.90992111 0.050668444
0.089529753 -0.041170042 0.49980125 0.35139042 0.27430937 -0.89514196 0.061372828
0.070816174 -0.030846501 0.49521554 0.32060942 0.37080145 -0.87161684 0.082416691
0.082745403 -0.036609426 0.49874544 0.34880748 0.31640735 -0.88216764 0.071699828
0.052494731 -0.023524806 0.49103013 0.29041576 0.42016894 -0.85971898 0.079072326
0.067302331 -0.022078354 0.49493316 0.32542148 0.43633643 -0.83887511 0.088179208
0.073778234 -0.02743254 0.49662387 0.33664417 0.39519501 -0.85468805 0.088755086
-0.088701218 -0.018038858 0.49052864 -0.82993454 0.48644039 -0.27310151 0.15572378
0.057225101 -0.013345226 0.49084726 0.3030279 0.4640342 -0.83237392 0.085126847
0.066198014 -0.013377041 0.49475509 0.32149059 0.47595131 -0.81860501 0.093073696
0.075742781 -0.015716827 0.49906301 0.32750908 0.47629607 -0.81601459 0.10091248
-0.090178102 -0.008272741 0.49655506 -0.79568088 0.5604434 -0.22977215 0.13888848
-0.089805238 -0.0058020568 0.49402195 -0.76963961 0.58969498 -0.244775 0.14563273
0.059125181 -0.0033707689 0.49228871 0.28878456 0.55515963 -0.78000087 0.089899816
-0.088444665 0.0076490608 0.49863958 -0.58448023 0.79184705 -0.17709069 0.12561381
-0.075131863 0.0096641192 0.49746621 -0.4495692 0.86625403 -0.21792561 0.13583089
-0.0672957 0.011378527 0.49894205 -0.38671851 0.90035915 -0.19950488 0.1338879
-0.0057041324 0.015389847 0.49775887 0.11855463 0.96705937 -0.22525772 0.069465563
0.014963441 0.016232479 0.49192518 0.17620896 0.87838221 -0.44429171 0.083154917
0.030534197 0.015823524 0.49969029 0.15171954 0.87657988 -0.45671543 0.078826591
-0.087386921 -0.29153922 0.50481063 -0.11316137 -0.99195844 -0.056683294 0.11456875
-0.064503662 -0.2922475 0.50489998 -0.18563105 -0.97079062 -0.15200877 0.10742464
-0.058788151 -0.2922475 0.50972068 -0.18859482 -0.96749842 -0.16846029 0.09553089
-0.043712251 -0.2922475 0.50576347 -0.099009782 -0.97551101 -0.19640648 0.092034191
-0.037318945 -0.2922475 0.50443733 -0.042057827 -0.98099118 -0.18943991 0.072797917
-0.016923441 -0.2922475 0.50057489 0.02255455 -0.983531 -0.17932712 0.060494676
0.01053572 -0.2922475 0.50773531 -0.023579666 -0.99257839 -0.11929852 0.03826255
0.023702141 -0.2922475 0.50036412 -0.020367106 -0.99578726 -0.089402847 0.029266834
0.032132708 -0.2922475 0.50072515 -0.020766512 -0.99612916 -0.085413583 0.026751813
0.068152875 -0.2922475 0.50164074 0.050500665 -0.99532855 -0.082285568 0.034122676
0.074225627 -0.2922475 0.50233042 0.061119955 -0.9957121 -0.069439255 0.032153681
0.086991683 -0.2922475 0.5029068 0.098461136 -0.98720497 -0.12542632 0.058057494
0.09479893 -0.2922475 0.50413638 0.11822054 -0.98328525 -0.13847062 0.070810579
0.10587375 -0.2921986 0.50331986 0.1352751 -0.97850835 -0.15563452 0.084360734
0.11697075 -0.2922079 0.50533497 0.15150385 -0.97145402 -0.18254797 0.099878266
0.13053699 -0.29228172 0.50741971 0.17276475 -0.9573642 -0.23153012 0.13265294
-0.095421985 -0.2881093 0.5067147 -0.15089604 -0.98767686 -0.041530427 0.12049411
-0.097743876 -0.27476877 0.50924659 -0.39584702 -0.91358286 -0.093121104 0.17140101
0.13053779 -0.26950791 0.50741923 0.18778768 -0.93819302 -0.29074004 0.14902194
-0.094659239 -0.23302141 0.50266123 -0.93623757 -0.11764045 -0.33108899 0.085800529
0.1059046 -0.23449655 0.50237012 0.21529694 -0.66233122 -0.71761036 0.15466879
0.1127185 -0.21755859 0.50214982 0.40170735 -0.018870231 -0.91557366 0.020560645
-0.092041187 -0.16663183 0.50425059 -0.96307319 -0.097471245 -0.25097689 0.11513596
0.12823358 -0.14462234 0.50921851 0.45054236 -0.0052594901 -0.89273959 0.021672793
-0.088740997 -0.1311744 0.50053221 -0.97631943 -0.068080515 -0.20534222 0.10075652
0.093811721 -0.10115641 0.5009762 0.3444435 -0.047056332 -0.93762702 0.035026118
0.11430718 -0.10116113 0.5050391 0.49791077 0.03823448 -0.86638504 0.07941325
0.12386817 -0.10039032 0.50784212 0.67861593 0.16413584 -0.71591896 0.10682716
0.088182196 -0.093773596 0.50014609 0.3334164 -0.030731276 -0.94227868 0.02673951
0.12518431 -0.095977731 0.50845122 0.67861593 0.16413584 -0.71591896 0.10682716
0.093409397 -0.08368019 0.50097001 0.32892296 -0.027166715 -0.94396597 0.026778216
0.10042096 -0.08756876 0.50256419 0.34613702 -0.030740891 -0.93768018 0.031049395
0.11856224 -0.087577254 0.50749785 0.52431542 0.00049865065 -0.851524 0.093703292
0.12013137 -0.073687226 0.50965846 0.42101112 -0.029827697 -0.90656495 0.050774306
-0.10025641 -0.060976982 0.5063836 -0.96154809 0.062415984 -0.26745015 0.049758259
0.095703878 -0.067588836 0.50125945 0.32329771 -0.02190765 -0.94604373 0.021981863
0.12081148 -0.069585867 0.50900429 0.41532502 -0.028854737 -0.90921533 0.046612434
-0.10145147 -0.057669975 0.50616312 -0.96085221 0.098836519 -0.25883287 0.059138685
0.10064106 -0.042761091 0.50202918 0.33940896 0.24841098 -0.90724504 0.047080502
-0.092381202 -0.030151488 0.50688529 -0.91039306 0.32715377 -0.25328818 0.094310164
-0.092826426 -0.017235899 0.50537562 -0.81550628 0.52796173 -0.23707797 0.11651076
0.078166589 -0.017203357 0.50016677 0.32909939 0.46852049 -0.81986719 0.10168368
0.12381016 -0.013579261 0.50876129 0.41695967 0.44791299 -0.79089731 0.11259881
-0.062399458 -7.7819008e-05 0.50271398 -0.45204285 0.85083443 -0.26783976 0.14190242
0.077174731 -0.0096220318 0.50100774 0.31137186 0.53371775 -0.7862525 0.10632465
0.086453386 -0.002863562 0.50625175 0.33967713 0.59952283 -0.72470129 0.12016005
0.10702211 -0.0017813694 0.50672829 0.40686056 0.57305861 -0.71138483 0.12980367
0.11557833 -0.00043762816 0.50877982 0.50810987 0.61729509 -0.60064232 0.13647939
-0.09117347 0.0091517325 0.50421083 -0.61077601 0.77640867 -0.15537778 0.11862046
0.096960843 0.0041000447 0.5086025 0.38286555 0.6621474 -0.64418536 0.12665899
0.10502782 0.00089720963 0.506805 0.419121 0.61290634 -0.66983843 0.12442577
-0.08434467 0.011936061 0.50588155 -0.50823092 0.84667474 -0.15761739 0.10986978
-0.061463527 0.010929331 0.50743103 -0.31040153 0.92835897 -0.20445162 0.1081821
-0.043732949 0.013898044 0.50644809 -0.13750771 0.97204578 -0.19031192 0.084902406
-0.037770458 0.014966112 0.50461388 -0.1025586 0.97444195 -0.19986141 0.079999357
-0.016248826 0.014234093 0.50049275 0.091867611 0.97521526 -0.20128506 0.064483084
0.010147026 0.019122206 0.50799805 0.095265634 0.96784294 -0.23281875 0.061167084
0.024330921 0.01561888 0.50035363 0.15062656 0.88500482 -0.44054309 0.08261741
0.032101281 0.014542554 0.50080675 0.14269832 0.87513137 -0.46236601 0.078053832
0.071523778 0.018600531 0.50828516 0.23280312 0.8180114 -0.52598476 0.10506599
0.068474531 0.03326172 0.50010252 0.17155251 0.90400445 -0.39159387 0.073601104
-0.10550325 -0.29062408 0.51539475 -0.25141731 -0.96784526 0.0080549167 0.11112407
-0.095564976 -0.29101148 0.51598287 -0.21754447 -0.97599041 -0.010823038 0.093490981
-0.087100752 -0.29164782 0.51508743 -0.20522673 -0.97775185 -0.043397255 0.09555956
-0.074043743 -0.2922475 0.51533687 -0.26567566 -0.95610368 -0.12362138 0.090116486
-0.063096225 -0.2922475 0.51416171 -0.22906467 -0.96419537 -0.13362916 0.084401973
-0.046278652 -0.2922475 0.5144304 -0.093993939 -0.98721445 -0.12873517 0.069987267
-0.026722351 -0.2922475 0.51234174 -0.0018018075 -0.99222243 -0.12446437 0.046906155
-0.015984936 -0.2922475 0.513973 0.0084887771 -0.99350876 -0.11343845 0.040686965
0.002812773 -0.2922475 0.51152098 -0.018990593 -0.99070597 -0.1346889 0.041785508
0.0115824 -0.2922475 0.51308519 -0.0097817127 -0.99662232 -0.081537373 0.025330018
0.04971173 -0.2922475 0.51574188 -0.016199583 -0.99844307 -0.053376175 0.01721335
0.063353769 -0.2922475 0.51050138 0.046708521 -0.99627602 -0.072473608 0.030183127
0.073616244 -0.2922475 0.51370394 0.053794589 -0.99698293 -0.055957716 0.026358489
0.085492887 -0.2922475 0.51475137 0.060777877 -0.99600524 -0.065419279 0.031351831
0.097157151 -0.2921803 0.51679242 0.097961619 -0.98976201 -0.10380187 0.06134519
0.10131642 -0.29211488 0.51825356 0.10104898 -0.98940378 -0.10425577 0.062958032
0.11633015 -0.29094535 0.51265484 0.14085908 -0.97842401 -0.15114632 0.090668999
0.12323431 -0.29137367 0.51168621 0.14724623 -0.97185713 -0.18388116 0.11096939
0.13345668 -0.29226139 0.51421452 0.15711626 -0.96457517 -0.21191818 0.13012311
0.1467361 -0.2922475 0.51736689 0.11327756 -0.97971684 -0.16529714 0.11347144
0.12250236 -0.27379361 0.51471353 0.14366256 -0.97395366 -0.17542897 0.10972218
-0.096540429 -0.255658 0.51758116 -0.92705357 -0.27642012 -0.25330532 0.13645925
-0.096185595 -0.24974811 0.51796222 -0.94254935 -0.1972938 -0.26958469 0.1137882
-0.096123807 -0.22558101 0.5172199 -0.94579035 -0.082805358 -0.31404454 0.032297213
-0.096392654 -0.19694385 0.51864624 -0.95541114 0.018915005 -0.29467243 0.03451227
-0.094175562 -0.18707414 0.51180506 -0.95851231 0.0083802007 -0.28492802 0.065618277
-0.096184105 -0.16452804 0.51663625 -0.96289241 -0.028337998 -0.26839378 0.063635662
0.13252926 -0.10011445 0.51229697 0.70821285 0.18550792 -0.68119121 0.11477337
0.1467361 -0.1046985 0.51736689 0.90518141 0.34929514 -0.24215598 0.10909941
0.12017973 -0.071338437 0.51114392 0.48679686 -0.038363982 -0.87267232 0.067612559
-0.099474192 -0.062868036 0.51732928 -0.95935673 0.058909662 -0.27597907 0.029781828
-0.099349484 -0.05919271 0.51650107 -0.95689017 0.099409133 -0.27290863 0.035512332
-0.097348854 -0.044031069 0.51396704 -0.94624937 0.19705141 -0.25648174 0.067004949
0.1255919 -0.033617381 0.51384097 0.47996894 0.23459381 -0.84533757 0.065786339
-0.095468976 -0.026043914 0.51440746 -0.88564539 0.38884878 -0.25382826 0.08924339
0.11685579 -0.022598179 0.51520222 0.50487405 0.41321194 -0.75786418 0.10439733
-0.098819822 -0.015395898 0.51512206 -0.84287316 0.49501559 -0.21100816 0.091318935
-0.060762148 0.00294537 0.51768261 -0.37987527 0.90044433 -0.21188399 0.11013173
0.12328462 0.0082229581 0.51313639 0.39187703 0.69512653 -0.602687 0.14164023
-0.10957425 0.011185935 0.51582646 -0.8419044 0.52444398 -0.12710421 0.083221897
-0.098135255 0.011584559 0.51214135 -0.66959608 0.72814727 -0.1464334 0.095899642
-0.08285547 0.013050687 0.51957089 -0.55172443 0.82012224 -0.15165648 0.090387404
-0.075116992 0.01234876 0.51519883 -0.47874692 0.86275434 -0.16265413 0.092629969
-0.063645072 0.010913245 0.513506 -0.36170879 0.91457087 -0.18090567 0.098342948
-0.04546237 0.01314217 0.51397967 -0.16422358 0.97718859 -0.13465932 0.073147796
-0.026550271 0.014210992 0.51264042 -0.012473589 0.98962909 -0.14310381 0.05868696
-0.016329559 0.014356067 0.51388842 0.087819733 0.98731744 -0.13225719 0.049331613
0.0021112496 0.01786623 0.51219958 0.067357436 0.97830087 -0.19593473 0.058960292
0.049735714 0.016971368 0.515742 0.12585708 0.90314442 -0.41047564 0.077992812
0.063457996 0.015896378 0.51060349 0.2220161 0.83877289 -0.49716094 0.095181689
0.073908746 0.014656253 0.51386738 0.24019828 0.84702373 -0.4741894 0.10601461
0.085722491 0.011013051 0.5139553 0.29353407 0.81907284 -0.4929072 0.11340665
0.096429333 0.012024617 0.51955479 0.26845926 0.85613596 -0.44154382 0.11415036
0.10150269 0.012175547 0.51924247 0.29579806 0.84907424 -0.43769446 0.12101936
0.014246002 0.027336754 0.51142007 0.054226227 0.97506672 -0.21518449 0.04858584
-0.10489959 -0.29149431 0.52594644 -0.30537608 -0.95193398 -0.023815155 0.11798198
-0.09540683 -0.29191697 0.5232349 -0.22720788 -0.97384632 -6.3454172e-05 0.091027923
-0.071056567 -0.2922475 0.52291548 -0.26795831 -0.96120501 -0.065447077 0.073974602
-0.064616188 -0.2922475 0.52719975 -0.19275618 -0.98092771 -0.025018424 0.05831933
0.01244867 -0.2922475 0.52307582 -0.0058204052 -0.99825656 -0.058737699 0.018303989
0.065429054 -0.2922475 0.52602839 0.049285434 -0.99777859 -0.044820987 0.022399776
0.084082738 -0.2922475 0.52834779 0.050578855 -0.99738973 -0.05153174 0.026579088
0.090862453 -0.2922475 0.52244061 0.06013868 -0.99624479 -0.062287163 0.031838443
0.10596695 -0.29194829 0.52067769 0.10815862 -0.98848253 -0.10584926 0.067694671
0.11116981 -0.29214832 0.52665716 0.10390717 -0.98895413 -0.10570258 0.069904462
0.1258872 -0.2921668 0.52641732 0.12683156 -0.98347938 -0.129159 0.088954091
0.13497889 -0.29224503 0.52369368 0.087032884 -0.99109012 -0.10082513 0.07049787
-0.10072889 -0.27005163 0.52245283 -0.83398569 -0.52117652 -0.18122627 0.14955144
-0.097427085 -0.25287357 0.52026862 -0.94072038 -0.20072152 -0.27341568 0.11085393
-0.10057622 -0.24321784 0.52993762 -0.93185383 -0.16697952 -0.32212785 0.076425873
-0.096799731 -0.19502491 0.52343905 -0.95382595 0.024722926 -0.2993407 0.014203067
-0.096224114 -0.18679288 0.52001661 -0.95161003 0.031167375 -0.30572382 0.036814373
-0.098974317 -0.17199591 0.52950495 -0.943313 0.038255364 -0.32969242 0.0026254053
0.1358694 -0.1529085 0.5240317 0.50708318 0.0062186406 -0.8618747 0.02754827
-0.10001049 -0.14478654 0.52788329 -0.95410746 0.023754869 -0.29852089 0.01923752
0.13305312 -0.14660801 0.52652258 0.93746996 0.13491891 -0.32085341 0.098297127
-0.1005947 -0.13994765 0.52581382 -0.95275134 0.01872159 -0.3031739 0.014119902
0.13103953 -0.12407241 0.52777255 0.80973148 0.53218347 -0.24721606 0.13164409
0.13545455 -0.11335135 0.52228516 0.79433841 0.53280884 -0.2917898 0.11943621
0.1249202 -0.107724 0.52891368 0.75263101 0.32108885 -0.57484651 0.12318704
-0.10037822 -0.075544029 0.52831125 -0.96539462 0.016119434 -0.260295 0.0043715476
-0.099721991 -0.066648841 0.52249193 -0.96097624 0.03360739 -0.27458167 0.020484433
-0.10015444 -0.054316394 0.52958888 -0.95429879 0.12568428 -0.27114075 0.02950486
-0.099683143 -0.056047671 0.52192402 -0.95188445 0.10742899 -0.28701043 0.035655681
-0.099732295 -0.047135986 0.52722549 -0.95070952 0.12750754 -0.28265396 0.032404318
-0.099224351 -0.037162244 0.52845675 -0.93070304 0.26917714 -0.24766025 0.055167977
-0.099664487 -0.023704238 0.52861041 -0.88598788 0.41462243 -0.20763856 0.073281586
-0.10251652 -0.014151412 0.52341801 -0.87853968 0.43898293 -0.18831341 0.075291112
-0.10662256 0.012518393 0.52484131 -0.78277546 0.60465187 -0.14716922 0.090556063
-0.093239188 0.012655333 0.52383816 -0.64991903 0.74759948 -0.13674884 0.09328495
-0.070911445 0.012130654 0.52280754 -0.4396567 0.8899501 -0.12120614 0.083056316
-0.065349847 0.010428507 0.52767467 -0.37494558 0.92223805 -0.094301224 0.0774308
0.012034135 0.01630168 0.52364522 0.051581703 0.97140437 -0.23176043 0.047157172
0.064408824 0.015309223 0.52631533 0.17824674 0.90917522 -0.37633571 0.09976507
0.070467018 0.0149584 0.52430362 0.20638821 0.89960855 -0.38484854 0.10437378
0.083965868 0.014834906 0.52870005 0.22737743 0.90593064 -0.35719627 0.098408476
0.091055483 0.014722401 0.52402705 0.27958113 0.8701635 -0.40577075 0.10428461
0.10184216 0.013162174 0.52047396 0.30867934 0.85149598 -0.42387694 0.12358475
0.11055024 0.016426854 0.524517 0.3430154 0.86118573 -0.37509948 0.11907692
-0.11615564 -0.29195282 0.5398069 -0.59724641 -0.79427981 -0.11142868 0.13303585
-0.1040391 -0.29220963 0.53613013 -0.40339699 -0.91374713 -0.048343021 0.119752
-0.096611127 -0.29207435 0.5341773 -0.29720709 -0.95416266 -0.03523789 0.10671339
-0.065096781 -0.2922475 0.53697926 -0.1955352 -0.97921044 -0.053972028 0.058132578
-0.052822761 -0.2922475 0.53581232 -0.12585105 -0.9916265 -0.028956559 0.03874227
-0.027435057 -0.2922475 0.5314554 -0.0092255017 -0.99938536 -0.033821333 0.015685504
-0.015900839 -0.2922475 0.53190374 0.010391301 -0.99929661 -0.036032181 0.014433481
0.015062409 -0.2922475 0.53353238 -0.0078649893 -0.9991681 -0.040015932 0.013692994
0.02394741 -0.2922475 0.53094661 -0.011211009 -0.99922061 -0.037849098 0.013291684
0.045437586 -0.2922475 0.53909492 0.00074235012 -0.9999997 -0.00032877363 0
0.062876858 -0.2922475 0.53579509 0.030084681 -0.99925649 -0.024112387 0.010983787
0.070547514 -0.2922475 0.5392862 0.043108955 -0.99830985 -0.038974751 0.020729616
0.089326411 -0.2922475 0.53055769 0.049734995 -0.99742448 -0.051679954 0.027291967
0.094190657 -0.2922475 0.5341332 0.05365644 -0.99713939 -0.053235661 0.030459026
0.12579501 -0.2922475 0.53481466 0.07048101 -0.99412179 -0.082184978 0.055299416
0.135359 -0.2922475 0.53029311 0.077757686 -0.99285185 -0.090548038 0.062825605
-0.10413974 -0.25949234 0.53348404 -0.93316436 -0.27586827 -0.23043664 0.1375221
-0.10546695 -0.237717 0.53759617 -0.92941731 -0.13614374 -0.3429991 0.04624784
-0.098633841 -0.20292461 0.5361867 -0.9448806 0.024031006 -0.3265321 0.0032394696
-0.10170396 -0.14797679 0.5375582 -0.94939995 0.023904422 -0.31315863 0.0021942435
-0.10220072 -0.13496284 0.53542924 -0.95415682 0.015987732 -0.29887986 0.0022906894
-0.10145494 -0.064580679 0.53846318 -0.96537477 0.021633895 -0.2599684 0.0057324884
-0.10118808 -0.058786668 0.53413761 -0.96059722 0.069094971 -0.26921925 0.018625788
-0.10074359 -0.045138553 0.53327549 -0.95209098 0.18244803 -0.24542949 0.041864708
-0.10060419 -0.034039795 0.53433472 -0.92399013 0.32540864 -0.20087673 0.069479108
-0.10052214 -0.023460623 0.53608513 -0.88233346 0.42912519 -0.1932338 0.083157219
-0.10057692 -0.017253418 0.53594732 -0.84363979 0.5025149 -0.18907845 0.089932531
-0.099160947 0.0032255554 0.53418517 -0.73032534 0.66253585 -0.16634658 0.10310531
-0.10413333 0.01320419 0.53719616 -0.71712881 0.67113036 -0.18791042 0.10329698
-0.094173096 0.01169925 0.53407282 -0.6624859 0.73687166 -0.13465717 0.10182625
-0.061305501 0.010327149 0.53584999 -0.33137333 0.94093376 -0.069536351 0.06844312
-0.052189473 0.015125974 0.53537035 -0.22205417 0.973167 -0.060315587 0.051406842
-0.027608497 0.013653806 0.53146869 -0.03478229 0.99584335 -0.08417923 0.029202897
-0.016245428 0.012235346 0.5320878 0.029258225 0.99189287 -0.12366297 0.032313399
0.015167996 0.014640947 0.53350139 0.037623227 0.97867197 -0.20195466 0.041248977
0.023872247 0.013232078 0.53104973 0.04798048 0.96977758 -0.23922648 0.055431612
0.06314607 0.014367534 0.5359087 0.1245114 0.95826614 -0.25733823 0.075564191
0.070505857 0.015627483 0.53921551 0.14596371 0.96525919 -0.21672417 0.064242192
0.08910688 0.015085515 0.53075826 0.23267156 0.90345657 -0.36004192 0.10155471
0.093422398 0.015717113 0.53421915 0.28348956 0.91337645 -0.2921938 0.098492399
-0.11301862 -0.29191753 0.54684293 -0.58907735 -0.80194807 -0.099333651 0.12056705
-0.10464869 -0.29197076 0.54579979 -0.44759941 -0.89199001 -0.063313775 0.11524501
-0.097177699 -0.29220617 0.54452044 -0.34965214 -0.93411636 -0.071902737 0.11215416
-0.089427173 -0.29232398 0.54590863 -0.37722242 -0.92063147 -0.10070227 0.10341836
-0.068599217 -0.2922475 0.54178691 -0.23397486 -0.97009063 -0.064652435 0.069651984
-0.045991171 -0.2922475 0.54594409 -0.087323926 -0.995655 -0.032335978 0.024168015
-0.023855861 -0.2922475 0.54546487 -0.0013188493 -0.99999899 -0.00054066634 0
0.012187084 -0.2922475 0.54831111 -0.002613063 -0.99990433 -0.013583106 0.0042687231
0.02511308 -0.2922475 0.54662049 -0.0053476286 -0.99989134 -0.013737862 0.0047988016
0.031320989 -0.2922475 0.5498901 7.3444782e-05 -1 4.1536052e-05 0
0.057545681 -0.2922475 0.54832488 0.0079999603 -0.99995804 -0.00446575 0.0009055839
0.067466103 -0.2922475 0.54428869 0.029120404 -0.99930245 -0.023381488 0.010845513
0.083652802 -0.2922475 0.54415762 0.042703588 -0.99823761 -0.041208711 0.022970909
0.092863888 -0.2922475 0.54683578 0.0446482 -0.99793249 -0.046232097 0.026669098
0.12512155 -0.2922475 0.54499167 0.062403269 -0.99558759 -0.070080094 0.047158949
-0.1066639 -0.26696545 0.54751027 -0.89074236 -0.39805257 -0.21939069 0.13519315
-0.10959567 -0.25519317 0.5430522 -0.93963146 -0.21155287 -0.26895767 0.10899439
-0.11550518 -0.24348822 0.54742581 -0.93229681 -0.1227455 -0.34022981 0.044703368
-0.11542327 -0.23395589 0.54769272 -0.93553978 -0.094461933 -0.34035626 0.033131201
-0.10291361 -0.18484999 0.54282987 -0.94801915 0.02998795 -0.3167972 0.0029993092
-0.1065673 -0.17243476 0.54885203 -0.95084965 0.034048568 -0.30777535 0.0028092293
-0.10509484 -0.15461035 0.5440827 -0.94840604 0.04061985 -0.3144455 0.0027166456
-0.10490075 -0.13049793 0.54649144 -0.95478344 0.024934663 -0.29625481 0.0018380295
-0.10543684 -0.12576202 0.54777688 -0.95841134 0.01787224 -0.28483033 0.0020219707
-0.10307995 -0.10966896 0.54828739 -0.96097672 0.023369284 -0.27564043 0.0019191847
-0.10215113 -0.061574992 0.54323399 -0.96659297 0.02759398 -0.25482658 0.0068798545
-0.10270763 -0.044991337 0.54296798 -0.95167357 0.20247839 -0.23091108 0.039402023
-0.10265141 -0.031829201 0.54480749 -0.92015105 0.33894834 -0.19605109 0.06925147
-0.10273721 -0.029172486 0.54650223 -0.90983295 0.36703968 -0.19361281 0.070184864
-0.10143447 -0.018460272 0.54178065 -0.86440551 0.46988103 -0.17892712 0.087422043
-0.10185739 -0.0048912875 0.54758459 -0.75015551 0.62726855 -0.20928666 0.10183423
-0.099515617 -0.0062203007 0.54216468 -0.74128324 0.64403832 -0.18898124 0.10131222
-0.09108866 0.006390769 0.54601109 -0.61888158 0.76136184 -0.19316755 0.10653987
-0.068154335 0.0058134766 0.54158652 -0.50323814 0.85706514 -0.1104122 0.093002617
0.045992035 0.0094471192 0.54023987 0.078003846 0.96656847 -0.24425562 0.061898213
0.050153449 0.0098856855 0.54107541 0.065672137 0.96868026 -0.23946972 0.059445549
-0.10392513 0.012090812 0.54182041 -0.70338273 0.68475091 -0.19070624 0.10368086
-0.046037488 0.014760915 0.54603344 -0.17528933 0.98221672 -0.067260578 0.037739348
-0.023966759 0.012623196 0.54541671 -0.017619804 0.99903029 -0.040348034 0.0099272821
0.012147766 0.014281198 0.54831386 -0.0014290052 0.99490833 -0.10077389 0.019911749
0.024790773 0.012995913 0.54668689 0.033773322 0.98712391 -0.1563516 0.03083466
0.031150706 0.011174785 0.54997838 0.036315814 0.98771638 -0.15197895 0.031935167
0.04383957 0.011827065 0.54975659 0.048655927 0.98813057 -0.14570715 0.034054939
0.05802305 0.013509863 0.5483709 0.074793078 0.98158497 -0.1757756 0.05068139
0.067573294 0.015342031 0.5442301 0.12553443 0.95374393 -0.27315491 0.052621864
0.083559409 0.016215093 0.54415154 0.17940333 0.96594423 -0.18645707 0.067563482
0.092780299 0.016299356 0.54702646 0.16913743 0.96956521 -0.17701928 0.066860363
-0.11265171 -0.29041097 0.55561823 -0.55175644 -0.82745445 -0.10432674 0.11384604
-0.10634901 -0.29079288 0.55585647 -0.52347273 -0.84205931 -0.13004784 0.11636847
-0.097313292 -0.29201519 0.55050242 -0.43374208 -0.89669746 -0.088326752 0.10612928
-0.080147572 -0.2922475 0.55527413 -0.28078577 -0.95621371 -0.082550965 0.078918636
-0.065679669 -0.2922475 0.55765349 -0.15753216 -0.98586345 -0.057069711 0.048897881
-0.044288561 -0.2922475 0.55686939 -0.086026639 -0.99512309 -0.048264962 0.024593867
-0.033548672 -0.2922475 0.55207843 -0.037555195 -0.99924147 -0.010302059 0.0050173262
-0.027283024 -0.2922475 0.55062199 -0.0019123643 -0.99999797 -0.00067832257 0
0.044975732 -0.2922475 0.55078977 0.00019962521 -1 -6.5116285e-05 0
0.055524994 -0.2922475 0.55498236 0.0012651691 -0.99999893 -0.00075959455 0
0.065963916 -0.2922475 0.55165422 0.0071154288 -0.99996626 -0.004106381 0.00089284143
0.076173849 -0.2922475 0.55946803 0.015964342 -0.99983388 -0.0087991022 0.0022397805
0.091476656 -0.2922475 0.55368352 0.028023712 -0.99925536 -0.02652273 0.014028129
0.1083409 -0.2922475 0.55583477 0.033389919 -0.99897087 -0.030697094 0.017860876
0.1244656 -0.2922475 0.55749232 0.029231915 -0.99948996 -0.012860422 0.0046092272
-0.10766976 -0.27330422 0.55256921 -0.78021514 -0.59189022 -0.20231232 0.13106377
-0.11885339 -0.23214243 0.55001205 -0.94624275 -0.057173003 -0.31836447 0.022400005
-0.10913923 -0.17562972 0.553002 -0.95165133 0.035431679 -0.30513012 0.0026173075
-0.11434323 -0.16786221 0.55948567 -0.95326734 0.041226499 -0.29930219 0.0025956531
-0.10809189 -0.16269295 0.55065727 -0.95209169 0.036030293 -0.30368277 0.0029527624
-0.11107192 -0.15822661 0.55407774 -0.95292336 0.039740492 -0.30059585 0.0027934385
-0.10864579 -0.14442655 0.55278265 -0.9517743 0.033794858 -0.30493212 0.0018315362
-0.10641278 -0.13372059 0.55045867 -0.95421648 0.028633738 -0.29774335 0.0018256832
-0.10765624 -0.1189992 0.55603504 -0.96054351 0.027300425 -0.27678666 0.0018666773
-0.10223788 -0.061387166 0.55666882 -0.96437943 0.050755579 -0.25960794 0.0080504166
-0.10415018 -0.055587046 0.55578011 -0.96649569 0.10356013 -0.23486458 0.018908313
-0.1059584 -0.038426951 0.55578297 -0.93950278 0.25356287 -0.23030515 0.055826023
-0.1051729 -0.017605651 0.55705482 -0.86904812 0.44339928 -0.21943679 0.087286726
-0.10671232 0.0078492844 0.55813283 -0.70896298 0.66246468 -0.24189271 0.1000993
-0.10748708 0.013632054 0.55619258 -0.69882584 0.67518961 -0.23613867 0.09969642
-0.081234261 0.01257004 0.55707246 -0.45128959 0.88086432 -0.14288372 0.095831685
-0.065796256 0.012128146 0.55638236 -0.34530243 0.93307191 -0.10071306 0.079550602
-0.044261985 0.013999186 0.55677652 -0.1619664 0.98508412 -0.058104649 0.035279691
-0.033698846 0.013652067 0.55198067 -0.073166944 0.99696255 -0.026689094 0.014191717
-0.027024601 0.012518983 0.55063826 -0.034415144 0.99919963 -0.020388473 0.0055837776
0.055555817 0.013480368 0.55503446 0.054781426 0.99212402 -0.11264541 0.035353899
0.065891743 0.015305089 0.55167276 0.10455815 0.98700356 -0.12203145 0.042285573
0.076132953 0.015915878 0.55944127 0.12287417 0.98891068 -0.083412968 0.038549013
0.091495275 0.016209049 0.55349112 0.18333434 0.97230142 -0.14497741 0.06508331
0.10781527 0.014806456 0.55597526 0.35000628 0.93549711 -0.048381906 0.06734623
-0.1213576 -0.29176599 0.56757885 -0.65755194 -0.73097354 -0.18249176 0.10130425
-0.11557 -0.29195166 0.56645691 -0.62817848 -0.75788981 -0.17605376 0.095962852
-0.10441303 -0.2921192 0.56280792 -0.52413964 -0.83861941 -0.14830755 0.098512441
-0.077100135 -0.2922475 0.56504643 -0.24959832 -0.96431094 -0.088346399 0.071487203
-0.054711387 -0.2922475 0.56555003 -0.097718179 -0.99290454 -0.067762442 0.032864802
-0.03402314 -0.2922475 0.5653342 -0.025998548 -0.99963653 -0.0071366793 0.0042321114
-0.023719935 -0.2922475 0.56634343 -0.00016534817 -1 -6.2373008e-05 0
-0.0076317629 -0.2922475 0.56279957 2.2254171e-06 -1 4.6274559e-05 0
0.016908091 -0.2922475 0.56286627 2.9944524e-06 -1 6.174291e-05 0
0.041092131 -0.2922475 0.56473708 0.00020244013 -1 -7.6969911e-05 0
0.05665645 -0.2922475 0.56708068 0.00018902065 -1 -9.8599499e-05 0
0.068355553 -0.2922475 0.56997138 0.00777093 -0.99996042 -0.0043486296 0.00086953968
0.073891796 -0.2922475 0.56418592 0.0074399766 -0.99996394 -0.0040925387 0.00093477045
0.080534913 -0.2922475 0.56153393 0.015299796 -0.99984115 -0.0091453912 0.0024672188
0.0980184 -0.2922475 0.56629151 0.019426646 -0.99976742 -0.0093701519 0.0029770588
0.11844777 -0.2922475 0.56615871 0.025588794 -0.99959242 -0.012659709 0.0042397738
0.1211845 -0.2922475 0.56764102 0.026673682 -0.99956483 -0.012597325 0.0043436908
-0.1075336 -0.2694256 0.56013173 -0.83180946 -0.48706976 -0.26618817 0.11693455
-0.1037388 -0.20126294 0.5619809 -0.94699192 0.030950233 -0.31976312 0.0033429561
-0.11416425 -0.19065888 0.56886703 -0.95104915 0.041943345 -0.30618036 0.0029901289
-0.11380757 -0.18099687 0.56400371 -0.95194894 0.044132721 -0.30306035 0.0024283724
-0.11008213 -0.12949193 0.56164187 -0.95543498 0.032276191 -0.29343188 0.0016813355
-0.10921386 -0.11276586 0.56128418 -0.96198291 0.028948179 -0.27157125 0.0019021898
-0.10763454 -0.10037322 0.56191385 -0.9624092 0.025883231 -0.27036765 0.0019299862
-0.11501438 -0.04243578 0.5690971 -0.96234506 0.14683242 -0.22876257 0.029799622
-0.10829294 -0.04030674 0.56407988 -0.95123541 0.21831837 -0.2179182 0.048515037
-0.10803017 -0.027775019 0.56500036 -0.91398782 0.32167834 -0.24728379 0.069143534
-0.10761166 -0.016876247 0.56372237 -0.87613666 0.41774803 -0.24056423 0.083470501
-0.11140591 -0.0049558603 0.56969357 -0.8364172 0.48317039 -0.25875229 0.089731552
-0.11176515 0.0055192816 0.56716186 -0.76032197 0.59726751 -0.2553077 0.091587774
-0.10858103 0.01702195 0.56180304 -0.63238609 0.7391758 -0.23174761 0.09332113
-0.077119716 0.01411533 0.56504703 -0.38498619 0.91364098 -0.13055941 0.086222872
-0.054412726 0.0136344 0.56558055 -0.21317667 0.97418731 -0.074261405 0.051674131
-0.034265179 0.012593831 0.5649929 -0.067366861 0.99732327 -0.028425487 0.012836269
-0.022508755 0.011433672 0.56633258 -0.017217988 0.99979055 -0.011061678 0.002665726
-0.0073243477 0.01260048 0.56320083 -0.013412553 0.99986476 -0.0095190322 0.0017380741
0.01658662 0.01187632 0.56210923 -0.010052075 0.99993104 -0.0060757995 0.0016947637
0.04128008 0.01273031 0.56485796 0.019479236 0.99947935 -0.025721045 0.0094948048
0.056792889 0.014577433 0.56722158 0.053576913 0.99795824 -0.034769084 0.016301014
0.068222977 0.0155165 0.56994331 0.099347867 0.99488163 -0.018454611 0.023967622
0.073829204 0.015649144 0.56404746 0.11636104 0.99177355 -0.05334169 0.030881993
0.080568157 0.016102085 0.56155288 0.14070174 0.98837376 -0.057621922 0.040359676
0.097911209 0.015351316 0.56617439 0.27699587 0.96086937 -0.001848089 0.042998783
-0.1240363 -0.2922475 0.57539529 -0.77149427 -0.59814513 -0.21683888 0.088223904
-0.11435825 -0.29207888 0.57440144 -0.63690346 -0.74642336 -0.19288921 0.10260282
-0.10720508 -0.29202041 0.57416469 -0.47736314 -0.86689681 -0.14357719 0.099603467
-0.082979552 -0.2922475 0.57793713 -0.31556398 -0.94349074 -0.1012155 0.085593373
-0.062531628 -0.2922475 0.57102323 -0.12101085 -0.98953736 -0.078563891 0.0394435
-0.053152598 -0.2922475 0.57822818 -0.054242261 -0.99775779 -0.039207418 0.015416285
0.005026767 -0.2922475 0.57225168 2.982541e-06 -1 6.2679072e-05 0
0.012928195 -0.2922475 0.57406282 4.5782335e-06 -1 6.3352847e-05 0
0.02648565 -0.2922475 0.57663119 5.0863982e-06 -1 6.4422646e-05 0
0.047732022 -0.2922475 0.57394958 0.00018429435 -1 -0.0001338751 0
0.075947613 -0.2922475 0.5755648 0.0078579448 -0.99995703 -0.004917895 0.00098253158
0.088160299 -0.2922475 0.57389277 0.0076931329 -0.99996275 -0.0039231819 0.00099679083
0.11671291 -0.2922475 0.57536364 0.020124912 -0.99973744 -0.010956882 0.0034697801
0.1202696 -0.2922475 0.57703447 0.02373812 -0.99964374 -0.012201973 0.0039521973
-0.1202065 -0.26080349 0.57471251 -0.91273862 -0.29919341 -0.2781933 0.084692545
-0.12906526 -0.25231022 0.57088476 -0.94508708 -0.16150491 -0.28412437 0.049789514
-0.12435007 -0.22636731 0.57506806 -0.95108074 -0.040424157 -0.30628613 0.016897483
-0.114578 -0.20264918 0.57523167 -0.95163733 0.032977607 -0.30544859 0.0033709742
-0.11495773 -0.1900824 0.57042193 -0.95163822 0.048018392 -0.30344504 0.0029666913
-0.11980505 -0.18095464 0.57479608 -0.95116687 0.049320064 -0.30471161 0.0032873377
-0.12092742 -0.17594838 0.5757854 -0.95219386 0.047306553 -0.30180952 0.0029696869
-0.1189926 -0.17747918 0.57211679 -0.95121038 0.046968646 -0.30494729 0.0028960211
-0.11841853 -0.14201222 0.5789125 -0.95294172 0.03633726 -0.30096784 0.0018952833
-0.11647135 -0.13707635 0.57545161 -0.95305604 0.039611958 -0.30019176 0.0017390035
-0.11362974 -0.12108371 0.57403547 -0.95882791 0.036614448 -0.28161743 0.0015820774
-0.112271 -0.11841852 0.57118744 -0.95958519 0.033979177 -0.27935952 0.0015218086
-0.11216094 -0.1066411 0.57542408 -0.96059835 0.033317633 -0.27593639 0.0015741002
-0.11172598 -0.094015054 0.57823074 -0.96067917 0.026425149 -0.27640069 0.0017362335
-0.10949679 -0.084488682 0.5714941 -0.96261203 0.02322807 -0.26988614 0.0018626295
0.1197006 -0.084411979 0.57240617 0.95424312 0.28906703 0.07655324 0.044040289
-0.11489459 -0.044307716 0.57567078 -0.96100509 0.15173905 -0.23118068 0.029555852
-0.10968965 -0.0319236 0.57604057 -0.93715757 0.25530156 -0.23781678 0.056716334
-0.11115519 -0.010831651 0.57356966 -0.86117852 0.43980944 -0.25483167 0.087500036
-0.11263107 0.0039487141 0.5754081 -0.75743169 0.606359 -0.24212797 0.098247439
-0.015318521 0.0049749753 0.57826149 -0.010655549 0.99994314 -0.00044165889 0.0026632948
0.02372421 0.0063894722 0.57795143 -0.005435463 0.99995744 0.007453355 0.0015792644
-0.10779226 0.01620427 0.57334095 -0.57831502 0.78989369 -0.20400906 0.095638357
-0.084325023 0.014186449 0.57722181 -0.35334656 0.92107713 -0.16359425 0.082051873
-0.062262241 0.013450607 0.5707047 -0.24361052 0.96569425 -0.089936174 0.059647273
-0.053145193 0.013199434 0.57824719 -0.17986624 0.98134094 -0.067956515 0.046169117
-0.011650223 0.011617058 0.57984591 -0.011017813 0.99993926 -0.00027810535 0.0027314834
0.0038973568 0.012787579 0.57195342 -0.0098650949 0.99992919 0.0066612437 0.0016955714
0.013023203 0.010343226 0.57651031 -0.0097579295 0.99993199 0.0063905963 0.0015091655
0.029270349 0.01056043 0.57548165 0.00058167474 0.99990696 0.013629504 0.0024381545
0.04774119 0.014082201 0.57395512 0.011150457 0.99969947 0.021831224 0.0056514782
0.075939029 0.015414016 0.57555568 0.13000324 0.99122655 0.023854859 0.025737099
0.088171579 0.015257626 0.5738399 0.1803921 0.98326343 0.025528662 0.027883615
-0.12534977 -0.2922475 0.58367908 -0.77031237 -0.59903151 -0.21858664 0.10012312
-0.1146921 -0.2922475 0.58426756 -0.59521908 -0.78513563 -0.17110336 0.10822359
-0.10738338 -0.2922475 0.58411467 -0.49993441 -0.85596275 -0.13188413 0.10378359
-0.094561912 -0.2922475 0.5877552 -0.38731655 -0.91538459 -0.10980432 0.097879715
-0.082792781 -0.2922475 0.58373928 -0.30260912 -0.94745141 -0.10374764 0.084176451
-0.078658581 -0.2922475 0.58451492 -0.26267022 -0.96011251 -0.095856383 0.07659895
-0.055705417 -0.2922475 0.58222526 -0.052513674 -0.99776965 -0.041208472 0.015078385
-0.039637189 -0.2922475 0.58619058 -0.014189426 -0.99986351 -0.0084638149 0.0024963573
-0.015999155 -0.2922475 0.581218 -1.8032265e-06 -1 1.9998419e-05 0
-0.0051447302 -0.2922475 0.58491677 -4.2614847e-08 -1 3.1054249e-05 0
0.039176319 -0.2922475 0.58858961 2.6721184e-06 -1 8.7252054e-05 0
0.044711221 -0.2922475 0.58807319 1.1413578e-05 -1 6.1993727e-05 0
0.056183901 -0.2922475 0.5803805 0.00017988356 -1 -0.00017680702 0
0.078620017 -0.2922475 0.58637345 0.00022510286 -1 -0.00017999245 0
0.095139377 -0.2922475 0.58772588 0.00063417532 -0.99999958 -0.00070336781 0
0.10287915 -0.2922475 0.58239353 0.0072910632 -0.99995822 -0.0055201664 0.0012802792
0.11364547 -0.2922475 0.58629262 0.0084188702 -0.99993616 -0.007546965 0.0015982024
-0.12338681 -0.2459711 0.58637649 -0.94907987 -0.17126973 -0.26441276 0.05109046
-0.12161544 -0.23764388 0.5845713 -0.95027149 -0.12180394 -0.28661442 0.037587557
-0.12124591 -0.21407336 0.58696085 -0.95179594 0.011506955 -0.30651593 0.0058227242
-0.11907837 -0.21276687 0.5815497 -0.9509691 0.02715731 -0.3080914 0.0042997105
-0.11930256 -0.19841467 0.58513427 -0.9509958 0.037961297 -0.30686459 0.004050361
-0.11899129 -0.18875615 0.58061332 -0.9523744 0.047019918 -0.3012844 0.0033404829
-0.12109326 -0.14356695 0.5874697 -0.95394945 0.039248768 -0.29738885 0.0019206892
-0.11619233 -0.12556426 0.58086205 -0.9534381 0.040189777 -0.29889899 0.001657294
-0.1143205 -0.11487648 0.58549726 -0.95497847 0.038495339 -0.29416707 0.0015517066
0.11478899 -0.094635576 0.5840742 0.96465904 0.16321968 0.20686314 0.013344706
-0.11347134 -0.081565276 0.58452904 -0.95991778 0.023303449 -0.27931136 0.0020015864
-0.11351333 -0.074677773 0.58573991 -0.96024299 0.021603942 -0.2783283 0.0019067973
-0.11426976 -0.060797188 0.58574086 -0.96329188 0.083533458 -0.25512937 0.011665221
-0.1094962 -0.052851144 0.58654141 -0.96098661 0.13720314 -0.24016681 0.022186626
-0.11084998 -0.04375495 0.58249569 -0.95725268 0.15502334 -0.244203 0.030379685
-0.10890573 -0.036432881 0.58312374 -0.94391119 0.23417288 -0.23279759 0.054810975
-0.10944775 -0.021973358 0.5810042 -0.90256506 0.35559943 -0.2427454 0.080008298
-0.11324985 -0.0048209131 0.58320886 -0.82656008 0.51337147 -0.23075561 0.10517181
0.10603069 0.0043296083 0.58323407 0.34674191 0.93583232 0.063150361 0.039295677
-0.10627093 0.013326243 0.58143628 -0.55689675 0.81172746 -0.17596745 0.10482872
-0.094515644 0.013213676 0.58755726 -0.46630472 0.86862391 -0.16748852 0.10687554
-0.081904441 0.01192513 0.58449626 -0.38223019 0.91046518 -0.15796605 0.091088623
-0.077554986 0.011123005 0.58678007 -0.34687006 0.92553413 -0.15188071 0.084087342
-0.061620995 0.012115029 0.5808717 -0.22476788 0.96956724 -0.097050533 0.057616591
-0.053896524 0.013323236 0.58322644 -0.16762272 0.98350877 -0.067919977 0.045025066
-0.039608777 0.014925873 0.58618492 -0.064968519 0.99767733 -0.020469299 0.013151605
-0.0055841394 0.012901574 0.5853352 -0.0084761642 0.99996054 -0.0026568193 0.0020787492
0.00093784445 0.011584156 0.58751982 -0.005908418 0.99998045 -0.0020653862 0.0017756746
0.039902139 0.014174254 0.58911145 0.0099811442 0.99972683 0.02113579 0.0051007359
0.044730242 0.014467057 0.58796072 0.012886075 0.99961847 0.024432519 0.0057824785
0.056141902 0.014961317 0.58034885 0.060790978 0.99693143 0.049317151 0.020520514
0.078698568 0.014567318 0.58638227 0.10450467 0.99334365 0.048448075 0.02348575
0.096094146 0.012383903 0.58477247 0.21342696 0.97564816 0.050592527 0.026724759
-0.14069836 -0.29210845 0.59828562 -0.85685372 -0.47320685 -0.20463885 0.095813766
-0.13169231 -0.2922475 0.59577984 -0.77826536 -0.59371692 -0.2044583 0.11444222
-0.12561412 -0.2922475 0.59494168 -0.74921745 -0.6288954 -0.20775904 0.1113196
-0.11553068 -0.2922475 0.59393805 -0.55921113 -0.81829041 -0.13298008 0.12677987
-0.1071129 -0.2922475 0.59498 -0.4962799 -0.86089796 -0.11207569 0.1211201
-0.093804128 -0.2922475 0.594751 -0.39095894 -0.91562825 -0.093680531 0.10106678
-0.082379811 -0.2922475 0.59605962 -0.26970753 -0.96036017 -0.070471488 0.084684543
-0.079563871 -0.2922475 0.59442592 -0.25053805 -0.96571851 -0.067959018 0.080432944
-0.057103805 -0.2922475 0.59607524 -0.02561076 -0.99937499 -0.02436604 0.0075344904
-0.045121349 -0.2922475 0.59912133 -0.0084191887 -0.99993366 -0.0078664301 0.001938686
-0.039220959 -0.2922475 0.59635139 -0.00069907372 -0.99999952 -0.00066544459 4.8432912e-06
0.0041818731 -0.2922475 0.59040213 2.5108147e-06 -1 6.4718675e-05 0
0.041839082 -0.2922475 0.59779477 1.0871859e-05 -1 6.0758812e-05 0
0.067527957 -0.2922475 0.59430677 1.3193242e-05 -1 6.9794034e-05 0
0.082714863 -0.2922475 0.59247601 0.00023477772 -0.99999994 -0.00019779734 0
0.097243734 -0.2922475 0.59172702 0.00019452552 -1 -0.00022161662 0
0.1048996 -0.2922475 0.59769988 0.0001720939 -1 -0.00023932065 0
0.1128997 -0.2922475 0.59837037 0.00016469383 -1 -0.00019314869 0
-0.14135544 -0.25198969 0.59967208 -0.95812356 -0.16673313 -0.23280741 0.058886327
-0.12111618 -0.2239479 0.59305376 -0.95258009 -0.084175743 -0.29241359 0.025655821
-0.11817514 -0.22844508 0.59022272 -0.95243841 -0.097435012 -0.28873438 0.028847463
-0.12456856 -0.15419917 0.59822118 -0.95599002 0.043528881 -0.29015225 0.002216799
-0.12185667 -0.13917235 0.59876221 -0.95306367 0.036355764 -0.30057931 0.0018469872
-0.11883934 -0.13396528 0.5916909 -0.9531703 0.038628429 -0.29995701 0.001672324
-0.12055408 -0.089909203 0.59776884 -0.95534426 0.031123837 -0.29385144 0.002028117
-0.11940757 -0.085184954 0.5963524 -0.95718479 0.028940385 -0.28802723 0.002077301
-0.1195232 -0.068773098 0.59801823 -0.96114844 0.035778508 -0.27370355 0.0024116191
-0.11973672 -0.055872764 0.59477729 -0.96065325 0.10073984 -0.25883761 0.018041218
-0.11699589 -0.003788254 0.59218431 -0.86314303 0.46936357 -0.18623096 0.11158317
-0.10594536 -0.007849073 0.5910697 -0.80519903 0.5590198 -0.19786714 0.11867924
-0.10658533 0.0085084606 0.59445798 -0.63958901 0.75057459 -0.16602302 0.12428247
0.099159598 0.0095737856 0.59764397 0.31228855 0.94303393 0.11472999 0.050969414
-0.10989086 0.011583288 0.59286708 -0.57989448 0.7970717 -0.16852032 0.11955643
-0.096226096 0.013062455 0.59458226 -0.48619685 0.86128747 -0.14763635 0.10930352
-0.084450789 0.011501106 0.5952366 -0.39358765 0.90711623 -0.14909348 0.098816365
-0.060110655 0.012169273 0.59613985 -0.15767844 0.98136449 -0.10982416 0.049584862
-0.053867228 0.01343821 0.59618104 -0.11531831 0.99131924 -0.06315013 0.033854801
-0.045146711 0.014874747 0.59912777 -0.057879031 0.99787802 -0.029824084 0.013735227
-0.039303057 0.01577309 0.59615976 -0.03096568 0.99946654 -0.010381706 0.0075067426
0.04298361 0.014700664 0.59732842 0.041792054 0.99834621 0.039475638 0.017067451
0.067067839 0.014607921 0.59360665 0.084422454 0.99519461 0.049604535 0.025219873
0.083298467 0.013637007 0.59234428 0.13523282 0.98908561 0.058495916 0.026504548
0.096961714 0.01135193 0.59178311 0.17884691 0.98172039 0.065107249 0.027239038
-0.13218176 -0.29179466 0.60361928 -0.75552255 -0.62924719 -0.1823011 0.12007341
-0.12550181 -0.29208371 0.60491282 -0.68423235 -0.71218395 -0.15690793 0.12709844
-0.11658187 -0.29225948 0.60646206 -0.49147958 -0.86672676 -0.085044667 0.17475654
-0.096501648 -0.2922475 0.60263419 -0.40744185 -0.91150123 -0.056184564 0.1121593
-0.08921209 -0.2922475 0.60905743 -0.32079631 -0.94663024 -0.031320386 0.099821903
-0.056497842 -0.2922475 0.60582328 -0.02781445 -0.99944752 -0.018195936 0.0070639416
-0.042502541 -0.2922475 0.60804486 -0.00024239572 -1 -0.00011089198 0
-0.03326112 -0.2922475 0.60607833 -7.6712809e-07 -1 5.6124329e-05 0
0.038072292 -0.2922475 0.60882813 6.7515366e-06 -1 7.7363678e-05 0
0.041748505 -0.2922475 0.60234106 8.189576e-06 -1 9.6955358e-05 0
0.062544413 -0.2922475 0.60092628 1.9113804e-05 -1 8.3025443e-05 0
0.092611663 -0.2922475 0.60862648 2.0503116e-05 -1 5.5333945e-05 0
0.1021599 -0.2922475 0.60368532 7.0295922e-05 -1 -1.0656331e-05 0
0.1126703 -0.2922475 0.60490602 0.00011398344 -1 -5.9955579e-05 0
-0.12747073 -0.24222484 0.60339946 -0.95939869 -0.15412204 -0.23622143 0.050764769
-0.12312407 -0.21020083 0.6017102 -0.95782989 0.028016036 -0.28596687 0.0060404795
-0.11871652 -0.21572386 0.60730672 -0.95861298 -0.014715721 -0.28433192 0.010565853
-0.12420547 -0.20704335 0.60282117 -0.95835477 0.032124616 -0.28376794 0.0058842162
-0.12742637 -0.19602884 0.60934824 -0.95850617 0.047813434 -0.28103346 0.005166058
-0.12576158 -0.17406076 0.60415161 -0.95531446 0.045886405 -0.29200807 0.0036601457
-0.12636191 -0.16544983 0.60568237 -0.95609242 0.044701666 -0.28963608 0.0027653757
-0.1266582 -0.1570289 0.60530537 -0.95672029 0.041913897 -0.28797498 0.0024127399
-0.12233607 -0.093883276 0.60522997 -0.95260972 0.035135888 -0.30215931 0.0022487203
-0.12255891 -0.084958538 0.60613555 -0.95491469 0.034956969 -0.29481512 0.0023563241
-0.12320232 -0.076734796 0.6060251 -0.95693642 0.031506356 -0.28858268 0.0023917714
-0.12246196 -0.068121292 0.60327494 -0.95922852 0.038104601 -0.28005138 0.0025236742
-0.12380155 -0.043364212 0.6066488 -0.95955145 0.16165929 -0.23049383 0.03237493
-0.12443121 -0.039886281 0.6001457 -0.96011066 0.16424344 -0.22629994 0.031057581
-0.11461388 0.0078855772 0.60938966 -0.6978181 0.7076174 -0.11102942 0.14134333
0.099049143 0.0098012714 0.60056394 0.33116373 0.9352631 0.12495402 0.059176918
0.10005514 0.0082691796 0.60585231 0.37720656 0.91789365 0.12323354 0.061563585
-0.11636075 0.014901485 0.60668379 -0.59783489 0.79093182 -0.13046172 0.13744836
-0.093685836 0.012450762 0.60598731 -0.45903644 0.87862974 -0.13151187 0.11650023
-0.056366153 0.013323349 0.60579401 -0.11072507 0.99087405 -0.07686723 0.034989499
-0.042415455 0.015340026 0.60780996 -0.030037539 0.9995234 -0.0071185087 0.0081330445
-0.033558477 0.016453555 0.60647351 -0.013335452 0.9999032 -0.0039698901 0.0032979061
0.038088519 0.016170004 0.60852659 0.031593699 0.99910903 0.027982118 0.012149028
0.040987406 0.015588705 0.60260892 0.036133934 0.99875808 0.034302618 0.015878953
0.061347369 0.0140111 0.60160398 0.080387279 0.99544483 0.051260509 0.025687195
0.092576645 0.011253202 0.60823363 0.34144062 0.93278962 0.11542033 0.063726008
-0.12463555 -0.29197493 0.61398447 -0.69060093 -0.7160511 -0.10169198 0.14134282
-0.11636396 -0.29229465 0.61306131 -0.5311175 -0.84583056 -0.049848303 0.13810484
-0.09525609 -0.2922475 0.61217773 -0.33778122 -0.94120228 -0.0064908117 0.10784858
-0.087069929 -0.2922475 0.61533481 -0.30310896 -0.9529447 0.0046263617 0.10296762
-0.077277608 -0.2922475 0.61598814 -0.21983333 -0.97552133 -0.0056133666 0.074597597
-0.054144468 -0.2922475 0.61388862 -0.0085083889 -0.99991947 -0.0094179129 0.0019581909
-0.043499768 -0.2922475 0.61629474 -9.4679919e-05 -1 -2.5771844e-06 0
-0.03944727 -0.2922475 0.61011171 -6.2702231e-05 -1 2.1305272e-08 0
-0.01676154 -0.2922475 0.61093861 -1.2647223e-06 -1 3.1454041e-05 0
0.045880489 -0.2922475 0.61185151 8.3070263e-06 -1 8.0884558e-05 0
0.055409193 -0.2922475 0.61580753 1.7046297e-05 -1 8.3910301e-05 0
0.07215818 -0.2922475 0.61402792 3.9455322e-06 -1 3.9077571e-07 0
0.084279783 -0.2922475 0.61510807 9.1254724e-06 -1 1.6019667e-05 0
0.099207811 -0.2922475 0.61458266 2.1797232e-05 -1 6.5049302e-05 0
0.10472783 -0.2922475 0.61367118 2.4046618e-05 -1 5.2517094e-05 0
-0.13303904 -0.28910539 0.61652571 -0.82141387 -0.55081463 -0.14792755 0.13294326
-0.13174731 -0.2729331 0.61786842 -0.9362033 -0.29353616 -0.19328725 0.097084872
-0.13383467 -0.2427519 0.61442059 -0.95624906 -0.15697515 -0.24687356 0.05318106
-0.13421948 -0.23865545 0.61880445 -0.9632777 -0.13721384 -0.23079965 0.048259445
-0.12535399 -0.20464346 0.61316067 -0.9612084 0.039403599 -0.27299416 0.0060827257
