# .PCD v0.7 - Point Cloud Data file format
VERSION 0.7
FIELDS x y z normal_x normal_y normal_z curvature
SIZE 4 4 4 4 4 4 4
TYPE F F F F F F F
COUNT 1 1 1 1 1 1 1
WIDTH 588
HEIGHT 1
VIEWPOINT 0 0 0 1 0 0 0
POINTS 588
DATA ascii
-0.064239979 -0.37048239 0.5687837 -0.31060544 -0.94672376 0.085079357 0.06485153
-0.050687019 -0.37048239 0.56592029 -0.2151314 -0.97381079 0.073559381 0.046045568
-0.043305397 -0.37048239 0.568582 -0.17993231 -0.98315322 0.032157324 0.03349781
-0.033067312 -0.37048239 0.56433958 -0.050926294 -0.99863154 0.011899157 0.0047042724
-0.023962351 -0.37048239 0.56612086 -0.025351031 -0.99965429 0.0069585633 0.00086052145
-0.01004737 -0.37048239 0.56677389 -0.0041634506 -0.99999088 0.00091099512 0
-0.0070132711 -0.37048239 0.56675249 -0.0024036733 -0.99999684 0.00065918569 0
0.0067048776 -0.37048239 0.56323278 -5.332508e-06 -1 7.374557e-05 0
0.016517246 -0.37048239 0.5660376 4.0227715e-05 -1 0.00010567373 0
0.026738999 -0.37048239 0.56218779 0.001300647 -0.99999917 0.00010413065 0
0.037589673 -0.37048239 0.56307316 0.0072074877 -0.9999736 0.00094324461 0
0.046983857 -0.37048239 0.56638175 0.016623663 -0.99985749 0.0029446203 0.00016000183
0.051800855 -0.37048239 0.5631606 0.023008205 -0.99972606 0.0042972872 0.00037202449
0.066412874 -0.37048239 0.56524742 0.076786317 -0.99664021 0.028498037 0.0089763897
0.074154854 -0.37048239 0.56612235 0.11612266 -0.99277282 0.030291261 0.014158444
0.087621242 -0.37048239 0.56937689 0.19072063 -0.97841907 0.079510108 0.052919179
0.097419314 -0.37034917 0.56476831 0.23222172 -0.97124684 0.052465305 0.071168892
0.1001285 -0.37038586 0.56047982 0.23268591 -0.97109228 0.053264305 0.073859923
0.11328354 -0.36903894 0.56800193 0.27326721 -0.94980139 0.1523232 0.11240376
0.12240095 -0.36740887 0.56586927 0.26450297 -0.95048594 0.16313998 0.13310708
0.13527043 -0.36448717 0.56495774 0.35151082 -0.90280032 0.24777353 0.16814965
0.14215732 -0.3625761 0.56626153 0.45130467 -0.82612473 0.33740467 0.18646842
0.15032338 -0.3613717 0.56816649 0.60818404 -0.66459727 0.43407676 0.19716914
0.16506143 -0.36184239 0.56333876 0.40655422 -0.86830741 0.28417587 0.20968737
0.17021331 -0.36167353 0.5678457 0.28621009 -0.93216276 0.22171235 0.22073677
-0.099896781 -0.36141601 0.57428533 -0.7421574 -0.63676775 0.20911539 0.088541694
-0.097110353 -0.36238283 0.57485878 -0.72598284 -0.6544466 0.21130203 0.087999955
-0.09446007 -0.36649615 0.57513416 -0.66192108 -0.72594965 0.18670185 0.086322591
-0.085413188 -0.36836797 0.57647526 -0.55242062 -0.81745833 0.16307475 0.091063388
-0.077876762 -0.36932027 0.57734287 -0.44083485 -0.88927841 0.12185456 0.080303736
-0.053966019 -0.37048239 0.57360142 -0.25249112 -0.96559936 0.062178276 0.049676724
-0.03126964 -0.37048239 0.57211143 -0.050326061 -0.99869192 0.0090467501 0.0044681672
-0.013966026 -0.37048239 0.57554042 -0.0083333533 -0.99996406 0.0015938523 1.2977255e-05
-0.0048400536 -0.37048239 0.57502377 -0.0020072067 -0.99999779 0.00062264741 0
0.018371221 -0.37048239 0.57264471 0.00057473546 -0.99999982 0.00032695543 0
0.022776786 -0.37048239 0.57262921 0.00080681412 -0.99999964 0.00029558374 0
0.03435149 -0.37048239 0.57750916 0.0070558768 -0.99997121 0.0027838617 7.3408519e-05
0.041809995 -0.37048239 0.57822198 0.021153254 -0.99966127 0.0151657 0.0044224788
0.065076679 -0.37048239 0.57481068 0.079105802 -0.99605352 0.040244833 0.012393139
0.073703863 -0.37048239 0.57338709 0.11371733 -0.99254775 0.043786537 0.016787412
0.096841164 -0.37033153 0.57393318 0.22936134 -0.96544862 0.12370297 0.078393742
0.10146494 -0.3703202 0.57659692 0.24919342 -0.9585852 0.13790208 0.08710672
0.11627173 -0.3685872 0.57526165 0.29895744 -0.93098503 0.20950249 0.12897772
0.12453213 -0.36659738 0.57491761 0.36506882 -0.87043566 0.33025223 0.14889091
0.13413869 -0.36517426 0.5781588 0.45138785 -0.78417164 0.42582139 0.16066661
0.14218488 -0.36323208 0.57495373 0.49874151 -0.75423217 0.42707232 0.17841552
0.15282768 -0.36201796 0.57440823 0.59220165 -0.64603329 0.48159969 0.18815577
0.17416272 -0.36175853 0.57064176 0.080538183 -0.99047089 0.1117187 0.20981783
-0.097102396 -0.36396021 0.58236867 -0.72534752 -0.65046942 0.2253008 0.088921182
-0.093159489 -0.36656678 0.58463502 -0.6982407 -0.68399835 0.21120209 0.09056782
-0.086372852 -0.36824843 0.58537382 -0.62965 -0.75538206 0.18149045 0.089998938
-0.074979559 -0.37003866 0.58352345 -0.45173547 -0.88562745 0.10769904 0.077888727
-0.056401212 -0.37048239 0.5861578 -0.27743587 -0.95881796 0.060806729 0.050946061
-0.047320738 -0.37048239 0.58400899 -0.24592811 -0.96745467 0.059589319 0.048167519
-0.0088171 -0.37048239 0.58357888 -0.0057967915 -0.99998206 0.0015224384 0
0.00093486911 -0.37048239 0.58560342 -0.0014683306 -0.99999875 0.00050956692 0
0.014927175 -0.37048239 0.5869683 0.00030372993 -0.99999988 0.00045245705 0
0.037768252 -0.37048239 0.58476269 0.020396011 -0.99967057 0.015581097 0.0044552418
0.045472089 -0.37048239 0.58694351 0.053568773 -0.99679804 0.059363969 0.026016746
0.066396892 -0.37048239 0.58332628 0.096855924 -0.99088186 0.093659595 0.03654594
0.083560273 -0.37048239 0.58664066 0.21071742 -0.94874024 0.23556334 0.077371143
0.099556997 -0.37030923 0.58510041 0.24449232 -0.94602281 0.21275418 0.084094144
0.10722819 -0.36983144 0.58579707 0.30712259 -0.91345078 0.26698923 0.10409085
0.11463468 -0.36810049 0.58705062 0.38923147 -0.85339057 0.34673241 0.12951685
0.1244569 -0.36561987 0.58513969 0.45504591 -0.79237098 0.40630233 0.15183686
0.13385381 -0.36503264 0.58394355 0.49919122 -0.71328533 0.49196756 0.15971808
0.14081262 -0.36335582 0.58227372 0.53054702 -0.67698842 0.51010448 0.16976495
0.14810377 -0.36073145 0.57739496 0.61783111 -0.60065091 0.50744772 0.19232093
0.15532477 -0.36028504 0.57271856 0.63546795 -0.59237748 0.49524671 0.1933419
-0.098318301 -0.3641496 0.59341788 -0.78150469 -0.57378715 0.24498717 0.081613325
-0.092595674 -0.36715826 0.59427989 -0.74560469 -0.62184274 0.23955218 0.084636793
-0.085370123 -0.36813453 0.59575152 -0.67015398 -0.71078354 0.21373011 0.090385862
-0.076614581 -0.36953893 0.59598875 -0.53409737 -0.82489765 0.185159 0.087059289
-0.04090583 -0.37048239 0.59257841 -0.1975857 -0.97824585 0.063205183 0.043652378
-0.034121484 -0.37048239 0.59712696 -0.12136882 -0.98941249 0.079576634 0.036501307
0.0067115719 -0.37048239 0.59298438 -0.00075383321 -0.9999997 0.00037703131 0
0.015717009 -0.37048239 0.59043729 0.00035415211 -0.99999982 0.00046829056 0
0.025369544 -0.37048239 0.59634757 0.021833856 -0.99926579 0.031482127 0.01735165
0.038229171 -0.37048239 0.596829 0.051632553 -0.99601078 0.07277859 0.036161911
0.04687551 -0.37048239 0.59606725 0.065354273 -0.99469984 0.079378478 0.03728791
0.052113332 -0.37048239 0.59071118 0.059178654 -0.99470288 0.084048025 0.03687406
0.062224898 -0.37048239 0.5960716 0.099678405 -0.98705351 0.12565617 0.052267
0.07589183 -0.37048239 0.59596837 0.18224999 -0.95343387 0.24030988 0.078897402
0.08679834 -0.37032926 0.59409171 0.22559181 -0.93053961 0.28845158 0.082699627
0.094746046 -0.37029529 0.59684473 0.27339855 -0.89715838 0.34692958 0.088453166
0.10480264 -0.36919186 0.595815 0.30421472 -0.87732643 0.37114918 0.095947772
0.11438471 -0.36746228 0.59428078 0.38576332 -0.81771976 0.42722493 0.11140803
0.12222441 -0.36532992 0.59142226 0.44508141 -0.76886821 0.45906869 0.14191678
0.13225169 -0.36257321 0.59218413 0.54179847 -0.6095823 0.57867426 0.1576581
0.14001793 -0.36100006 0.58660245 0.54811382 -0.62169027 0.55952871 0.15963687
0.14594258 -0.3614707 0.58088458 0.633834 -0.56570548 0.52747673 0.18478717
-0.092855193 -0.36658138 0.60448766 -0.7462402 -0.61420566 0.25666523 0.083659694
-0.086163409 -0.36828256 0.60362256 -0.67166877 -0.69675601 0.25177798 0.089186557
-0.079553403 -0.36893544 0.60690224 -0.63463151 -0.73290771 0.24513093 0.092008285
-0.068279624 -0.36970472 0.60588992 -0.47848549 -0.85562605 0.19737223 0.08841309
-0.034920949 -0.37048239 0.60131186 -0.14286037 -0.9850437 0.096331552 0.044657025
-0.024145275 -0.37048239 0.60328507 -0.073017649 -0.99487084 0.07000263 0.026633404
-0.01542819 -0.37048239 0.60383332 -0.028959831 -0.99872643 0.041313637 0.016056443
-0.0070379376 -0.37048239 0.60467279 -0.015453112 -0.99928123 0.034615196 0.016273947
0.01433197 -0.37048239 0.6026305 0.0098956823 -0.99979264 0.017796895 0.013564497
0.036824852 -0.37048239 0.608441 0.083666377 -0.98508507 0.15035766 0.070432402
0.044728544 -0.37048239 0.60791159 0.079436071 -0.98697543 0.13989076 0.061952654
0.055404689 -0.37048239 0.60591263 0.085432343 -0.98190463 0.16901109 0.068105228
0.063092418 -0.37048239 0.60580486 0.12985107 -0.97312862 0.19015585 0.071482867
0.074043855 -0.37048239 0.60647315 0.20397058 -0.92314458 0.32588363 0.09076868
0.084643312 -0.37048239 0.60586172 0.23269986 -0.88244194 0.40883607 0.090907581
0.096818261 -0.36818245 0.60523266 0.34065416 -0.81300354 0.47220743 0.09433832
0.10334951 -0.36738569 0.60501438 0.32601982 -0.81394494 0.48083749 0.096711226
0.11559297 -0.36573324 0.60294658 0.41094032 -0.77235144 0.48435676 0.11190081
0.12408141 -0.36453193 0.60056472 0.4671714 -0.68674546 0.55689454 0.1294679
0.12877476 -0.36232951 0.59856534 0.56267166 -0.51450121 0.64706182 0.14830285
-0.096259475 -0.36120123 0.61638784 -0.82613814 -0.46446729 0.3190079 0.081351921
-0.091477096 -0.36533833 0.61568815 -0.77593076 -0.54903978 0.31062317 0.090751439
-0.085256979 -0.36758637 0.61608922 -0.70373338 -0.65497184 0.27526575 0.098398469
-0.077263266 -0.36886072 0.61574912 -0.61184746 -0.75013888 0.25086746 0.10125214
-0.05936702 -0.36975965 0.61543524 -0.38278139 -0.8889966 0.25132337 0.10158556
-0.034439955 -0.37048239 0.61478639 -0.15669256 -0.97624165 0.14966471 0.056604993
-0.025683481 -0.37048239 0.61375558 -0.104161 -0.9881379 0.11284419 0.039221227
-0.01432206 -0.37048239 0.61074638 -0.028626474 -0.99876916 0.040505271 0.017172009
-0.0031979119 -0.37048239 0.61774659 -0.0097053731 -0.99806494 0.061418623 0.033885691
0.0091461241 -0.37048239 0.6186322 0.020056315 -0.99605864 0.086399443 0.055443615
0.017118236 -0.37048239 0.61508733 0.023159835 -0.99753988 0.066164933 0.04578051
0.024654543 -0.37048239 0.61432117 0.054915722 -0.99316818 0.10296263 0.059334356
0.034393057 -0.37048239 0.61732954 0.10187111 -0.97196877 0.21189401 0.08978419
0.045380145 -0.37048239 0.61464918 0.1007833 -0.96975499 0.22230138 0.086368009
0.054922868 -0.37048239 0.61512852 0.099348299 -0.96690315 0.23500687 0.083918869
0.06487444 -0.37048239 0.61509335 0.15819439 -0.94161659 0.29720825 0.091961555
0.074682601 -0.37048239 0.61534977 0.20439433 -0.91071081 0.35892737 0.087861232
0.085462622 -0.36896184 0.613469 0.27441397 -0.81054384 0.51741248 0.093309395
0.092850305 -0.36685148 0.61297685 0.32148466 -0.70945233 0.6271562 0.097340375
0.10412856 -0.36643457 0.61003309 0.35232306 -0.73599917 0.5780775 0.098944753
0.11803553 -0.36317828 0.6099332 0.48911312 -0.57218939 0.65830672 0.11384847
-0.090203755 -0.36478308 0.62253112 -0.78459376 -0.52633125 0.32770103 0.094543666
-0.08355803 -0.3670564 0.62459928 -0.71138203 -0.63111484 0.30924064 0.10071628
-0.075890847 -0.36840984 0.62629032 -0.6120401 -0.70868212 0.35096523 0.11903747
-0.065267712 -0.36961094 0.62461454 -0.47881627 -0.82634485 0.29646105 0.11531021
-0.046036724 -0.37048239 0.62646532 -0.31429094 -0.9078626 0.27750075 0.10724284
-0.034948055 -0.37048239 0.62536585 -0.1567789 -0.97378463 0.16481426 0.06279625
-0.021890819 -0.37048239 0.62226433 -0.098106384 -0.98482376 0.14316902 0.045400679
-0.0077082613 -0.37048239 0.62714106 -0.0059504104 -0.99762243 0.068659313 0.039118282
0.0068949554 -0.37048239 0.62717253 0.026412724 -0.99083418 0.13247672 0.072858788
0.01536813 -0.37048239 0.62563819 0.02451363 -0.99389583 0.10756436 0.063059784
0.025565637 -0.37048239 0.6247943 0.074074827 -0.98760229 0.13840039 0.072006688
0.035981439 -0.37048239 0.62434387 0.12824921 -0.9566353 0.26153597 0.10149939
0.043313198 -0.37048239 0.62492704 0.1203125 -0.9648239 0.23375151 0.085017756
0.050015029 -0.37048239 0.62270081 0.11978201 -0.94681323 0.29865852 0.098946579
0.065063864 -0.37048239 0.62504268 0.1902971 -0.87388176 0.44734523 0.11564948
0.075915813 -0.37048239 0.62288326 0.20533074 -0.90744835 0.36657432 0.089124396
0.092946649 -0.36527857 0.62083846 0.34633794 -0.62718046 0.69763511 0.096773855
0.10512216 -0.36026889 0.62055343 0.39333445 -0.50381714 0.76906198 0.10029667
-0.089721411 -0.36401439 0.63252324 -0.77952749 -0.51035643 0.3631435 0.096038818
-0.082525708 -0.36685109 0.63245922 -0.69376069 -0.60146683 0.39614856 0.11610475
-0.075158224 -0.3678745 0.63504428 -0.63726717 -0.63810074 0.43210879 0.12739669
-0.067712054 -0.36882287 0.63609451 -0.53192097 -0.73203719 0.42565426 0.13168254
-0.053520534 -0.37048239 0.63586688 -0.37025821 -0.85048056 0.37361968 0.1241179
-0.047253512 -0.37048239 0.63148862 -0.31969577 -0.89144188 0.3211323 0.11679621
-0.035057459 -0.37048239 0.63927323 -0.16057464 -0.95883381 0.23420812 0.076873593
-0.023188978 -0.37048239 0.63732213 -0.11821344 -0.97500211 0.18814009 0.061051942
-0.017420201 -0.37048239 0.63604808 -0.095766276 -0.97936398 0.17797469 0.054029156
-0.0028172799 -0.37048239 0.63413107 -0.0070232311 -0.99726486 0.073576629 0.042667288
0.0018975777 -0.37048239 0.63498342 0.039554309 -0.98874611 0.14427961 0.076588355
0.015031582 -0.37048239 0.63391507 0.021336999 -0.98692673 0.15975066 0.085355259
0.02707273 -0.37048239 0.63148475 0.080989137 -0.98498291 0.15247768 0.076854423
0.035310656 -0.37048239 0.63228709 0.13977253 -0.94490176 0.29601419 0.10968187
0.046607882 -0.37048239 0.6309222 0.1412722 -0.94196397 0.30454248 0.099434048
0.06246328 -0.37048239 0.6396957 0.20548631 -0.8238855 0.52819318 0.10035951
-0.077687509 -0.36266205 0.64140284 -0.6767084 -0.53996307 0.50050539 0.13002084
-0.073538437 -0.36633667 0.64334679 -0.62057632 -0.58444613 0.52278847 0.13527033
-0.065553524 -0.36891031 0.64764702 -0.51217717 -0.63009703 0.58365417 0.1405229
-0.054933276 -0.37048239 0.64686263 -0.40533537 -0.74944615 0.52348226 0.14109431
-0.04484814 -0.37048239 0.64594531 -0.26591209 -0.85723978 0.44094312 0.12377819
-0.033161681 -0.37048239 0.64432788 -0.15662539 -0.95286816 0.25982809 0.08279942
-0.02510147 -0.37048239 0.64308178 -0.12094854 -0.96978205 0.21188244 0.064608067
-0.015609706 -0.37048239 0.64427656 -0.10673232 -0.97298646 0.20470859 0.063600972
-0.0029593711 -0.37048239 0.64391673 -0.00033744753 -0.99555069 0.094227195 0.052359637
0.0084151626 -0.37048239 0.64766562 0.085880406 -0.94949985 0.30178565 0.10067706
0.01447478 -0.37048239 0.64115679 0.03611917 -0.9763903 0.21297251 0.099763237
0.02607003 -0.37048239 0.64095908 0.075060517 -0.98134053 0.17702219 0.07862106
-0.077929266 -0.36175805 0.64624995 -0.67636544 -0.49569762 0.544806 0.13550784
-0.072707094 -0.36520737 0.65175253 -0.55248052 -0.57021803 0.60796106 0.14320365
-0.066290483 -0.37048239 0.6534062 -0.47084168 -0.6094377 0.63788223 0.14382498
-0.053907469 -0.37048239 0.65254575 -0.38500816 -0.6613186 0.64375961 0.14101905
-0.044447485 -0.37048239 0.65285647 -0.21938577 -0.80808234 0.54669261 0.1224323
-0.036001984 -0.37048239 0.65414774 -0.16510344 -0.89932698 0.40490967 0.099436536
-0.024453068 -0.37048239 0.65448391 -0.10551211 -0.94301558 0.31557709 0.078726433
0.0042296648 -0.37048239 0.65606833 -0.01429683 -0.99628484 0.084924601 0.042745274
-0.071845427 -0.37048239 0.66321975 -0.49082991 -0.55730247 0.66970146 0.15223822
-0.069552153 -0.37048239 0.66286492 -0.46777749 -0.52793604 0.70884967 0.14772978
-0.05502842 -0.37048239 0.66092688 -0.28687072 -0.6686638 0.6859985 0.14106052
-0.080121823 -0.37048239 0.67497009 -0.58392006 -0.50824654 0.63302666 0.13556154
0.069520339 -0.12639615 0.37899774 0.48756304 0.014316055 -0.8729704 0.041601777
0.071434803 -0.11044815 0.38125396 0.53119498 0.1288856 -0.83738899 0.050751027
-0.031129124 -0.1215791 0.40738168 -0.34624064 0.072750069 -0.93532073 0.0074647013
0.024785956 -0.058928456 0.38865834 -0.0048750569 0.83391964 -0.55186445 0.096931018
0.066774145 -0.060721163 0.38198683 0.32237592 0.66528612 -0.67340034 0.12432359
0.0075096819 -0.049023662 0.43702611 -0.039583303 0.98805165 -0.14895332 0.022334434
0.045746319 -0.04759711 0.44252694 0.084294632 0.98498803 -0.15064222 0.020940023
0.063606262 -0.05092432 0.57682866 0.097357064 0.93916285 0.32938555 0.049444985
0.0082487296 -0.048440062 0.45824325 -0.014532252 0.99834055 -0.055723175 0.0026641688
-0.010762585 -0.048221271 0.46240297 -0.023877485 0.99868095 -0.045455486 0.0033867366
0.070273176 -0.057786103 0.38578874 0.34024781 0.70581764 -0.62133163 0.12055305
-0.0064605917 -0.057645675 0.39416945 -0.12246694 0.9070555 -0.40280533 0.053126894
-0.066880956 -0.054144397 0.43010074 -0.17881465 0.92535073 -0.33429232 0.049356606
-0.031920798 -0.056290366 0.40709713 -0.15908211 0.89509022 -0.41654095 0.07044284
-0.13344432 -0.061489947 0.44769233 -0.77546096 0.60638493 -0.17594764 0.13377748
-0.054485355 -0.048968561 0.51871485 -0.20653272 0.97487164 0.083482593 0.027334793
-0.037899509 -0.055450588 0.62394911 -0.11955141 0.85999417 0.49610236 0.083910346
-0.055737652 -0.060630858 0.63821912 -0.32137933 0.74369079 0.58620757 0.10278361
-0.075484432 -0.051949237 0.43735212 -0.21683484 0.92618954 -0.30847296 0.061315618
-0.10420457 -0.052539047 0.48085091 -0.54312867 0.83333915 0.10274766 0.084307566
0.018903285 -0.049749181 0.41950011 0.028779818 0.98206681 -0.18632366 0.019603442
-0.008802237 -0.051609322 0.58360302 0.025388673 0.97695088 0.21194911 0.021889793
0.060125593 -0.055205725 0.60554796 0.15304679 0.77754223 0.60992199 0.083556093
-0.068092041 -0.063178658 0.42203519 -0.21750771 0.86141711 -0.45896709 0.062563874
0.090763249 -0.060311791 0.60584068 0.34214658 0.54197872 0.76759022 0.065181635
-0.0012243049 -0.048789527 0.44463885 -0.043337006 0.99376321 -0.10274514 0.017236503
0.023789318 -0.058309235 0.61784816 0.15419416 0.82812893 0.53891242 0.066856027
0.054837313 -0.18685326 0.38051137 0.14642163 0.018424304 -0.98905063 0.045784745
-0.02461434 -0.16224632 0.40354505 -0.33425418 0.020903287 -0.94225115 0.00067500351
-0.040452812 -0.14848182 0.4100067 -0.33648247 0.028207282 -0.94126713 0.00066481211
-0.045903645 -0.14662914 0.41167444 -0.33000824 0.030864449 -0.9434734 0.00068477821
0.022917377 -0.13702548 0.3845292 -0.12057617 2.5564741e-05 -0.99270409 0.026687769
0.0059817261 -0.14646727 0.38836899 -0.25146994 0.019939354 -0.96765971 0.0057150475
-0.024891609 -0.17133918 0.40349555 -0.33681706 0.023557305 -0.94127536 0.00066395511
-0.13442424 -0.22858243 0.44913715 -0.97931635 0.020549301 -0.20128919 0.049803857
0.028671633 -0.13441123 0.3819437 -0.085533291 -0.016180813 -0.9962039 0.029694598
-0.0062267892 -0.18688542 0.39647776 -0.28969678 0.024719339 -0.95679921 0.0019988322
0.0726965 -0.26064262 0.383764 0.52411669 0.015684264 -0.85150206 0.054785535
-0.02172089 -0.20545252 0.40009329 -0.31330112 0.023814609 -0.94935519 0.00072336389
0.056067247 -0.21922739 0.38156465 0.18883359 0.031838179 -0.98149288 0.053474896
-0.043553874 -0.18317831 0.40736979 -0.32834306 0.02638676 -0.94418991 0.00050826609
0.04754791 -0.28852198 0.37736878 0.29097691 0.061587524 -0.95474571 0.044556778
0.044394195 -0.33684009 0.38011849 0.031406295 -0.33771852 -0.94072306 0.1262529
-0.13715151 -0.28564176 0.44463956 -0.98696738 0.084440194 -0.13698617 0.045382921
-0.13095206 -0.35822102 0.44838491 -0.69344884 -0.69995511 -0.17085543 0.11700982
0.084577389 -0.049921095 0.43281925 0.30566356 0.92388856 -0.23021655 0.057747219
0.024107771 -0.24855997 0.38404301 -0.053182375 0.016416091 -0.99844986 0.025870742
0.052090596 -0.18796501 0.38005957 0.092848741 0.015890542 -0.99555343 0.042640135
-0.02221426 -0.051226567 0.41778827 -0.10706209 0.95357108 -0.28149575 0.054603152
0.082656682 -0.20265722 0.39000621 0.65293109 -0.012834519 -0.7573086 0.041383434
0.072745718 -0.2936092 0.38040292 0.64400196 0.044173405 -0.76374757 0.042128269
0.062955514 -0.26099592 0.37951085 0.35999933 0.012593988 -0.93286753 0.058483183
0.098664843 -0.048680142 0.48449194 0.37453365 0.92233169 -0.095019624 0.064677052
-0.077258393 -0.048976261 0.47893035 -0.25161141 0.96741927 0.028136214 0.0415406
-0.029021218 -0.052269693 0.41122758 -0.12346207 0.95065731 -0.28461877 0.053371537
0.03421912 -0.05242762 0.39516598 0.089714311 0.92058927 -0.38008788 0.078463547
-0.03214936 -0.054231104 0.61574602 -0.078461915 0.89720219 0.43459398 0.071319528
0.11173126 -0.05343413 0.50511038 0.45560905 0.88275784 -0.11471292 0.065982439
0.0051263329 -0.048280131 0.46415204 -0.016902849 0.99889219 -0.043917451 0.0020338914
0.022305164 -0.048644479 0.42795581 0.031740513 0.98463047 -0.17174244 0.018506905
0.068280362 -0.056960523 0.38626894 0.3161487 0.73052555 -0.60529524 0.12209375
0.054468781 -0.059186637 0.60923558 0.17434829 0.7055046 0.68692499 0.087553971
0.069997661 -0.056844577 0.38378373 0.33066434 0.69080317 -0.64300239 0.12265265
0.13546115 -0.36083278 0.53560275 0.26215553 -0.96473819 0.023551727 0.17141022
0.18126859 -0.3615731 0.52418065 -0.29492307 -0.95494777 0.033095278 0.1325558
0.17466901 -0.36046726 0.57075065 0.20657121 -0.95734078 0.20205696 0.2200979
0.07454779 -0.073851585 0.38522997 0.50042629 0.47456568 -0.72412765 0.13177015
0.087195501 -0.24574816 0.39436704 0.69248164 -0.0090942327 -0.72137827 0.0462486
0.11188076 -0.34624422 0.45345569 0.70113266 -0.65476227 -0.28231072 0.18223257
0.1349811 -0.35331622 0.58902103 0.67697591 -0.37540352 0.63306862 0.16992535
0.15061037 -0.36269051 0.45578623 -0.12897691 -0.99149859 0.017189851 0.10647037
0.15451917 -0.36379409 0.44332036 -0.23752771 -0.96955168 0.059582014 0.10065825
0.09522438 -0.34356958 0.40726653 0.6907379 -0.33439621 -0.64113986 0.21513155
0.14060368 -0.33055937 0.53619099 0.99615157 0.086882398 0.011558617 0.17555018
0.080938675 -0.1850705 0.38879386 0.63780826 0.012517643 -0.77009344 0.036193278
-0.062364716 -0.050544191 0.42961988 -0.14312991 0.95098567 -0.27411693 0.041169003
0.092095517 -0.14357741 0.41057643 0.8416602 0.013793282 -0.53983122 0.025659837
0.14709301 -0.35659015 0.58039451 0.70166123 -0.38783458 0.59770882 0.18391587
0.12131277 -0.36228549 0.37081155 -0.16677505 -0.9846853 0.050802764 0.16343036
0.085030422 -0.12371502 0.39678308 0.73067939 0.058073349 -0.68024635 0.031084972
0.066199414 -0.070770711 0.38057378 0.30526951 0.54429859 -0.78137672 0.1286978
0.11340453 -0.053864259 0.48674458 0.5230149 0.8391518 -0.14926369 0.073476397
0.10737134 -0.051087432 0.48092249 0.4688924 0.87346196 -0.13116434 0.071029723
0.13576452 -0.18301333 0.53915244 0.99969965 0.012549999 0.021046953 0.038383223
0.1369164 -0.27755252 0.56068093 0.96215212 0.044667847 0.26882705 0.048353292
0.087195992 -0.24279384 0.39401835 0.68156272 -0.010995271 -0.73167711 0.047802567
0.12682585 -0.35973683 0.51696658 0.26393667 -0.95802718 -0.11189883 0.15269653
0.1245658 -0.29792967 0.49309373 0.95791072 0.026622251 -0.28582922 0.035229262
0.084566765 -0.064503744 0.40374026 0.58048892 0.63952255 -0.50402725 0.12360436
0.13541594 -0.22974445 0.52816778 0.99950427 -0.016534809 -0.026792962 0.024702972
0.12043794 -0.063427441 0.50320876 0.65222192 0.73790902 -0.17348458 0.074277923
0.094275929 -0.25016248 0.406809 0.77919668 -0.015141624 -0.62659645 0.034450375
0.12873368 -0.30589309 0.50718975 0.96206588 0.075638875 -0.26212204 0.091173783
-0.050995544 -0.048999857 0.53085548 -0.19807312 0.97549075 0.095837623 0.02937554
0.087458827 -0.28992626 0.39688367 0.7693131 0.050986152 -0.6368342 0.034457013
0.069104485 -0.25810739 0.38192075 0.47679919 0.0068292096 -0.87898576 0.060318477
0.073204897 -0.24401236 0.38335159 0.50023985 -0.020791551 -0.86563724 0.058136992
0.085142076 -0.35843417 0.37934512 0.30966327 -0.75143284 -0.58262962 0.23811036
0.087734886 -0.16146526 0.39987302 0.75987357 0.016464621 -0.64986235 0.042750053
0.10576578 -0.049425885 0.54651648 0.34949607 0.92684281 0.13716727 0.0677488
0.11161105 -0.050660316 0.53887272 0.40462571 0.91192269 0.068373583 0.07021457
0.13599658 -0.071482398 0.57847905 0.776806 0.4227373 0.46676087 0.094896778
0.10571612 -0.295614 0.43369895 0.9086982 -0.0044093002 -0.41743046 0.018457955
0.11257114 -0.34335217 0.4572584 0.82207465 -0.48405808 -0.29980153 0.18884236
0.10170043 -0.33304441 0.4272052 0.89664626 -0.15035284 -0.4164367 0.17425101
0.07294251 -0.076936036 0.38286591 0.47557023 0.45269993 -0.75425178 0.13273011
0.13778535 -0.21331117 0.56851989 0.92641878 -0.06785585 0.37032938 0.048742201
0.13589661 -0.19414707 0.53920645 0.9995802 -0.026153896 0.012463319 0.030698869
0.12576094 -0.33015683 0.49920216 0.9246332 -0.028333645 -0.37980339 0.15414597
0.09159597 -0.33993712 0.39996025 0.70342797 -0.20056224 -0.68188262 0.21058136
0.084446557 -0.27024463 0.39089715 0.71097809 0.0042759143 -0.70320123 0.039100241
0.10058312 -0.25036246 0.42239058 0.85617059 -0.001474138 -0.51669109 0.02208708
0.12281854 -0.34952146 0.49339652 0.66705996 -0.67875129 -0.30712792 0.19069706
0.13609026 -0.19010893 0.57707822 0.88685042 -0.064350769 0.4575536 0.053073231
0.13816643 -0.20792834 0.55127031 0.98083675 -0.064142652 0.18397002 0.042229988
0.069488101 -0.049939159 0.56991881 0.11205668 0.95327163 0.28056446 0.049279615
0.026481882 -0.048221696 0.46313563 0.00029820824 0.99885917 -0.047752898 0.0022395058
0.069861285 -0.18050089 0.38065571 0.38208225 0.015466694 -0.92399889 0.050253533
0.13271157 -0.058331769 0.55865562 0.752819 0.62848556 0.19562581 0.09304937
0.13757785 -0.29017735 0.53674275 0.99640352 0.078323029 -0.032336414 0.028620351
-0.10408933 -0.055637904 0.50248241 -0.6218366 0.75752521 0.19868237 0.071002513
-0.060322072 -0.052949917 0.58764482 -0.33024505 0.91793537 0.21984716 0.056721065
0.038575456 -0.049842469 0.55416125 0.0093827117 0.99157846 0.12916677 0.012478398
-0.11694058 -0.056658402 0.47202927 -0.6264264 0.77679855 0.064605013 0.10137907
0.077094853 -0.3233813 0.38134393 0.58212984 -0.03294377 -0.81242812 0.14612293
0.13373615 -0.36323503 0.47820976 0.11135645 -0.99060065 -0.07943628 0.13525318
-0.043923311 -0.05031177 0.42924902 -0.11155505 0.96256119 -0.24704537 0.045626905
0.07737945 -0.070942841 0.39012864 0.52330697 0.55601138 -0.64575636 0.13235378
0.12591472 -0.22886591 0.49650964 0.96482253 0.020905588 -0.26206958 0.001130773
0.12826204 -0.20913325 0.50653565 0.97313648 0.022546005 -0.22912228 0.0027921523
0.080923036 -0.10290881 0.39012426 0.64702958 0.17641817 -0.74177444 0.065202132
-0.030268023 -0.050379831 0.56475121 -0.093053102 0.98969954 0.10879368 0.012942909
0.12821861 -0.10338223 0.51401043 0.95660329 0.1990222 -0.21283874 0.026709789
0.13665454 -0.093634389 0.54220194 0.96384597 0.26396236 0.03639859 0.059741776
0.12472556 -0.063470446 0.52851623 0.7279281 0.68433809 -0.042451158 0.08428926
0.079913698 -0.15368606 0.38701564 0.56701809 0.035843659 -0.82292509 0.043222494
0.071479328 -0.16359323 0.38143611 0.36429676 0.039265778 -0.93045479 0.056456745
0.037110768 -0.047909711 0.50078273 0.013568362 0.99983341 0.012208714 0.00063395663
0.085615374 -0.12110572 0.39731207 0.74256158 0.068506695 -0.66626507 0.033284232
0.13725552 -0.23891762 0.5371955 0.99658024 -0.025597151 0.078566372 0.034865201
0.13764767 -0.21846683 0.56193674 0.94406557 -0.082608074 0.31924304 0.050340746
0.10206509 -0.29972035 0.4234274 0.89695358 0.027680507 -0.44125739 0.036370829
0.15164189 -0.35491103 0.54989177 0.83899748 -0.50811344 0.19468942 0.22689475
0.10758923 -0.32249352 0.44148818 0.92472255 -0.056433991 -0.37643522 0.12011299
0.13485402 -0.28099796 0.52690917 0.99823081 0.01322185 -0.057968777 0.017665863
0.13683458 -0.32546738 0.52850556 0.99071819 0.11434804 -0.073497772 0.16327789
0.079252958 -0.24732761 0.38602591 0.60256308 -0.00078864838 -0.79807091 0.052414604
0.10376768 -0.34285221 0.4333967 0.6506713 -0.69740987 -0.30041036 0.1948467
0.12064499 -0.36249712 0.37185836 -0.16677505 -0.9846853 0.050802764 0.16343036
0.096209995 -0.048550598 0.54205787 0.26112404 0.96200347 0.079771303 0.048830476
0.1045605 -0.3537735 0.44513205 0.30286914 -0.94703871 -0.10671436 0.13824177
0.13096538 -0.21975617 0.51165056 0.98111254 0.016734231 -0.19271262 0.0062659276
-0.019265072 -0.051972516 0.40999886 -0.10192276 0.95002687 -0.29506043 0.050929341
0.13947444 -0.12348635 0.57302845 0.87781513 0.056850664 0.4756138 0.061286677
0.13815616 -0.23033231 0.54137158 0.9960348 -0.040050097 0.079439372 0.034806073
0.13371488 -0.20685951 0.52604496 0.99723333 0.00097172899 -0.07432887 0.020920688
0.11815656 -0.050945684 0.55546558 0.49702936 0.84348732 0.20369314 0.084867395
0.081448294 -0.22876953 0.38848424 0.6467365 -0.010594439 -0.76263994 0.052410856
0.075604767 -0.35902655 0.3796055 0.183808 -0.73772466 -0.64959753 0.20927696
0.078776807 -0.23624972 0.38610041 0.62267983 -0.013711839 -0.7823565 0.052001443
0.13686895 -0.2220411 0.53671145 0.99928731 -0.025344148 0.027975034 0.030260783
0.022137439 -0.050729513 0.5699839 0.032423984 0.97783756 0.20683922 0.029709898
0.069504514 -0.12577872 0.37899578 0.49217638 0.016514571 -0.87033886 0.041874804
0.11145546 -0.052294616 0.50435662 0.45086294 0.88520515 -0.11460548 0.06667269
0.13060783 -0.098795503 0.52232742 0.9630276 0.23248531 -0.13611957 0.040067356
0.14115474 -0.14449753 0.56176442 0.94880933 0.011913992 0.31562474 0.068938166
0.082583725 -0.064818382 0.39995682 0.52086276 0.65012324 -0.55321044 0.12948801
0.085454658 -0.20288244 0.39326379 0.67091715 -0.0028882758 -0.74152666 0.041769154
0.10299058 -0.27718517 0.42703548 0.88971704 -0.00050745427 -0.45651209 0.011086741
0.077554889 -0.17774573 0.38622296 0.54986072 0.015234018 -0.8351174 0.038504221
-0.07596612 -0.049132861 0.50324172 -0.28984872 0.95145696 0.10352451 0.040618684
0.020058194 -0.2292643 0.3857716 -0.097908765 0.031466518 -0.99469781 0.020898344
0.006765062 -0.050354738 0.56021172 0.015462783 0.99356222 0.11222719 0.0073653753
-0.045590114 -0.05117904 0.4192498 -0.1390228 0.94030213 -0.3106516 0.050550677
0.13999665 -0.16788939 0.57029057 0.92264956 -0.008594485 0.38554367 0.05507892
0.14154467 -0.3094832 0.54502857 0.98428375 0.17098318 0.044160679 0.1174691
0.14132117 -0.12818517 0.55994183 0.96453112 0.021919649 0.26305732 0.059933174
0.064386025 -0.33470544 0.37504309 0.13110854 -0.18049683 -0.97479814 0.1471128
0.11953852 -0.053033598 0.57113808 0.53670955 0.79413629 0.28511459 0.095166422
0.12586731 -0.076388799 0.52430719 0.85647011 0.5075193 -0.094250634 0.076317564
0.13862111 -0.23994042 0.57885283 0.90319759 -0.010801192 0.42908901 0.054803994
0.13533702 -0.13802217 0.53877664 0.99956626 0.028429395 0.0076862792 0.043633483
0.13153072 -0.17989676 0.5238561 0.99319208 0.028887048 -0.11284921 0.015471497
0.100945 -0.35137159 0.44319409 0.32727391 -0.93679374 -0.12373117 0.14121257
0.097954027 -0.34038088 0.41228756 0.77546829 -0.31437239 -0.54755718 0.20279689
-0.047495019 -0.048878208 0.51416945 -0.11570533 0.99193478 0.051746491 0.012263819
0.037296202 -0.051746976 0.58888614 0.064316727 0.92855573 0.36557832 0.057927389
0.074690051 -0.050492764 0.42290503 0.2562905 0.9286378 -0.26822931 0.068742588
0.1325935 -0.27484235 0.51801324 0.98849827 0.012721089 -0.15069614 0.01125034
0.14333417 -0.35187328 0.54661536 0.88097459 -0.44660425 0.15629609 0.23290788
0.13835658 -0.27179074 0.546812 0.99539053 0.0023621111 0.095875613 0.034457907
0.12949851 -0.34357527 0.51298451 0.86738056 -0.40427196 -0.29019842 0.19807555
0.086024925 -0.27509874 0.39383009 0.72139525 0.010267024 -0.69244754 0.038391884
0.028850632 -0.051315997 0.40144137 0.066372164 0.9474836 -0.31284112 0.057702083
-0.060442213 -0.048789188 0.51980239 -0.26542097 0.95857716 0.10335154 0.036871068
0.020598613 -0.050816178 0.41146699 0.035304837 0.97202468 -0.23221022 0.03126964
-0.0060838358 -0.048819982 0.44941363 -0.042073064 0.99401957 -0.10077183 0.0175709
0.070278063 -0.22331832 0.38011861 0.4857778 -0.011167666 -0.87401092 0.052246999
0.044063624 -0.24813421 0.3801524 0.086866066 0.0062738354 -0.99620026 0.043411911
0.084891021 -0.17156002 0.39652583 0.71779352 0.022677232 -0.69588661 0.038933851
0.090362452 -0.04793654 0.5071677 0.23979776 0.96989042 -0.042538986 0.045946579
0.059140988 -0.051984083 0.39760169 0.22179224 0.85653794 -0.46599457 0.10348864
0.13465169 -0.23361573 0.52226841 0.9951542 0.011756985 -0.097620912 0.016817948
0.046378106 -0.048532791 0.52853191 0.029934544 0.99901187 0.032851651 0.0024952153
-0.1121801 -0.065352991 0.4390505 -0.62960196 0.65821224 -0.41274464 0.12677516
-0.078530237 -0.051952757 0.55751884 -0.44064826 0.89039785 0.11410868 0.056925409
0.08757434 -0.21248958 0.39557582 0.68381226 0.0025341846 -0.7296536 0.046685413
0.13555303 -0.20107347 0.57983351 0.87340432 -0.052971613 0.48410624 0.047636982
0.059872191 -0.048103403 0.53208995 0.063777082 0.99725503 0.037614558 0.0084582558
0.14015611 -0.13630457 0.5671286 0.90624565 0.0046920278 0.42272532 0.065725975
0.13425207 -0.058447201 0.56964082 0.72634941 0.62488061 0.28625304 0.095304169
0.079236105 -0.12953645 0.38722411 0.63066572 0.022941992 -0.77571541 0.030705381
0.12944952 -0.14288574 0.51855958 0.99056399 0.039165117 -0.13133536 0.016908551
-0.070855401 -0.051321238 0.56402093 -0.37615061 0.92185026 0.093288407 0.051187452
0.035219751 -0.049087886 0.53925556 0.0081318077 0.99707127 0.076044492 0.0034640159
-0.063917167 -0.048972715 0.485948 -0.18052174 0.98316097 0.028395232 0.027664641
0.13901116 -0.17407025 0.5618487 0.95939207 -0.027176308 0.28076372 0.044276431
0.027688671 -0.049779005 0.55359215 0.012572706 0.99401188 0.10854638 0.0086203963
0.14099428 -0.10239583 0.57620645 0.87360471 0.18822135 0.44876221 0.072921194
-0.034459576 -0.050266974 0.5643068 -0.11354188 0.9873848 0.1103608 0.016883427
0.13093191 -0.28224802 0.51455563 0.98408741 0.017605944 -0.17681067 0.0094820745
0.13529913 -0.2315391 0.585742 0.85516071 -0.0023239942 0.51835775 0.05593209
0.12289389 -0.32265693 0.48915982 0.91743714 -0.0050581121 -0.39784858 0.12134789
-0.051608864 -0.049132496 0.44784564 -0.086088315 0.9844954 -0.15283188 0.029561946
0.013642498 -0.049736947 0.42044175 -0.018330328 0.97768056 -0.20929559 0.026270902
0.06601657 -0.050726082 0.41610262 0.2106663 0.9236182 -0.32023305 0.075769201
0.019902045 -0.048439037 0.44989014 -0.0070149028 0.99675304 -0.080213234 0.0045180651
-0.065298423 -0.049822189 0.54140943 -0.32690513 0.93597543 0.13070183 0.047902565
-0.076849945 -0.056015518 0.59399408 -0.56173295 0.77783644 0.28182727 0.073756091
-0.10976766 -0.055973727 0.49044088 -0.60371363 0.78285587 0.15055427 0.078983314
0.015243205 -0.04888491 0.44394612 -0.0066404128 0.99531937 -0.096412174 0.0057958909
-0.022614066 -0.048466675 0.46952075 -0.022014108 0.99887156 -0.042083323 0.0032609501
-0.052657954 -0.050480213 0.57275265 -0.26207042 0.95568931 0.13407843 0.042467132
-0.021057919 -0.049204431 0.44710749 -0.043562241 0.99387044 -0.10160666 0.017559964
0.075490355 -0.32481202 0.37871006 0.50443387 -0.034406405 -0.86276448 0.15216027
0.13901639 -0.1394254 0.56996113 0.88785583 0.017928328 0.45977238 0.072484151
0.13778512 -0.16308929 0.55358779 0.98880422 0.028753713 0.14642203 0.042168159
0.093595862 -0.3171857 0.40631667 0.85202038 0.0074027679 -0.52345634 0.12047572
0.13439572 -0.36119097 0.53539449 0.26005632 -0.9653061 0.023555143 0.16812654
-0.071760856 -0.053642191 0.58208364 -0.47425362 0.85674375 0.20266652 0.062561862
0.13614424 -0.35068497 0.52306849 0.69397491 -0.69617701 -0.18367481 0.21377765
0.13722318 -0.28058547 0.57553238 0.92800832 0.062164366 0.36733657 0.047494285
0.13140914 -0.29842877 0.51535201 0.97342485 0.051904857 -0.22304669 0.047115467
0.14225799 -0.30911186 0.58017129 0.90808612 0.091833308 0.40859073 0.082248963
0.071838044 -0.061148949 0.38530192 0.36415276 0.66431344 -0.65274841 0.1257416
-0.079050317 -0.05057187 0.5276199 -0.39064476 0.90901047 0.14524679 0.054408703
0.12905331 -0.23229516 0.50809228 0.97635055 0.021579059 -0.21511388 0.0039451248
0.090130523 -0.12871668 0.40626505 0.80529207 0.023814637 -0.59239978 0.02738503
0.003452271 -0.050205812 0.55682421 0.012104239 0.99435782 0.10538457 0.0065505207
0.12155095 -0.058682956 0.51805335 0.62051046 0.77826947 -0.096246362 0.075880572
0.13399106 -0.14217152 0.58197612 0.78542113 -0.010045096 0.61888027 0.061311778
0.14313136 -0.35106814 0.54707217 0.95893073 -0.21459083 0.18547933 0.22583684
0.12752022 -0.27538335 0.50119489 0.96510589 0.0053565274 -0.26180509 0.0026190709
0.029057307 -0.049845375 0.41876245 0.065575868 0.97104299 -0.2297288 0.038669776
-0.069887266 -0.048860192 0.461983 -0.1709283 0.98316228 -0.064617015 0.034250792
-0.10547176 -0.055974465 0.49134004 -0.57451469 0.80620414 0.14130722 0.07994318
0.074478604 -0.05136751 0.40661749 0.32265085 0.84935045 -0.41773215 0.10662493
0.074167006 -0.11754102 0.38238367 0.5658865 0.087880231 -0.81978625 0.040018115
0.077915013 -0.21552409 0.38562286 0.58203131 -0.00062687142 -0.81316614 0.047305699
0.081128478 -0.18580773 0.38936293 0.64361286 0.010816067 -0.76527482 0.036580488
0.067646153 -0.29629579 0.37813923 0.55854553 0.03645952 -0.82867223 0.044460632
0.081015579 -0.27546161 0.38688776 0.6767199 0.021556361 -0.73592496 0.044024885
0.13729338 -0.070683472 0.57771999 0.78465128 0.43390295 0.44277593 0.096729182
0.073501393 -0.12836716 0.38232881 0.53096336 0.012405987 -0.84730393 0.040334299
0.053376347 -0.04948118 0.55638379 0.031741124 0.98732424 0.15551005 0.021737298
0.08186648 -0.33015618 0.38232553 0.62985718 -0.050397646 -0.77507412 0.16852771
0.07863234 -0.30182916 0.38294506 0.63534421 0.065604985 -0.76943725 0.069034912
0.11145606 -0.30033222 0.44708741 0.92772651 0.010497636 -0.37311301 0.039260708
0.025565593 -0.066366486 0.38918784 -0.034178283 0.72610587 -0.68673295 0.11156503
0.13637662 -0.2133535 0.55923706 0.94794583 -0.090399958 0.30533016 0.049157534
0.13923237 -0.12206073 0.57351726 0.87737465 0.057852477 0.47630551 0.06176547
0.14138986 -0.10434621 0.56347209 0.93629426 0.17255904 0.30590284 0.067751914
0.12763794 -0.05689862 0.57292879 0.6549471 0.69161844 0.30448014 0.09782277
0.090317763 -0.077807881 0.40976062 0.72783554 0.47568521 -0.49394226 0.10418623
0.12903695 -0.35544607 0.50988555 0.29939297 -0.94255024 -0.1481989 0.16400726
0.12593845 -0.056028228 0.53354561 0.66779274 0.74418509 0.015538801 0.08049009
0.067886457 -0.066033565 0.60503078 0.23809963 0.63164204 0.7377919 0.079321608
0.075130098 -0.047377016 0.4981505 0.16552079 0.98586065 -0.026107747 0.02947654
0.046639752 -0.048152138 0.51334244 0.034651369 0.99929118 0.014707649 0.0025556716
0.11449321 -0.35536128 0.45489046 0.39554065 -0.89967871 -0.18473212 0.16958553
0.14368598 -0.33343914 0.55625802 0.95872009 0.071294531 0.27526864 0.17058626
0.074886531 -0.066012882 0.38849536 0.42309976 0.6490792 -0.63220465 0.13066915
0.1047684 -0.049803682 0.49350002 0.39130783 0.91361314 -0.11040423 0.062118005
-0.056094486 -0.049241684 0.50724578 -0.19664294 0.97801566 0.069403753 0.025376901
-0.077305704 -0.072442666 0.62456459 -0.71907526 0.48889926 0.49387074 0.087838523
-0.062493157 -0.093308181 0.66530049 -0.3641457 0.16002676 0.91749078 0.086436547
0.12222511 -0.35522145 0.49514276 0.3406564 -0.92855233 -0.14745744 0.15896055
0.08903084 -0.10142658 0.4034929 0.76128948 0.20977825 -0.61354005 0.070066966
0.10353528 -0.063566051 0.60063726 0.41826159 0.48218706 0.76977462 0.074140117
0.06665121 -0.067835815 0.60589689 0.23840412 0.6118691 0.75417495 0.080220535
-0.075928368 -0.054970909 0.57725787 -0.51989347 0.8341738 0.18402393 0.064190395
-0.034119971 -0.13969529 0.64681894 -0.12359098 -0.087155007 0.98849845 0.061426345
-0.058116712 -0.051430281 0.57580858 -0.29544932 0.94333261 0.15110654 0.046472564
-0.068307586 -0.056734733 0.60742903 -0.52335083 0.78228623 0.33783448 0.081571437
0.052719604 -0.079605639 0.61104327 0.22606651 0.50716323 0.83167267 0.080973856
0.024313821 -0.057435032 0.62186849 0.1807106 0.77841336 0.60117912 0.065067507
-0.04592488 -0.078044139 0.64747751 -0.19336706 0.47336754 0.85937899 0.10904571
-0.07064978 -0.061720811 0.62198091 -0.60080838 0.65620816 0.45653045 0.097117409
0.022260483 -0.11076737 0.62437332 0.32572299 0.22503327 0.91829443 0.027067959
0.076964229 -0.053856093 0.59122664 0.19695196 0.83644253 0.5114429 0.07520099
0.014176599 -0.055709735 0.60266382 0.10776626 0.90236014 0.41729197 0.058575418
0.088691868 -0.067485131 0.60377109 0.34864953 0.50754416 0.78793561 0.065571003
-0.05387209 -0.095643148 0.64750201 -0.38769585 0.24807513 0.88777846 0.10626162
0.12002432 -0.065731153 0.59073251 0.54129565 0.43418023 0.72006005 0.080888003
-0.054392032 -0.15495527 0.64375031 -0.44651508 -0.091168277 0.89011943 0.071098506
-0.0058900458 -0.069551215 0.63323057 0.15492719 0.69513142 0.70199001 0.064382233
0.10060345 -0.10694537 0.59940743 0.47828797 0.20792209 0.85323435 0.038814802
0.061186895 -0.10599887 0.61113566 0.32388601 0.26314512 0.90876424 0.038376372
0.087304808 -0.23269688 0.60867161 0.4361563 0.078645013 0.89642769 0.0098879011
0.034229569 -0.19064841 0.62384695 0.32149616 0.027946319 0.94649845 0.00041349125
-0.0030102723 -0.13490291 0.63689834 0.2010296 0.0070639881 0.97955966 0.014846687
0.10932314 -0.13771626 0.5957098 0.5435937 -0.025042551 0.83897483 0.035518724
-0.033366621 -0.25182658 0.64417857 -0.10452969 0.00088395126 0.99452132 0.049606934
-0.024576943 -0.1590008 0.64673996 0.023050362 -0.024535123 0.99943316 0.035397656
-0.0342503 -0.21056341 0.64446342 -0.067748517 6.8905698e-05 0.99770242 0.046499487
0.065135702 -0.30230057 0.62012666 0.31022668 -0.039529789 0.94984049 0.017022932
0.036338162 -0.25018603 0.62280464 0.30406129 0.035340063 0.95199668 0.00036327346
0.0064280033 -0.21483634 0.6333586 0.24827862 -0.0039864592 0.9686805 0.0042853151
0.029829156 -0.23894899 0.62671047 0.30062231 0.034599066 0.95311552 0.00035563097
0.12894885 -0.20123446 0.58794248 0.82217771 -0.0326089 0.56829613 0.051128227
0.13353986 -0.337827 0.58917439 0.71268892 -0.20654683 0.67038262 0.15112907
0.1252353 -0.17993483 0.5899514 0.74219966 -0.028463798 0.66957414 0.044330236
0.13059354 -0.16700654 0.58612603 0.76286268 -0.0086385692 0.64650285 0.049719859
0.12957528 -0.28531498 0.5887925 0.82664382 0.061820708 0.55931932 0.048874229
-0.0028338018 -0.13368602 0.63907075 0.20947814 0.014071087 0.97771209 0.013244325
0.11307921 -0.096728854 0.59366184 0.57633185 0.28585586 0.76558995 0.063478112
0.12496544 -0.36330467 0.59061641 0.5062691 -0.67530316 0.5363369 0.15273274
0.12630601 -0.073654495 0.58740109 0.63060212 0.38962477 0.67121792 0.085070722
0.071817331 -0.13296266 0.60975665 0.3619144 0.050638683 0.93083489 0.002727817
0.13843741 -0.29752254 0.58313727 0.90325314 0.11629982 0.41304737 0.048633091
0.061473548 -0.13019712 0.612324 0.33804712 0.082108796 0.93754059 0.0028683655
0.11947578 -0.27228424 0.59316677 0.70675093 0.015708324 0.70728797 0.050532378
0.088913091 -0.24036115 0.60844582 0.4628166 0.047946341 0.88515633 0.01369282
0.12150175 -0.11427613 0.59095097 0.62774724 0.13915084 0.76587892 0.048463844
0.10827388 -0.25444412 0.6008333 0.59682012 0.043107476 0.8012163 0.038327456
0.0037287739 -0.19894661 0.63422167 0.23597009 -0.0056390315 0.971744 0.0053230952
0.113751 -0.3414315 0.6067673 0.55317301 -0.22579353 0.8018834 0.095218964
-0.071402714 -0.29078409 0.65215403 -0.80492711 0.068952292 0.5893538 0.035478346
0.056042023 -0.13627826 0.61543745 0.34022939 0.052344054 0.9388845 0.0011182063
0.114554 -0.055294447 0.49625492 0.53511399 0.8309406 -0.15228498 0.073009707
-0.091607086 -0.04884487 0.48270488 -0.44181401 0.89495009 0.062166117 0.075250961
-0.048242584 -0.04915617 0.49297231 -0.079758823 0.99675232 0.011105062 0.0058895405
0.11469924 -0.052497718 0.51282972 0.46871129 0.87781572 -0.098738365 0.068856552
0.10688116 -0.052064259 0.49816817 0.40985334 0.90521139 -0.1123063 0.067446731
0.1193267 -0.064116552 0.51552171 0.66730243 0.73340017 -0.12973681 0.084438026
0.085398667 -0.065225683 0.40250987 0.58601481 0.62314659 -0.51795262 0.12240131
0.11198728 -0.051476303 0.56966519 0.43309137 0.86135042 0.26553199 0.087215535
-0.084606647 -0.048905689 0.47639355 -0.32982063 0.9437269 0.024454512 0.058429193
0.051027447 -0.048478838 0.53400588 0.037537389 0.99797595 0.051331885 0.0045280177
0.11118519 -0.051576816 0.48434123 0.48474792 0.86508471 -0.1290267 0.068799913
0.10639858 -0.049976338 0.46569464 0.47060773 0.87365901 -0.12348454 0.070490018
0.095686719 -0.057895292 0.43504378 0.53620464 0.79018044 -0.29681563 0.074213199
0.099809915 -0.049821027 0.5673703 0.31851542 0.91224062 0.25761417 0.0761884
0.13202669 -0.054257903 0.55708253 0.69626445 0.69482243 0.18010429 0.090851039
0.079127081 -0.071890049 0.39114553 0.55388415 0.53064185 -0.64158511 0.13177131
-0.016757565 -0.048059799 0.47769719 -0.016534798 0.99959421 -0.023195354 0.00077929243
0.11615437 -0.058420211 0.50630713 0.53677332 0.83197522 -0.14032696 0.071733609
0.095968768 -0.049056996 0.4531689 0.35818452 0.92235988 -0.14476201 0.053847637
0.088687353 -0.055286344 0.42640617 0.4566454 0.83423263 -0.30908078 0.079818688
0.13104604 -0.071372278 0.5757494 0.78352904 0.44615939 0.43246281 0.094113909
0.13038389 -0.2840611 0.51351935 0.98188907 0.023710944 -0.18796702 0.0090142377
0.13242526 -0.13235593 0.58334321 0.75938964 -0.012542059 0.65051526 0.06479881
0.14357132 -0.36387983 0.57982665 0.46324214 -0.78685081 0.40776518 0.17348388
0.11000545 -0.28395221 0.44321045 0.92619979 0.0071761878 -0.37696481 0.003263949
0.14104882 -0.1038719 0.57858109 0.85688835 0.17653525 0.48433208 0.069736876
0.13363323 -0.14768419 0.58224624 0.77381295 -0.00980365 0.63333833 0.054785185
0.14120965 -0.18182227 0.57623339 0.91187871 -0.063629977 0.40549785 0.050400369
0.11948772 -0.15041712 0.48239219 0.95134991 0.021676572 -0.30734909 0.00051707239
0.10964886 -0.21616569 0.44467854 0.92211843 0.029005477 -0.38581899 0.0024583803
0.13526368 -0.15107715 0.57878113 0.82119185 0.008569058 0.57058787 0.052560966
0.12120195 -0.10730149 0.48768985 0.92845374 0.21660984 -0.30175129 0.026231464
0.1439257 -0.07689888 0.57598346 0.84560829 0.35961112 0.39449519 0.089699514
0.1399755 -0.20707969 0.5731191 0.90686923 -0.055919521 0.41768569 0.045826092
0.12862691 -0.10981346 0.51454633 0.96691614 0.14955461 -0.20665589 0.021902408
0.12671961 -0.24471444 0.49744692 0.96381867 0.017195392 -0.26600367 0.001151755
0.13782036 -0.28551823 0.54848802 0.99454761 0.080017678 0.066874854 0.03162393
0.12036124 -0.082424678 0.49497417 0.86458486 0.41253367 -0.28689557 0.065036483
0.13317657 -0.17290844 0.58343822 0.79027647 -0.029232163 0.61205286 0.049898159
0.14018536 -0.35891876 0.5434643 0.30341694 -0.95112067 0.057512533 0.19040915
0.081413761 -0.12399362 0.39070189 0.67203104 0.053905223 -0.73855835 0.032867964
0.1054833 -0.35272107 0.45065472 0.38490936 -0.91616279 -0.11176115 0.15135741
0.11558826 -0.10703333 0.4722524 0.92308855 0.21592242 -0.31825304 0.024206523
0.090108462 -0.23445725 0.3995634 0.70293021 -0.00075870502 -0.71125847 0.049090579
0.081858955 -0.12289871 0.39144018 0.68027252 0.062687248 -0.73027372 0.035539698
0.12376909 -0.21340445 0.49118897 0.96276242 0.024809862 -0.26920819 0.0011434292
0.10536245 -0.12870595 0.44447589 0.9253425 0.029389288 -0.37799138 0.0021541147
0.14303845 -0.15953524 0.56874746 0.92301339 0.016074747 0.38443187 0.056468934
0.12576145 -0.29158807 0.49731895 0.95981312 -0.004714563 -0.28060028 0.0060006767
0.13814309 -0.29934454 0.56795013 0.96948814 0.13285717 0.20601396 0.057982292
0.11737247 -0.14138444 0.47545326 0.94814676 0.020095278 -0.31719685 0.00046229575
0.091058962 -0.19303788 0.40129632 0.79882991 0.0047131493 -0.60153848 0.031846832
0.1356657 -0.2257368 0.56915027 0.92748976 -0.060862593 0.36886096 0.057433847
0.11485083 -0.10501167 0.47164077 0.92424774 0.21619703 -0.31468233 0.023405699
0.13378562 -0.18688297 0.53135204 0.99785703 0.0051622265 -0.065227814 0.02164517
0.14323737 -0.11211463 0.57194424 0.89520752 0.12505604 0.42774346 0.065394975
0.10200831 -0.3572748 0.44691703 0.25833818 -0.96055484 -0.10293534 0.12235866
0.14095649 -0.13831402 0.56618196 0.9206605 0.0036886816 0.39034668 0.068327375
0.095422879 -0.14210869 0.41888446 0.86581481 0.0026632228 -0.50035739 0.019036466
