# .PCD v0.7 - Point Cloud Data file format
VERSION 0.7
FIELDS x y z
SIZE 4 4 4
TYPE F F F
COUNT 1 1 1
WIDTH 1384
HEIGHT 1
VIEWPOINT 0 0 0 1 0 0 0
POINTS 1384
DATA ascii
0.062667027 -0.16878331 0.60800332
0.13697749 -0.2224095 0.58249217
-0.084983774 -0.04972839 0.61043012
0.0066296309 -0.1125976 0.62916058
0.095905706 -0.30220261 0.60637051
0.1071362 -0.1126127 0.59650022
-0.075331092 -0.1165171 0.64262778
0.02690042 -0.29665181 0.63195372
-0.13950559 -0.33531711 0.47987071
0.034679409 -0.16630469 0.61979407
0.050586011 -0.258017 0.61579841
0.12739541 -0.1859457 0.58709347
-0.077278219 -0.1517079 0.62692207
0.067087397 -0.30258641 0.61686039
-0.084916629 -0.3055025 0.62967128
0.042784989 -0.1377334 0.61660898
0.0364663 -0.1573687 0.61854839
0.1320795 -0.30904329 0.58389902
0.056947831 -0.13503189 0.61245137
-0.1048908 -0.046970841 0.47507519
0.09362407 -0.043294851 0.4916617
0.1107033 -0.04554319 0.56844598
0.1022995 -0.047655359 0.53143591
0.0298965 -0.045656841 0.61378407
-0.035057459 -0.073646463 0.63927323
0.13431869 -0.049608801 0.57992631
0.1171318 -0.053825859 0.57135588
0.1224453 -0.2235959 0.59056872
-0.1205604 -0.04878366 0.46489829
0.05169845 -0.24679349 0.60369211
0.034694079 -0.045810279 0.474848
0.079766087 -0.048026059 0.4795748
0.039624039 -0.050669249 0.54041892
0.03600103 -0.040977482 0.40820539
0.1118485 -0.051670071 0.48507139
0.082822889 -0.049119741 0.42546299
0.02944711 -0.04843235 0.52869779
0.085181363 -0.04551306 0.54277653
0.083810568 -0.04761767 0.50443941
-0.06778121 -0.2035391 0.64932168
-0.050282091 -0.076003157 0.64474308
-0.04132989 -0.083187342 0.64144617
-0.1240783 -0.048662718 0.46296319
-0.082302809 -0.0471051 0.59756953
-0.068402193 -0.080832928 0.65186971
-0.0072914958 -0.051796731 0.40016279
0.080528617 -0.13261861 0.60386992
0.066155307 -0.04699624 0.56003678
0.070508182 -0.04904392 0.59553272
0.058834761 -0.1084218 0.60390192
0.1287773 -0.1055649 0.58303583
0.1324272 -0.050057739 0.54391438
0.075695187 -0.1279958 0.60613942
0.02028084 -0.05018184 0.62149942
0.0052385931 -0.05107012 0.55946767
0.1104402 -0.05789867 0.58547962
0.1229201 -0.1577415 0.58687598
0.04439446 -0.055389822 0.61074817
0.09748891 -0.153964 0.59245777
0.06167743 -0.052301701 0.59480149
0.00094041228 -0.2250008 0.63078582
0.1132926 -0.1968644 0.57909489
-0.069839567 -0.21305621 0.64753222
0.1248347 -0.27739111 0.58592612
0.12593991 -0.1384491 0.58614212
0.038641069 -0.22211739 0.62182242
0.036356121 -0.084956437 0.61358392
0.052400261 -0.094932713 0.60567713
0.14115679 -0.1204297 0.57454962
-0.080901504 -0.048017979 0.47791159
0.01904756 -0.05263108 0.62190628
-0.02672535 -0.049013641 0.63385558
0.093575388 -0.052990761 0.59114277
0.124698 -0.2257999 0.58717608
-0.098155499 -0.12710699 0.57527792
-0.08715415 -0.28039849 0.62115139
0.13892969 -0.098064393 0.57803202
0.1355273 -0.1701555 0.58156478
-0.0098271966 -0.049477879 0.55749083
-0.066950977 -0.047374811 0.42671251
0.1284564 -0.1896127 0.58271319
0.06100959 -0.053666681 0.37577271
-0.082853504 -0.1712707 0.62464547
-0.05532223 -0.044516649 0.41187879
-0.067101963 -0.050896749 0.53109288
-0.056819919 -0.046575729 0.57407713
-0.063447803 -0.076618403 0.6521436
-0.093899518 -0.060216311 0.58443493
-0.138108 -0.1116902 0.46412209
-0.1143529 -0.095277943 0.52401888
-0.124128 -0.094399422 0.5051046
0.1096807 -0.1445815 0.59229559
0.049888939 -0.079779737 0.59399068
0.1497117 -0.2034443 0.56944168
-0.077557303 -0.1096005 0.62737322
-0.099674173 -0.087985717 0.56071079
-0.1080648 -0.32208371 0.56720972
-0.1032618 -0.1044556 0.56113797
0.1640691 -0.35685539 0.62443519
-0.079250038 -0.092148542 0.61394209
-0.039891601 -0.048530638 0.62551469
-0.036154151 -0.048697859 0.6022917
0.0059102769 -0.050600711 0.62221003
-0.140847 -0.051189959 0.4497883
0.1502772 -0.094998002 0.57379133
0.537287 -0.3620427 0.56078351
0.152217 -0.079851061 0.57753712
-0.13627011 -0.063025743 0.466748
-0.083916843 -0.2392976 0.62764019
-0.099272132 -0.05204621 0.49067709
0.033906221 -0.04500914 0.6075666
-0.1102394 -0.33690581 0.55700731
0.068410613 -0.045406312 0.57596648
-0.047524959 -0.050844971 0.62834471
-0.07889083 -0.32524759 0.65287149
-0.074930549 -0.086575568 0.64965922
-0.067407608 -0.04771762 0.63004869
-0.069515593 -0.039151039 0.43187949
0.079931319 -0.047251731 0.4798784
-0.1427277 -0.1051298 0.4460201
-0.06359899 -0.049169451 0.53287542
0.1114118 -0.045385782 0.56810337
-0.1422243 -0.31070569 0.4692103
-0.1426944 -0.1051194 0.44611749
-0.1407713 -0.05112825 0.4487969
0.079314291 -0.047235042 0.48056599
0.021395329 -0.35253209 0.86541128
-0.082362168 -0.3309167 0.64397478
-0.09607476 -0.094221652 0.59304798
-0.1047837 -0.1026777 0.56014693
-0.1057506 -0.099041522 0.55861372
-0.097095132 -0.081384078 0.57901692
-0.098824918 -0.073622167 0.60534018
-0.093841247 -0.049253639 0.59804177
-0.099886827 -0.074076667 0.58245748
-0.1322003 -0.26723471 0.49875799
-0.1401592 -0.33308351 0.48276269
-0.094478957 -0.14464641 0.59110349
-0.094981492 -0.28580081 0.61570227
-0.1036558 -0.18718091 0.57979453
-0.1370828 -0.2167487 0.4693425
-0.1201167 -0.2927703 0.53286558
-0.1415735 -0.29670319 0.4703393
-0.131952 -0.28905919 0.51503152
-0.1170076 -0.26178011 0.53154558
-0.1396102 -0.28097391 0.44659579
-0.09853071 -0.27544039 0.58496273
-0.1426405 -0.35312781 0.45603621
-0.088736892 -0.2872141 0.61690778
-0.089773417 -0.32807451 0.6174618
-0.1022412 -0.34355581 0.55959249
-0.1007176 -0.2452129 0.59300071
-0.099047303 -0.2799699 0.57751203
-0.099471211 -0.25773689 0.56027728
-0.077268541 -0.2781885 0.63607937
-0.092801958 -0.27464741 0.58775711
-0.071983702 -0.32577661 0.6529057
-0.092536896 -0.193206 0.58068037
-0.1139681 -0.1767118 0.53786981
-0.078234792 -0.33424881 0.63999021
-0.1033739 -0.1215563 0.53567111
-0.1234536 -0.04414605 0.46013811
-0.131891 -0.1152615 0.4601326
-0.13133749 -0.1070289 0.46791559
-0.076684617 -0.049532149 0.59671909
-0.1239486 -0.079872042 0.49193889
-0.1205283 -0.091156267 0.50465119
-0.086895533 -0.09680894 0.59466022
-0.087590873 -0.14838021 0.59313679
-0.1003736 -0.1020776 0.56030482
-0.1001971 -0.09784925 0.55787838
-0.112942 -0.093847603 0.53311157
-0.081862032 -0.053515851 0.59839272
-0.090695441 -0.077222303 0.58274692
-0.101858 -0.1373155 0.55385882
-0.1248268 -0.1203421 0.4827328
-0.1168349 -0.1428766 0.50740558
-0.1291001 -0.16575129 0.4800514
-0.12545989 -0.1190997 0.48707461
-0.091975927 -0.15386011 0.57115418
-0.131464 -0.14347181 0.47776791
-0.1179047 -0.1368541 0.50181538
-0.1247969 -0.126707 0.4925662
-0.091632597 -0.1659106 0.58189863
-0.1104214 -0.1060519 0.53833538
-0.1194889 -0.1125728 0.50667971
-0.084835559 -0.14822739 0.58903772
-0.079906113 -0.1641711 0.61924702
-0.085449517 -0.1297355 0.60007292
-0.076558441 -0.1361358 0.63118041
-0.1036433 -0.1289172 0.54935253
-0.1247335 -0.1371285 0.48406899
-0.090280414 -0.084177062 0.57821268
-0.073834479 -0.049256209 0.62191218
-0.1100605 -0.093964957 0.52686292
-0.083933383 -0.080596954 0.60098672
-0.1078413 -0.05999345 0.5420199
-0.086012073 -0.1322687 0.59469032
-0.120633 -0.07182008 0.49879399
-0.08575809 -0.084688373 0.60105759
-0.094861753 -0.1059907 0.56759357
-0.071292341 -0.1148148 0.63150728
-0.1033975 -0.055150431 0.54273772
-0.087185979 -0.06623818 0.59918451
-0.091094971 -0.04987736 0.57135361
-0.1173254 -0.05004723 0.50218832
-0.096839607 -0.063365869 0.566122
-0.095703721 -0.330769 0.56361723
-0.093458772 -0.31976661 0.58584309
-0.063827157 -0.2134807 0.65375352
-0.094159901 -0.31740549 0.60237008
-0.098814853 -0.13535801 0.5588823
-0.090745687 -0.2224115 0.59401017
-0.08871758 -0.26621321 0.61954492
-0.09208554 -0.084161192 0.58263218
-0.088930279 -0.31538349 0.60067397
-0.1193028 -0.093592517 0.50445563
-0.12691119 -0.1101937 0.4832294
-0.086951204 -0.32900289 0.61900592
-0.097325087 -0.29783741 0.58019942
-0.1130088 -0.113206 0.521505
-0.076451361 -0.066887878 0.62161469
-0.1233088 -0.04891032 0.4877961
-0.098129869 -0.047841761 0.48906061
-0.1284954 -0.048664749 0.47800541
-0.089470737 -0.27555501 0.60342783
-0.087927997 -0.099122137 0.59560323
-0.092361033 -0.152798 0.58130938
-0.13651051 -0.33068189 0.4622052
-0.092254221 -0.062850758 0.57720602
-0.099629313 -0.098231882 0.55092478
-0.073875517 -0.1511137 0.63353473
-0.1040768 -0.047159191 0.54424381
-0.14939649 -0.3652935 0.40037039
-0.1537504 -0.3614845 0.405462
-0.1054822 -0.1458167 0.54924899
-0.0938676 -0.2322308 0.58146077
-0.1253828 -0.1578494 0.48284069
-0.074125499 -0.094987981 0.63242823
-0.1078636 -0.084557243 0.53581882
-0.1293337 -0.06334424 0.46730101
-0.1116592 -0.080629013 0.50323927
-0.085976213 -0.1429131 0.59405029
-0.075759023 -0.1749566 0.62388182
-0.098578751 -0.31784949 0.58997369
-0.096051157 -0.092397533 0.55905128
-0.0754489 -0.3192921 0.65102208
-0.072434597 -0.216107 0.63513058
-0.1118227 -0.1063279 0.52768117
-0.1311675 -0.098239496 0.4732812
-0.1320899 -0.1166504 0.46920019
-0.1126052 -0.048794251 0.51484978
-0.086411543 -0.112725 0.58908802
-0.087507218 -0.34634459 0.6276226
-0.075446703 -0.1109481 0.62091547
-0.070953853 -0.16927139 0.63887203
-0.083338439 -0.2203342 0.61856812
-0.1381941 -0.13376699 0.4550997
-0.1394449 -0.3258146 0.4571355
-0.093555808 -0.067658328 0.57440919
-0.05006415 -0.04700613 0.58904737
-0.076410502 -0.2375536 0.63870198
-0.079785667 -0.1326738 0.60698032
-0.096633047 -0.2598289 0.57653958
-0.086457007 -0.24743751 0.60707611
-0.076000929 -0.2126248 0.63676459
-0.1133037 -0.1198914 0.5216347
-0.1094548 -0.1277514 0.53012067
-0.071372598 -0.1253769 0.641132
-0.083752237 -0.1623053 0.60684812
-0.09157896 -0.27718261 0.60938501
-0.1025165 -0.32354119 0.57828611
-0.081258543 -0.2484652 0.62688571
-0.13059171 -0.2239138 0.50050771
-0.1258782 -0.1414986 0.49819329
-0.09372884 -0.23754831 0.58496612
-0.07773608 -0.26446909 0.63105631
-0.092863739 -0.31830469 0.60837728
-0.082715482 -0.2206123 0.62098223
-0.096999697 -0.290851 0.58532143
-0.098752923 -0.3014648 0.57442367
-0.091779709 -0.3523992 0.6060335
-0.1138884 -0.217416 0.53009361
-0.076943867 -0.25644431 0.6487987
-0.080214798 -0.30182081 0.64437228
-0.099431038 -0.19904821 0.5637852
-0.1112952 -0.046003141 0.474695
-0.075158298 -0.1187875 0.62976962
-0.1176313 -0.15694159 0.50803453
-0.081468582 -0.25817159 0.62082809
-0.082905352 -0.078843594 0.6063354
-0.02351415 -0.050203349 0.60002393
-0.078721642 -0.049237762 0.57678658
0.1068733 -0.04542017 0.53164017
-0.070777424 -0.04531309 0.53648323
-0.074910037 -0.1019846 0.63428068
-0.067969047 -0.062795788 0.62734562
-0.1062621 -0.093043379 0.53405648
-0.073252559 -0.2356745 0.64383012
-0.088394307 -0.081100881 0.6212365
-0.086431026 -0.27406219 0.62584507
-0.081198223 -0.1694005 0.63015932
-0.095290303 -0.1655219 0.58004671
0.019999331 -0.04582886 0.53826702
-0.1264212 -0.220017 0.48470759
-0.1259446 -0.20941371 0.48446649
-0.1272198 -0.1737037 0.48341829
-0.1257101 -0.1803053 0.49684811
-0.1243768 -0.1961676 0.49877161
-0.086555421 -0.15188991 0.60156047
-0.1035039 -0.1551313 0.5458194
-0.1211353 -0.088913113 0.49437499
-0.1253777 -0.2217741 0.50903159
-0.089644551 -0.046245899 0.4755238
-0.1275519 -0.26829839 0.5000605
-0.1407766 -0.35910049 0.45040971
-0.126248 -0.1487513 0.4909547
-0.1343326 -0.1546618 0.46139291
-0.1357061 -0.14943901 0.46364501
-0.1322172 -0.34820881 0.49497181
-0.14171471 -0.3040475 0.45759109
-0.12879729 -0.28127819 0.49719071
0.088374317 -0.0462735 0.54197848
-0.03119093 -0.0455174 0.55922377
-0.045053359 -0.049502999 0.55750239
-0.1192102 -0.18195 0.51311612
-0.1072862 -0.30540219 0.55810118
-0.1025316 -0.2531451 0.59464109
-0.1013111 -0.2557075 0.56466269
-0.083085887 -0.23632941 0.62978911
-0.070358463 -0.29623601 0.65451783
-0.094438493 -0.28148079 0.58974558
-0.080275178 -0.05476293 0.63183087
-0.1165927 -0.1659732 0.53147131
-0.083465673 -0.3011196 0.63093108
-0.094352573 -0.2934542 0.5977487
-0.1147941 -0.2012887 0.52180278
-0.008315742 -0.050486371 0.56954151
-0.1013553 -0.25669831 0.55930507
-0.1074683 -0.2577399 0.54866701
-0.1277556 -0.2338102 0.48548979
-0.1323496 -0.34054691 0.50139219
-0.078508496 -0.2842845 0.62824571
0.1001295 -0.047081899 0.56048119
-0.1017898 -0.29412889 0.56518322
-0.087617703 -0.29728729 0.62266052
-0.1248198 -0.2030393 0.50432092
-0.083822072 -0.1841639 0.61129153
-0.1165853 -0.30735299 0.55343473
-0.062080681 -0.28475761 0.64995873
-0.1036492 -0.28415 0.5692026
-0.26521119 -0.36332679 0.4216297
-0.1161391 -0.1684742 0.51381928
-0.085225217 -0.3005192 0.63524681
-0.1069412 -0.26063439 0.55354959
-0.1176968 -0.16600689 0.51625592
-0.1195701 -0.2340501 0.51047271
-0.1345686 -0.2805841 0.4952479
-0.119403 -0.22006001 0.51908767
-0.1364971 -0.3342576 0.48252779
-0.1413898 -0.16637801 0.4477931
-0.1362839 -0.1854112 0.4632301
-0.1312594 -0.25061801 0.4762423
-0.1372565 -0.1691653 0.4637408
-0.1420628 -0.33419949 0.4671945
-0.14058089 -0.1629364 0.44809711
-0.1193405 -0.33873281 0.50496072
-0.131375 -0.26538119 0.4854908
-0.1330597 -0.33720079 0.4740833
-0.1315092 -0.2755779 0.47838119
-0.13899051 -0.16783109 0.4623501
-0.13909739 -0.27419379 0.4478507
-0.13723861 -0.2988019 0.47569051
-0.13869371 -0.295699 0.4669551
-0.12924761 -0.2260371 0.47730029
-0.13538919 -0.2154641 0.4631536
-0.1347193 -0.25919431 0.48612061
-0.14125329 -0.31822041 0.4558948
-0.13831811 -0.15373591 0.4515059
-0.1281171 -0.21581361 0.47610199
-0.1389292 -0.2104889 0.4538497
-0.12673721 -0.2336147 0.49031359
-0.1365006 -0.26050889 0.4747166
-0.1398945 -0.3531093 0.46808979
-0.1408052 -0.29051429 0.4545221
-0.12993591 -0.28501251 0.50737089
-0.1301337 -0.25652629 0.4908677
-0.1349919 -0.35258141 0.4902491
-0.13877711 -0.26203081 0.45898321
-0.13223051 -0.3153441 0.47164279
-0.1419469 -0.180189 0.44431061
-0.139162 -0.22389591 0.45408499
-0.1322698 -0.203205 0.46809179
0.087911248 -0.043956179 0.51142001
0.087206483 -0.045698252 0.46293691
0.041941941 -0.04753248 0.5415827
0.044156339 -0.045379709 0.47348699
0.0091461241 -0.044241671 0.6186322
-0.072135814 -0.093502522 0.6450839
-0.091723323 -0.04636272 0.52806932
0.05827802 -0.047432501 0.6050095
-0.022628009 -0.046850879 0.46639341
-0.1183583 -0.29109749 0.5366925
-0.1123904 -0.26499379 0.52833581
-0.13061839 -0.28780729 0.52608597
-0.1232077 -0.33331791 0.50626439
-0.1220952 -0.29262659 0.51535368
-0.1230695 -0.2767348 0.51204419
-0.08478564 -0.30159381 0.6301682
-0.1219066 -0.27041331 0.51737958
-0.1240865 -0.227704 0.52138811
-0.1214913 -0.26206571 0.50752717
-0.086521238 -0.2888301 0.62961268
-0.1286516 -0.05827903 0.49435401
-0.1341338 -0.1495779 0.47200549
-0.1271228 -0.22103991 0.46649599
-0.1383948 -0.24769349 0.44921169
-0.2024262 -0.36070561 0.45689809
-0.1059844 -0.3185586 0.57077628
-0.1151766 -0.3386986 0.54090482
-0.072855562 -0.1441326 0.63476861
-0.060744461 -0.049842991 0.54813182
-0.057248119 -0.048226409 0.47278589
-0.13021959 -0.29659161 0.48566759
-0.1153617 -0.31674501 0.5501833
-0.097500153 -0.060123939 0.57544982
-0.022342149 -0.051215731 0.6160304
0.002715528 -0.044502161 0.50066859
-0.1145781 -0.34069419 0.54455441
-0.1008476 -0.30200851 0.58643472
-0.1352592 -0.240463 0.46070081
-0.1402954 -0.077758387 0.44497141
-0.1061568 -0.3469089 0.57370669
-0.095975578 -0.27656591 0.57026869
-0.1430274 -0.3104327 0.436553
-0.1051193 -0.3441492 0.56932372
-0.1166813 -0.3016744 0.52515471
0.034882549 -0.048705392 0.44583091
-0.069437653 -0.1021971 0.64859623
-0.1136211 -0.1265524 0.50571442
-0.089182436 -0.2481336 0.59850591
-0.1325786 -0.3510893 0.48075211
-0.1028568 -0.2393699 0.56778789
-0.12773371 -0.3241795 0.47489899
-0.14147291 -0.31301501 0.45111951
-0.1172215 -0.32817259 0.51691031
-0.36920929 -0.36141169 0.49972311
-0.088637739 -0.29679319 0.60749251
-0.1131694 -0.34344789 0.54611349
-0.1133345 -0.19725829 0.53479141
-0.083682843 -0.1645615 0.59952867
-0.086773068 -0.219833 0.61181432
-0.079743467 -0.1383018 0.61846232
-0.086922437 -0.19322041 0.60028338
-0.076886363 -0.25345191 0.64009893
-0.1031033 -0.27564511 0.55914181
-0.1153642 -0.2250607 0.53222781
-0.1047752 -0.29533279 0.54945779
0.02813518 -0.047409318 0.40732041
-0.029398531 -0.047931582 0.4890767
-0.1097054 -0.098549567 0.53399438
-0.067744553 -0.04758507 0.45742899
-0.1245461 -0.07399863 0.50759071
-0.1131001 -0.089971378 0.52942997
-0.069209099 -0.055839419 0.4708443
-0.1337478 -0.052420769 0.4463197
-0.13901301 -0.065685727 0.44312239
-0.13959619 -0.079666242 0.44554579
-0.1333157 -0.056201309 0.46207461
-0.001837254 -0.049821202 0.40184209
-0.089052737 -0.1443944 0.58664948
-0.08563143 -0.153503 0.59521508
-0.1030769 -0.1889229 0.55659378
-0.1385176 -0.069038823 0.43599501
-0.1287152 -0.1163474 0.48296899
-0.12811559 -0.1603698 0.47432131
-0.1248017 -0.1670101 0.4792957
-0.14143629 -0.067443252 0.44908461
-0.1172663 -0.1834704 0.51189542
-0.1285708 -0.153533 0.49218759
-0.1356077 -0.33599091 0.48364699
-0.1211794 -0.23010179 0.51154339
-0.1134276 -0.29861549 0.53357792
-0.1128722 -0.2647804 0.53195328
-0.13199779 -0.2194901 0.4724839
-0.1246499 -0.27741909 0.5112645
-0.085207701 -0.04835422 0.57475883
-0.0818578 -0.054566931 0.59873778
-0.1095802 -0.3329311 0.56170952
-0.1142113 -0.29853281 0.55866379
-0.091913402 -0.077391759 0.5833047
-0.1251798 -0.1873571 0.4930087
-0.09926939 -0.25953791 0.5775401
-0.1363982 -0.301364 0.46976101
-0.1295626 -0.252078 0.47712949
-0.1241326 -0.334178 0.5073036
-0.1246261 -0.28836909 0.51733208
-0.13816971 -0.1993134 0.4510625
-0.1401011 -0.2497839 0.45295069
-0.1389063 -0.13233081 0.45202151
-0.1391423 -0.17378929 0.45962781
-0.12826049 -0.2718181 0.4854233
-0.1233928 -0.29211521 0.50246269
-0.1311001 -0.3487564 0.49815831
-0.1384166 -0.2286981 0.44589561
-0.0269804 -0.1495056 0.40120351
-0.11047 -0.16790859 0.42924079
-0.1404406 -0.25093079 0.43685731
-0.12710451 -0.2038964 0.50545162
-0.1129727 -0.2195027 0.52909797
-0.08292371 -0.04827999 0.54302269
-0.1375076 -0.18541899 0.46385041
-0.05083013 -0.049512371 0.49427211
-0.13861521 -0.1504361 0.44951391
-0.089542873 -0.2283908 0.41562259
-0.091690838 -0.1274097 0.42444801
-0.13863879 -0.1359823 0.43830901
-0.13628571 -0.34653029 0.44413731
-0.1077493 -0.049967099 0.46751091
-0.13383231 -0.285557 0.44665211
-0.13603079 -0.17226429 0.46518329
-0.135855 -0.3350949 0.472662
-0.1200793 -0.1152394 0.5056088
-0.062590599 -0.29217401 0.4112474
0.1012923 -0.049839061 0.50468129
-0.1159959 -0.1210121 0.43311039
-0.1136951 -0.34461859 0.54464167
-0.1125357 -0.1582642 0.43290669
-0.1174245 -0.21833859 0.42810911
-0.006088376 -0.24645101 0.3915236
-0.039777339 -0.2910288 0.40399319
-0.13717639 -0.15582021 0.46426761
-0.1082633 -0.28951049 0.54764748
-0.1196025 -0.35651809 0.48780721
-0.123303 -0.1869473 0.4920159
0.044531349 -0.3180891 0.37899289
-0.049036149 -0.2358422 0.40306389
-0.12547091 -0.2428021 0.492594
-0.1653544 -0.3599467 0.3840186
0.052825332 -0.36040691 0.30001149
-0.0077249408 -0.31296489 0.38876349
-0.060049828 -0.26499251 0.40788221
0.082417794 -0.33871359 0.36264759
0.037061211 -0.36080781 0.33498681
-0.01260215 -0.20991249 0.39429909
-0.1222124 -0.073930427 0.4847118
-0.1366969 -0.31185669 0.4395524
-0.14038619 -0.32042629 0.4577758
-0.1005421 -0.061448801 0.53656071
0.062725127 -0.214021 0.36876601
0.0258804 -0.20310751 0.384749
-0.135094 -0.28150699 0.45402119
0.030103499 -0.2086738 0.38406479
-0.040136341 -0.1060925 0.41071621
-0.091528893 -0.19786669 0.4246408
-0.01411378 -0.2469403 0.39062431
-0.059119642 -0.1204677 0.4134481
0.02976626 -0.1374781 0.38305521
0.079444468 -0.2573927 0.37026951
0.064654529 -0.049182039 0.389981
0.058358729 -0.035456609 0.47060341
0.1072869 -0.06215997 0.49039641
-0.03309923 -0.04626115 0.44466591
0.024161641 -0.044347212 0.44565251
0.098971613 -0.045173749 0.47119719
0.1094944 -0.052332919 0.44427079
0.058336262 -0.063832387 0.45171869
0.078648269 -0.04135935 0.46591961
-0.09593308 -0.082141653 0.42354301
-0.051635679 -0.091107063 0.40907499
0.060679611 -0.1189068 0.3675476
-0.070658617 -0.093009733 0.41723511
0.062936962 -0.179928 0.37056211
-0.075289547 -0.28270581 0.41482621
-0.076808572 -0.33630079 0.41799951
-0.065749757 -0.2860758 0.4064154
-0.01698279 -0.16156989 0.40038621
-0.03974545 -0.1446218 0.40306011
-0.075748682 -0.30359039 0.4159179
0.051091071 -0.2786158 0.36839199
0.043118421 -0.2425942 0.37862679
0.042861521 -0.3542816 0.38040841
-0.0564394 -0.1365955 0.40952539
0.038448751 -0.2702699 0.37605819
0.05756158 -0.30570081 0.37297741
-0.093680382 -0.055538699 0.4676486
0.05501521 -0.046840832 0.52952981
-0.1247608 -0.078706987 0.49266249
0.018371221 -0.05703558 0.57264471
0.03927565 -0.04515456 0.5626002
0.040135499 -0.057445928 0.57859212
-0.068496108 -0.1151951 0.64566499
-0.091171861 -0.073948458 0.60760349
-0.12642141 -0.26985529 0.49872401
-0.1150835 -0.30244169 0.56420678
-0.073430121 -0.2361068 0.64401561
-0.1424658 -0.35415971 0.45566821
-0.1263064 -0.1227723 0.4824326
-0.065298863 -0.2212244 0.64452368
-0.13524251 -0.1277757 0.43663359
-0.1265934 -0.1374348 0.48984301
-0.063242137 -0.3633543 0.34431949
-0.036988199 -0.1571324 0.5994072
-0.091450207 -0.048531611 0.55959892
-0.1254193 -0.1791596 0.43584451
-0.13151529 -0.35099801 0.43345401
0.001501083 -0.26692811 0.38016179
-0.073624067 -0.093490534 0.64388102
-0.12913039 -0.07315813 0.43754771
-0.1274258 -0.22005761 0.4788537
-0.076461971 -0.135242 0.63113391
-0.1142737 -0.2295039 0.56607139
-0.1400519 -0.2115244 0.45385131
-0.1338778 -0.1847644 0.43762431
-0.25429761 -0.362894 0.33991709
0.1462194 -0.36417669 0.3403227
-0.1180456 -0.2398005 0.5563637
-0.071950383 -0.26450241 0.64476448
-0.1117817 -0.24792279 0.56007391
-0.069671333 -0.26203039 0.6487788
-0.1244079 -0.044646461 0.50567979
-0.1113112 -0.088842317 0.4296352
-0.13558809 -0.26364431 0.4464626
-0.12729511 -0.21500561 0.4909403
-0.1162363 -0.16684639 0.42894471
-0.1151765 -0.33580711 0.5694558
-0.12803601 -0.2109469 0.43437901
0.070151389 -0.36453101 0.33758101
-0.1104969 -0.2527366 0.42233279
-0.064921141 -0.05567484 0.65299553
0.1006622 -0.35916159 0.31554601
-0.1086008 -0.31699809 0.55103052
-0.113551 -0.151908 0.43378451
-0.2392437 -0.3631953 0.24596409
-0.1176289 -0.1031126 0.42880219
-0.1103982 -0.2685324 0.55873108
-0.091370337 -0.222459 0.59325463
-0.1087747 -0.054675959 0.53279352
-0.050864041 -0.046123169 0.4187856
-0.04143006 -0.045335799 0.4708544
-0.1402718 -0.120451 0.43783289
-0.067470491 -0.04513311 0.45278439
0.018177271 -0.04887699 0.4623737
-0.008138895 -0.047332902 0.4010689
0.069833457 -0.043557901 0.4074454
0.076228023 -0.048083771 0.41578349
0.076093078 -0.048702311 0.39805269
-0.064083867 -0.04601872 0.52740341
0.027793171 -0.044830859 0.40944809
0.054592371 -0.045211211 0.53077543
0.01395327 -0.045146029 0.4086161
0.02007699 -0.043227181 0.41896501
0.07848227 -0.040079329 0.45414001
0.023869811 -0.043864649 0.40133199
0.071268678 -0.042493019 0.50032479
0.02604598 -0.038696289 0.4209784
-0.084948838 -0.043925211 0.59302533
0.081272483 -0.04654792 0.43213919
-0.037477251 -0.052190211 0.49509171
-0.1078848 -0.33363849 0.56187648
0.1155595 -0.042237949 0.56642151
-0.079254933 -0.045857951 0.53165841
-0.01636976 -0.04850401 0.40608981
0.1250747 -0.04138403 0.55542028
-0.02897292 -0.048597042 0.4720231
0.1098083 -0.054764751 0.50274467
0.060091142 -0.04384603 0.51906931
-0.094596453 -0.04545933 0.55729622
-0.0998438 -0.1033569 0.55919403
-0.083039276 -0.047730912 0.57699251
-0.099567167 -0.065718919 0.57306468
-0.065930247 -0.04746956 0.5695653
0.040798489 -0.044080909 0.52177948
-0.0061326618 -0.03711015 0.56359428
0.097147226 -0.04653427 0.56249517
-0.055291411 -0.044126179 0.52251989
0.075866401 -0.04628497 0.55832481
-0.05599916 -0.040956501 0.48225299
-0.092841923 -0.14090011 0.58481711
-0.073421121 -0.2350903 0.64396632
-0.1009111 -0.071799777 0.58188152
0.0046869521 -0.044470731 0.54273671
-0.02120751 -0.04522166 0.52316952
-0.03055596 -0.043389648 0.44207719
0.1072066 -0.046545889 0.533158
-0.059071299 -0.043208811 0.55946523
-0.037561301 -0.045041919 0.60003221
0.044982851 -0.047956381 0.56116188
-0.090267539 -0.096731618 0.59233189
-0.088013649 -0.056771901 0.59062678
0.02766663 -0.044883639 0.44703639
-0.1144574 -0.1042441 0.53521281
0.084606893 -0.047371659 0.58689499
0.05803806 -0.045190129 0.47915411
0.068656437 -0.04865855 0.54897523
0.036609229 -0.049331341 0.53355068
-0.080886297 -0.037039071 0.48008439
-0.078215539 -0.038978189 0.61031789
-0.084153406 -0.04882345 0.54254162
-0.069005489 -0.0472694 0.60458839
-0.024776399 -0.04912195 0.60654628
-0.0098718395 -0.05134562 0.60011983
-0.032423019 -0.045957919 0.55743438
-0.059712771 -0.047487799 0.61659348
-0.044487711 -0.04550761 0.4714956
-0.02181679 -0.0434843 0.50894392
-0.01211387 -0.04959568 0.57169932
-0.097858429 -0.059292018 0.57794082
0.028091731 -0.04878005 0.46640569
-0.092217267 -0.072373688 0.60688847
-0.0002222061 -0.04842576 0.43974191
-0.024332579 -0.049234569 0.4791294
-0.00669378 -0.04518291 0.52324247
-0.050687019 -0.044210941 0.56592029
0.0020837779 -0.043148428 0.44614199
-0.091244943 -0.1222741 0.60868931
0.01164234 -0.04607043 0.56780511
-0.073392332 -0.1116852 0.64216602
-0.080189228 -0.055204239 0.62805247
-0.077128887 -0.043198261 0.54243392
0.01911849 -0.043748349 0.43117061
0.095716767 -0.04406419 0.42954701
-0.092080832 -0.059912 0.58716798
-0.092702977 -0.1307196 0.57492179
-0.074240454 -0.1128299 0.6415087
-0.088212609 -0.077994697 0.61265802
0.042549491 -0.04511261 0.55708122
-0.067125022 -0.046958711 0.46019909
-0.1002607 -0.076083153 0.58004689
-0.088025898 -0.15868901 0.61776578
-0.09145993 -0.049263451 0.59836107
-0.096341789 -0.1020873 0.55806118
-0.092382491 -0.1274077 0.6006906
-0.096010797 -0.077022672 0.5920428
-0.1019874 -0.062251691 0.53930563
-0.1031694 -0.1272327 0.5416162
-0.07316339 -0.13862319 0.63258642
0.077318907 -0.047952201 0.43941489
0.1186778 -0.045669079 0.5469662
-0.096322887 -0.070054829 0.60040969
-0.078701727 -0.090130843 0.6431936
-0.066439033 -0.125432 0.65242177
-0.071941078 -0.1142634 0.63319027
-0.1030462 -0.1301166 0.55403417
-0.049178839 -0.04487833 0.53338468
-0.073587947 -0.085093409 0.65034997
-0.089881778 -0.1306531 0.59442812
-0.093205929 -0.050269011 0.57417852
-0.09930563 -0.1055534 0.56960702
-0.02617478 -0.046291862 0.4995456
-0.086664557 -0.044485301 0.47199759
-0.089997709 -0.1580029 0.60983241
-0.092716873 -0.15499669 0.60596722
-0.097191207 -0.1066197 0.57885921
-0.1093616 -0.049495071 0.46597129
-0.1068563 -0.046241309 0.48258889
-0.09533298 -0.05250996 0.47192001
-0.062360112 -0.04231146 0.42463359
-0.094454713 -0.046488609 0.4860847
-0.1340194 -0.056309249 0.46252099
-0.068348289 -0.045643359 0.4386991
-0.100328 -0.048287779 0.465388
-0.1056336 -0.044614758 0.49527431
-0.12503789 -0.078282267 0.49248111
-0.1162273 -0.046665039 0.47762549
-0.1119598 -0.044605229 0.4913241
-0.062403802 -0.04553711 0.42041299
-0.122968 -0.091546677 0.50312549
-0.1312128 -0.1126885 0.48330361
-0.1306695 -0.1119713 0.48886621
-0.1362537 -0.106862 0.44527191
-0.1424583 -0.1666896 0.44746849
-0.1389982 -0.1072837 0.4621138
-0.1391038 -0.3610523 0.44993189
-0.1222899 -0.3394334 0.50786859
-0.1364859 -0.33511889 0.48307171
-0.13736831 -0.1052767 0.46699789
-0.1452572 -0.30184361 0.4495056
-0.13684461 -0.33427691 0.473573
-0.091472447 -0.05324826 0.43746439
-0.1465046 -0.07167998 0.45315909
0.048955861 -0.060409781 0.59805369
-0.1291789 -0.05079883 0.48990661
-0.1446159 -0.064915784 0.44968969
-0.1391633 -0.047714889 0.44619939
-0.082110882 -0.1344406 0.6207878
-0.1366424 -0.052936941 0.45428041
-0.1290148 -0.04483071 0.45572379
-0.1176041 -0.086162478 0.50213951
-0.1201512 -0.077428877 0.50639659
-0.1446906 -0.061387751 0.44263569
-0.12576871 -0.04709819 0.4966853
-0.074596353 -0.065200359 0.6434648
-0.069263823 -0.064649642 0.63982141
-0.051603019 -0.046560969 0.4398627
-0.01056165 -0.04278174 0.5171479
0.04113907 -0.04448751 0.4680846
0.0085529089 -0.044062171 0.39893579
0.1035633 -0.049322899 0.57966578
0.1087871 -0.04681769 0.58728719
-0.091769867 -0.1308644 0.633286
-0.078372478 -0.1228134 0.64213198
0.063020051 -0.04898265 0.60148293
-0.075882137 -0.1702347 0.64478898
-0.095759153 -0.1091965 0.58946341
-0.1051479 -0.044893648 0.54080582
0.2618551 -0.3526423 1.000291
-0.093569987 -0.046553399 0.52237868
0.1007635 -0.048227519 0.54074037
0.03801382 -0.045656439 0.4926202
0.019504789 -0.047548652 0.53207701
-0.063081443 -0.04660565 0.53059232
-0.034252521 -0.043944929 0.5400241
-0.094766021 -0.046331231 0.50335377
-0.079759844 -0.091908842 0.63223279
-0.073724993 -0.049611781 0.64339632
-0.067197442 -0.04557845 0.48049009
-0.075773299 -0.040513869 0.59427738
-0.084440351 -0.14647131 0.62383902
-0.1170056 -0.1255575 0.55232489
-0.13240349 -0.067913383 0.48423049
-0.1241788 -0.099842943 0.4890773
-0.1242565 -0.1095894 0.5001595
-0.1405022 -0.098270737 0.4708949
-0.089372277 -0.046072811 0.54155862
0.0310145 -0.058275338 0.3770223
0.047688071 -0.048806939 0.56947148
-0.1228229 -0.046810061 0.4336223
0.04828066 -0.04860903 0.56851202
0.056762699 -0.054625321 0.3746894
0.05509213 -0.05036654 0.37554929
0.054355111 -0.08945708 0.37198931
0.04373607 -0.074717417 0.37712169
0.071557187 -0.1004965 0.3657535
0.06142411 -0.1229323 0.37007141
0.070375003 -0.1220412 0.36773339
0.04248539 -0.051918011 0.38010111
0.051565621 -0.08255367 0.3769553
0.047185749 -0.1407958 0.37395841
0.079248793 -0.043948069 0.47918251
0.07816577 -0.042682979 0.45436111
0.032627881 -0.047945932 0.4506478
0.03068137 -0.048204228 0.40221131
0.069854923 -0.04566367 0.40807331
0.01183194 -0.049621481 0.42145571
0.050917741 -0.048248868 0.46618161
1.8924469e-05 -0.049747691 0.4018521
0.083111413 -0.047649462 0.41627589
0.078411579 -0.042340711 0.43043929
0.02207768 -0.050589759 0.40993309
0.031919241 -0.05626972 0.38753849
-0.047238171 -0.04901056 0.4387773
-0.05242515 -0.04690136 0.4422366
-0.05002683 -0.047577921 0.43958029
0.06349808 -0.046791021 0.53371161
0.063942187 -0.046944559 0.52141613
-0.039880041 -0.049832579 0.56825888
-0.059095681 -0.048160698 0.61427122
-0.1234255 -0.054233041 0.48783299
-0.086286344 -0.052604411 0.59873283
-0.1255933 -0.1180836 0.48977521
-0.088824213 -0.12972809 0.60124099
-0.076610029 -0.2340342 0.64155543
-0.072626948 -0.0952636 0.64391869
-0.034825329 -0.042922258 0.4719463
-0.091691516 -0.12938011 0.59316951
-0.090342127 -0.060946759 0.58738703
-0.017377021 -0.047139909 0.52180028
-0.089762092 -0.074277788 0.60085142
-0.091316909 -0.28686091 0.61621171
-0.1025754 -0.059135709 0.57641298
-0.1315376 -0.062517263 0.46935529
0.063013427 -0.04620767 0.54911429
0.03572667 -0.04706043 0.61729342
-0.094050199 -0.073692918 0.60454041
-0.07997793 -0.27479619 0.63758212
-0.0858863 -0.067135103 0.59812969
-0.079658747 -0.1077023 0.62963289
-0.075765789 -0.26160571 0.64397281
-0.078116544 -0.32455781 0.65395492
-0.1365287 -0.052914798 0.45375341
0.081151187 -0.0490756 0.55825609
-0.1082372 -0.04620567 0.48255819
-0.083625823 -0.05359802 0.62699378
-0.079647541 -0.31758779 0.65194857
-0.052074969 -0.047154341 0.55976361
-0.075511158 -0.084164351 0.64999461
-0.079119474 -0.1502303 0.62665528
-0.1005337 -0.31693661 0.6157704
0.0213874 -0.041565869 0.44875929
0.0202679 -0.047730651 0.53372967
-0.006591409 -0.050355699 0.56712168
-0.064645886 -0.048770759 0.64972478
-0.03783977 -0.046724349 0.64099008
-0.091753177 -0.093883157 0.5932315
-0.091229409 -0.1450783 0.5919013
-0.092658162 -0.1607344 0.62298727
-0.080108643 -0.2354306 0.63747311
-0.1033991 -0.31296459 0.61986721
-0.087844037 -0.1557921 0.6187349
-0.081186228 -0.33182669 0.64649731
-0.081217021 -0.1345143 0.63001788
-0.08493638 -0.23679221 0.62590653
-0.091762871 -0.151126 0.59450048
-0.097195707 -0.2563448 0.61694831
-0.095952719 -0.21869721 0.59367162
-0.095310152 -0.27028769 0.60350358
-0.092015743 -0.14002921 0.59497333
-0.092372693 -0.082315393 0.60084808
-0.079865493 -0.1082372 0.64036471
0.0101037 -0.045937389 0.54184371
-0.085062027 -0.1514505 0.62400723
-0.1036792 -0.1833943 0.58040053
-0.1036816 -0.1814284 0.58102041
-0.089484394 -0.1588968 0.60663009
-0.095015913 -0.31682071 0.60724813
-0.078644194 -0.1419522 0.63483542
-0.079574823 -0.1007266 0.63330328
-0.085122347 -0.18876339 0.60648137
-0.101117 -0.14573251 0.57106799
-0.080521762 -0.1209604 0.64126319
-0.085435867 -0.064077877 0.62174278
-0.099371217 -0.14451879 0.57059532
-0.098614901 -0.1561922 0.58214593
0.077129722 -0.043819729 0.46862191
0.070344687 -0.04850477 0.45225781
-0.083537161 -0.3300308 0.63762772
-0.086649597 -0.053585678 0.62824959
-0.14378659 -0.330926 0.4659557
-0.094529659 -0.075017899 0.58259702
-0.1414959 -0.058026049 0.46348301
-0.1046249 -0.27581829 0.57799661
-0.088812798 -0.1111015 0.5777365
-0.095177263 -0.048672769 0.57365692
-0.1492759 -0.34669071 0.45282239
-0.099639297 -0.3394331 0.60470998
-0.1282004 -0.067353308 0.4992792
-0.1125469 -0.2388823 0.56134492
-0.091422468 -0.27817941 0.60857111
0.073280267 -0.041241139 0.48309621
0.044285301 -0.051031739 0.57655698
-0.0084363818 -0.05092752 0.62950999
-0.04519552 -0.051349308 0.64056289
-0.1002812 -0.25809911 0.57678878
-0.089291662 -0.099577457 0.59622473
-0.1035269 -0.1463995 0.58278072
-0.070419818 -0.0823659 0.64639491
-0.09710443 -0.2431377 0.59839839
-0.096434861 -0.2012835 0.59967983
-0.1192219 -0.05024692 0.45826629
-0.089427702 -0.049073759 0.48680419
-0.082811423 -0.04525679 0.59565729
-0.1117414 -0.051170141 0.4939346
-0.024499331 -0.049270838 0.6100719
-0.033940811 -0.049759001 0.60184658
-0.1163997 -0.052159131 0.4555243
-0.03298426 -0.054126311 0.3970699
0.033150282 -0.046171218 0.454079
0.038177911 -0.045897871 0.48010901
0.041142192 -0.046383381 0.52557361
-0.1011253 -0.046917409 0.4694117
0.05902018 -0.045222219 0.52350903
0.035037871 -0.046452969 0.53331381
0.083151847 -0.047654118 0.55634892
0.073703863 -0.046657 0.57338709
0.0073215659 -0.048926711 0.56492603
0.084751889 -0.04539004 0.43633369
0.069096148 -0.046568081 0.38681409
0.023428859 -0.048808489 0.42008421
0.038261991 -0.04867265 0.58071089
0.114274 -0.048457801 0.55564308
0.111196 -0.046780679 0.52938241
-0.0025905371 -0.05023858 0.55870712
0.1208964 -0.04807651 0.57776952
-0.0097717335 -0.04801232 0.45664909
0.01036803 -0.048390001 0.43894061
-0.07074061 -0.0484646 0.45580819
-9.9644058e-05 -0.045929339 0.43574581
0.1132056 -0.047949672 0.4957743
0.092615597 -0.053116471 0.59653658
-0.064884387 -0.04807198 0.5231123
-0.0045951898 -0.05005905 0.54500288
0.049059778 -0.048276961 0.4802458
0.063229524 -0.047307041 0.57153088
0.1327901 -0.05065814 0.54717332
0.1140709 -0.04638654 0.56951362
0.08532887 -0.04389542 0.54568291
0.095083281 -0.046795402 0.59837282
0.089558013 -0.22200879 0.60548371
-0.004323781 -0.077335604 0.63214457
0.1204768 -0.1117338 0.58279181
0.01104367 -0.094958574 0.62757391
0.1337842 -0.2250926 0.59005642
0.1001438 -0.2196493 0.59839898
0.085516751 -0.2131651 0.60762322
0.12520839 -0.1466791 0.58214271
0.1127098 -0.04544118 0.48240429
0.118965 -0.1619762 0.58631378
0.018437089 -0.098900877 0.62357682
0.13470779 -0.21264499 0.58148748
0.1223557 -0.2363928 0.58701378
-0.078357071 -0.047845811 0.59612662
-0.052503109 -0.049025301 0.50883901
-0.06254971 -0.047566619 0.5680021
-0.072904937 -0.046584759 0.61896467
-0.03862131 -0.047552019 0.55484432
0.05013657 -0.050591022 0.53105313
0.056798398 -0.046343181 0.60386032
-0.00083976978 -0.1181507 0.63290727
0.060963452 -0.1007821 0.61018938
0.1111447 -0.0558373 0.58917421
-0.026073899 -0.047584239 0.4321951
-0.0175776 -0.047707681 0.53612238
0.095530882 -0.050108399 0.5650382
-0.062226851 -0.042973612 0.49972621
0.099295318 -0.2486086 0.60235131
-0.057214249 -0.05004546 0.585271
0.1107505 -0.2147256 0.59430891
0.14220309 -0.062130932 0.58226991
0.14205781 -0.1139903 0.5809114
0.085154653 -0.1401909 0.60807532
0.063261643 -0.1688983 0.61371142
0.1359556 -0.2159055 0.58913797
-0.035198081 -0.049505621 0.61373568
-0.087488398 -0.046762619 0.54086488
-0.00090688473 -0.046697229 0.51939899
-0.0094728172 -0.04676291 0.5215314
-0.064195782 -0.048765119 0.4435387
-0.03781176 -0.04864284 0.62314892
-0.029959589 -0.049840331 0.61571229
0.053691391 -0.045142651 0.45145819
-0.044485539 -0.049405459 0.62195522
0.01531577 -0.19784039 0.62455362
0.082010053 -0.043483261 0.4873583
0.03386347 -0.04883131 0.57948917
0.081710197 -0.12716401 0.6071673
0.1088396 -0.045159731 0.5577842
0.047922861 -0.05417785 0.61091161
0.063593507 -0.1056397 0.61002862
0.076258503 -0.12655529 0.6080538
0.06252791 -0.2005394 0.61382979
0.086062789 -0.1240311 0.6025635
0.1147923 -0.045640111 0.54199082
0.089553706 -0.044990811 0.5926975
0.04144818 -0.2131914 0.62663943
-0.029931219 -0.1597258 0.64355642
0.1091247 -0.0467816 0.45634419
0.1015158 -0.25104189 0.60352153
0.029278871 -0.046351969 0.52551168
0.1008614 -0.1362101 0.59759557
0.06036799 -0.2378801 0.6129719
-0.039462801 -0.1258751 0.65000403
0.1249023 -0.27074701 0.59246862
0.01322924 -0.204208 0.62919521
-0.047370549 -0.076945484 0.64401257
0.1514184 -0.35078561 0.57454759
-0.045115929 -0.04862627 0.58226448
-0.081563652 -0.043923561 0.51396883
-0.0023873451 -0.1227667 0.63371003
-0.055952739 -0.062175691 0.65101522
-0.03690457 -0.078839719 0.64879519
-0.04306161 -0.063358784 0.64696658
0.1050197 -0.2161328 0.59722048
0.1100156 -0.285256 0.60234189
-0.052652299 -0.048493002 0.63527328
-0.1188197 -0.04810014 0.48833269
-0.023420841 -0.19568551 0.64167798
0.12610281 -0.048747271 0.55267578
0.035201579 -0.047326919 0.56464058
0.055126611 -0.2418956 0.6152457
0.083374858 -0.27144799 0.60647649
0.1081495 -0.044745591 0.49725831
0.05301651 -0.070509233 0.61161739
0.069272012 -0.19032679 0.6091488
0.08663626 -0.24658699 0.60877937
0.1039603 -0.1037966 0.59171969
0.12931719 -0.1372045 0.58960181
-0.036708791 -0.046178401 0.50449377
0.1100247 -0.2282813 0.59502542
0.1044715 -0.04460248 0.4788546
0.02373695 -0.189891 0.61904639
-0.0045036972 -0.07546255 0.63189459
0.05194512 -0.037320349 0.37943631
0.09314847 -0.13129321 0.59586859
0.0074465871 -0.084162861 0.62968338
0.052373771 -0.23618551 0.61840391
-0.066704303 -0.044161379 0.41815779
0.1006922 -0.225952 0.60176671
-0.049228009 -0.16139451 0.64736891
-0.023695201 -0.2377928 0.64140511
-0.028782319 -0.15894701 0.64296639
0.050181638 -0.04863283 0.56203967
0.13028181 -0.1016584 0.58882147
0.1138613 -0.30191201 0.59693372
0.097989932 -0.15138841 0.59678268
-0.03253955 -0.070333272 0.6415875
-0.04512414 -0.1995277 0.64741647
0.076788507 -0.14947011 0.60772687
-0.0006236434 -0.2470106 0.63689661
0.088129088 -0.097903103 0.60331202
-0.02026418 -0.1975417 0.63914919
0.068071418 -0.050454348 0.60611838
0.058112741 -0.26768309 0.6139704
0.065901563 -0.063467443 0.60498428
0.1231322 -0.27505741 0.59313321
0.1372844 -0.1190607 0.58486712
0.072387412 -0.2213783 0.61111349
-0.017420201 -0.082466811 0.63604808
0.1249722 -0.24442381 0.58941042
-0.002279297 -0.045943409 0.48069349
0.040386349 -0.04911175 0.50201768
0.076679938 -0.049177971 0.49054921
0.071535356 -0.066839777 0.60625792
0.1160117 -0.2187869 0.59545922
0.1069037 -0.1398645 0.59957403
0.1027844 -0.076726139 0.59175378
-0.05183297 -0.060575221 0.65070188
0.1045588 -0.24316961 0.59756953
0.077754721 -0.2230462 0.60734802
0.01565351 -0.1464553 0.6281563
-0.1220311 -0.052240219 0.46005759
-0.060852408 -0.051165611 0.64985877
-0.057878759 -0.04970479 0.6498009
0.0010741201 -0.2475601 0.63732308
0.1039242 -0.044197261 0.5818451
0.08251366 -0.044606332 0.58638632
0.04670161 -0.04622972 0.43917099
0.089869127 -0.25285211 0.60087568
0.1116281 -0.04811969 0.58404893
0.048982348 -0.050411399 0.51467443
0.084689587 -0.2463333 0.61005813
-0.067760013 -0.04852381 0.63636321
0.01741378 -0.046654049 0.50476688
0.117168 -0.124947 0.58842409
0.071866348 -0.2325687 0.60909271
0.1251405 -0.1553881 0.59001172
-0.068771943 -0.046432909 0.55831927
0.1423092 -0.13781279 0.57935452
0.05674383 -0.24449719 0.61245239
0.08720541 -0.047846232 0.59050578
-0.0073354389 -0.046771761 0.5349384
0.1150832 -0.043656591 0.47328511
0.091488771 -0.1458023 0.59994948
-0.1002535 -0.044857349 0.51630718
0.1344727 -0.22867259 0.58599889
0.064804614 -0.04134199 0.4638316
2.2396451e-05 -0.046472039 0.46538669
0.1124849 -0.14263169 0.59283948
-0.028032601 -0.2154098 0.64279491
0.083354346 -0.22885109 0.60744548
0.107232 -0.2556451 0.5961383
0.050543729 -0.045713011 0.60917252
0.046045739 -0.045466539 0.42025119
-0.06962581 -0.050992999 0.48106739
0.0081809759 -0.1129683 0.62743109
0.1181648 -0.1417037 0.58933198
-0.022485809 -0.20810761 0.64122683
0.066535123 -0.25096849 0.61417508
0.1249149 -0.3113665 0.5880661
0.071145304 -0.1349674 0.60571587
-0.0060897921 -0.037923072 0.52087963
0.083642364 -0.05660126 0.5990715
0.0079172254 -0.05158693 0.45121539
-0.01060414 -0.044466641 0.49461001
0.05586867 -0.061584651 0.60877329
0.1192115 -0.048943099 0.58726412
0.10119 -0.04606637 0.59187508
0.064860299 -0.044404149 0.60240698
0.03436349 -0.082064301 0.61686122
-0.02279209 -0.049824681 0.50672209
0.0089659989 -0.047003921 0.4283717
-0.090117224 -0.044822291 0.46012741
0.1381612 -0.35532641 0.3406651
0.085262001 -0.35680929 0.3735733
0.093082853 -0.1473809 0.42213809
0.086060457 -0.19153631 0.3913129
0.1009855 -0.35579619 0.43063691
0.1085758 -0.14139029 0.4627454
0.094344199 -0.133147 0.42654499
0.076743841 -0.1668615 0.37801799
0.082820714 -0.14549769 0.40077621
0.097879887 -0.3239958 0.42930391
0.079527617 -0.35263351 0.4011642
0.081840932 -0.28482851 0.3877537
0.099464059 -0.203613 0.44295251
0.091869712 -0.3198559 0.4092896
0.1146836 -0.2113584 0.47819799
0.1061305 -0.24252249 0.43945491
0.093268096 -0.076302923 0.4197529
0.073850453 -0.054688271 0.37628889
0.1117199 -0.060959611 0.46314889
0.080283582 -0.1733814 0.39215761
0.084101923 -0.17549931 0.38752231
-0.1165552 -0.049718291 0.46263781
0.087804973 -0.051833872 0.41091999
0.098337106 -0.29021069 0.4266068
0.086448133 -0.1498248 0.40353391
0.087340891 -0.23424061 0.3856563
0.1048692 -0.2597681 0.4502393
0.1050586 -0.1240559 0.4490045
0.087674983 -0.04675189 0.46888641
0.083414607 -0.2131478 0.399591
-0.088597894 -0.051647779 0.46627271
0.086000562 -0.27610281 0.38506809
0.090381444 -0.24213099 0.40622911
0.1781517 -0.35827991 0.36439511
0.2110558 -0.35851669 0.3716855
0.054015279 -0.36402899 0.29354629
0.1652914 -0.360926 0.3460848
0.31438941 -0.3627716 0.42702639
-0.052864369 -0.046016749 0.42758349
0.074369729 -0.1244555 0.3783184
0.092762291 -0.038798992 0.44070259
0.077468634 -0.2448367 0.382929
0.082694888 -0.1166698 0.41155609
0.09059453 -0.1000406 0.40351659
0.088514328 -0.075531013 0.4035984
0.1231214 -0.35595331 0.34136659
0.14274891 -0.33995551 0.58105582
0.1252874 -0.32960421 0.5850848
0.1235564 -0.33206791 0.58168888
0.1102447 -0.331384 0.45034251
0.099312194 -0.3467609 0.38350949
0.050015029 -0.2122362 0.62270081
0.144436 -0.2824029 0.5735361
0.1562283 -0.2731142 0.57594359
-0.0080017447 -0.05238995 0.60616952
0.03755331 -0.051272299 0.5242964
0.1467723 -0.098340392 0.57435763
0.1064655 -0.28116921 0.42979261
0.1094244 -0.3348248 0.44993231
0.13502049 -0.35150591 0.53312838
-0.075906381 -0.056271199 0.4659259
0.03102967 -0.0495889 0.61616492
-0.1161143 -0.049468521 0.47116759
0.1434992 -0.27898881 0.56602091
-0.0090636462 -0.04766646 0.40926641
-0.059162501 -0.046159741 0.42645851
-0.0022312249 -0.047709271 0.40228039
0.13267121 -0.047573719 0.55078733
0.1415914 -0.1815047 0.5681603
0.085761219 -0.1179942 0.3938908
0.087762482 -0.28262389 0.3956733
0.12605239 -0.34206679 0.51241452
0.1324683 -0.31419411 0.52235031
0.071954943 -0.21850041 0.37295499
0.14863691 -0.33580351 0.54806978
0.1798602 -0.35533521 0.54744399
0.1284883 -0.2206509 0.52421951
0.08687707 -0.1074347 0.40646869
0.020330179 -0.044396609 0.61013287
0.1717338 -0.35656449 0.50019008
0.05246067 -0.047564331 0.45751581
0.070038453 -0.04683483 0.37556991
0.097610436 -0.1429861 0.42507949
0.074635357 -0.28626469 0.37498811
0.091420889 -0.315281 0.40446779
0.0074445009 -0.04254007 0.45204359
0.1633119 -0.36279309 0.47382209
0.15298469 -0.3557111 0.44010469
0.1316334 -0.045478821 0.56717652
0.1663501 -0.35474071 0.52166188
0.0082703531 -0.047471341 0.42927051
0.017544109 -0.04873931 0.43595591
0.080605671 -0.047959208 0.55521297
0.03220943 -0.050478309 0.3955552
-0.069893926 -0.047185749 0.48297831
0.1113736 -0.04400358 0.52903157
0.030474041 -0.043309689 0.45328179
0.091945969 -0.049810711 0.41454649
-0.045141459 -0.048692878 0.41331559
0.074220538 -0.052749101 0.36772051
0.082063727 -0.2303061 0.37882349
0.12826911 -0.17556611 0.53301579
0.18256029 -0.36267889 0.5236764
0.171725 -0.35571679 0.56878042
0.1150155 -0.045816328 0.49699011
0.04523572 -0.044636041 0.45166749
0.1156766 -0.047514651 0.49945369
-0.01077931 -0.047937259 0.45809561
0.03474975 -0.04564124 0.53191781
-0.065397263 -0.045239151 0.51389718
0.098376453 -0.22197589 0.4324784
0.1006534 -0.29060051 0.43287489
0.1213024 -0.32631931 0.49562371
0.1260754 -0.2831043 0.50214279
0.1547863 -0.35983121 0.53924161
0.08931607 -0.060657259 0.4147197
0.1174811 -0.35402691 0.37300691
-0.06494537 -0.049697671 0.4261359
0.1221829 -0.05085611 0.49214211
0.061347071 -0.045641661 0.59710759
0.1196719 -0.065247029 0.50880992
0.1222445 -0.1144412 0.50361079
0.1231994 -0.086361557 0.50191867
0.1190209 -0.29328781 0.49164411
0.1161684 -0.2584376 0.49025479
-0.0077343578 -0.04810014 0.52463788
0.040311549 -0.045344561 0.47258469
-0.069739372 -0.052262489 0.53793049
-0.001245134 -0.047499631 0.4345603
0.082777157 -0.23920371 0.3949593
0.077679157 -0.36061811 0.37480089
0.081942677 -0.1822287 0.38492239
-0.026461679 -0.21558291 0.39728811
0.065105587 -0.070769429 0.3718794
0.07781902 -0.071592212 0.3869175
0.1332155 -0.3627921 0.34788641
0.096092552 -0.2471181 0.42045861
0.048895821 -0.042762551 0.47773749
0.088255718 -0.04655784 0.44155851
0.090343088 -0.35887709 0.36076629
0.07621406 -0.046342671 0.37322241
0.02772218 -0.044906769 0.48783541
0.091012493 -0.35605109 0.36165571
0.02902317 -0.099086307 0.38003099
-0.093826093 -0.36318371 0.42067409
-0.01367253 -0.04672724 0.40023991
0.063133389 -0.30736449 0.36951351
0.02854435 -0.047266301 0.59756303
0.083565243 -0.065735817 0.39927241
-0.025470169 -0.1440943 0.40737149
0.1158807 -0.2475321 0.48348069
0.1095519 -0.18681461 0.45981771
0.1144916 -0.26851311 0.45933539
0.1095636 -0.1753266 0.47285759
0.18046831 -0.35963339 0.52309602
-0.119625 -0.047434989 0.46309441
-0.03968893 -0.1806082 0.40127251
0.095378861 -0.133966 0.43580779
-0.12548999 -0.28327191 0.44414991
0.02186561 -0.1955919 0.38387051
0.065481439 -0.2675015 0.37052649
-0.034672901 -0.1674031 0.40418959
-0.02277348 -0.1823395 0.4022482
-0.078025669 -0.27815199 0.42081821
-0.054500401 -0.051910579 0.41047761
0.1362479 -0.3647494 0.38964581
0.30848861 -0.35706371 0.5899812
-0.095831007 -0.044787411 0.45025009
-0.042810049 -0.35183659 0.39668179
-0.12741961 -0.1859328 0.4484354
-0.1509985 -0.360149 0.4065665
-0.1278538 -0.05028832 0.45716059
-0.069097519 -0.14453571 0.417732
-0.044090211 -0.1029806 0.40823469
-0.04680815 -0.1462747 0.41627619
0.036012858 -0.066436984 0.382752
-0.050672561 -0.16179889 0.41450381
0.1354802 -0.19897801 0.54465991
-0.029893611 -0.050410029 0.50574589
0.078823507 -0.044505481 0.4147132
-0.04452908 -0.2333056 0.41007769
0.050862741 -0.2078723 0.37562731
0.076179847 -0.1861316 0.37450081
-0.063510694 -0.2467383 0.41190249
0.050168868 -0.28202891 0.37370291
-0.02865182 -0.2961638 0.40193439
0.054047961 -0.17875271 0.37200549
-0.12939 -0.346071 0.44264469
-0.01107791 -0.27826929 0.39495769
-0.066055603 -0.04628652 0.4911713
-0.1225471 -0.3409206 0.43717971
-0.08526963 -0.050522801 0.58096278
0.12692989 -0.357885 0.35980061
-0.090434462 -0.28325889 0.42202491
0.095266312 -0.070812613 0.4198513
0.046462461 -0.073506556 0.3749865
-0.0073412061 -0.050665502 0.39509621
0.082688533 -0.29171589 0.38329831
-0.064221106 -0.35967231 0.3670443
-0.095947333 -0.12674201 0.42346719
-0.2090842 -0.35937351 0.39747891
-0.0039857631 -0.1471207 0.3932004
-0.029371411 -0.05174765 0.40136081
-0.048063129 -0.1013417 0.41041359
-0.036590401 -0.13999841 0.41115779
0.1364602 -0.1804239 0.54357451
0.1259867 -0.04773831 0.55780709
0.14649279 -0.082095683 0.58247977
0.076615967 -0.045279 0.56609207
0.1088023 -0.1191095 0.4831259
0.2546525 -0.35955501 1.030542
0.1083233 -0.2423885 0.44582441
