# .PCD v0.7 - Point Cloud Data file format
VERSION 0.7
FIELDS x y z normal_x normal_y normal_z curvature
SIZE 4 4 4 4 4 4 4
TYPE F F F F F F F
COUNT 1 1 1 1 1 1 1
WIDTH 61
HEIGHT 1
VIEWPOINT 0 0 0 1 0 0 0
POINTS 61
DATA ascii
0.19388895 -0.145312 0.10611185 -0.02667412 -0.99932736 -0.02516583 0.0045776595
0.13622054 -0.14524674 0.1458337 -0.0113205 -0.99961489 -0.025332861 0.0049141278
0.18150023 -0.13906513 0.15522031 0.01301471 0.99983728 0.012495814 0.0043120543
0.13595517 -0.13991207 0.16211082 0.0036538141 0.99979818 0.019756131 0.0059573143
0.14764684 -0.14093074 0.16611069 -0.011552267 -0.99984968 -0.012926175 0.0049584028
0.17581478 -0.14038271 0.1678974 0.010293662 0.99988788 0.010876202 0.0041045807
0.21332574 -0.14161985 0.16215158 -0.015959622 -0.99985945 -0.0051414585 0.003979221
0.22040097 -0.14310178 0.17025663 -0.012979689 -0.99991006 -0.0033866598 0.003936389
0.13182521 -0.14051348 0.17505465 0.0015566504 0.99986786 0.01618148 0.0068972469
0.13583469 -0.14054275 0.17364609 -0.0050896779 -0.99987841 -0.014741521 0.0060797408
0.15188067 -0.1414469 0.17588677 -0.0086418409 -0.99983919 -0.015713444 0.0049556671
0.16717304 -0.14149261 0.17908739 -0.011088349 -0.99991393 -0.0070099835 0.0041391929
0.18640482 -0.14153841 0.17564221 -0.012830295 -0.99986112 -0.010634217 0.0041745054
0.20145608 -0.14231339 0.17462641 -0.016933776 -0.99980861 -0.0097992439 0.0039084842
0.23837057 -0.14517042 0.17820606 -0.024115575 -0.99970889 0.0006977921 0.0060909241
0.10260602 -0.14526643 0.18262108 0.0042346776 -0.99963295 -0.026757881 0.010251553
0.12048259 -0.14149123 0.18501131 0.0059483787 -0.99981707 -0.018178796 0.0074443957
0.14978285 -0.14147753 0.18448567 -0.0099708335 -0.99988139 -0.011737961 0.0053184167
0.24433221 -0.14527363 0.18172841 -0.023273218 -0.9997291 0.00042679085 0.0066148904
0.11675307 -0.14681211 0.18789603 0.0059483787 -0.99981707 -0.018178796 0.0074443957
0.16326573 -0.14070015 0.20396921 0.014152907 0.99985141 0.0098368451 0.0048076916
0.1487879 -0.145312 0.2100915 -0.0017831447 -0.99986714 -0.016204484 0.0057948171
0.17283753 -0.1453193 0.21449061 -0.0075899535 -0.99996847 0.0023362476 0.0040984005
0.18169561 -0.14531197 0.22732419 -0.0063110809 -0.99995869 0.0065475279 0.0039012567
0.2081468 -0.145312 0.22771481 -0.0010735962 -0.99994934 0.01000998 0.004467587
0.22096279 -0.145312 0.22794069 0.0019382446 -0.99985576 0.016875457 0.0050133904
0.1484261 -0.145312 0.2389251 0.0020830135 -0.99999636 0.0017161014 0.0049520209
0.1474672 -0.145312 0.25088289 0.0048805908 -0.99995577 0.0080355415 0.0061882334
0.21111645 -0.145312 0.27814755 0.0056055021 -0.99956113 0.029089564 0.015664987
0.24479192 -0.13817942 0.18116342 0.023273218 0.9997291 -0.00042679085 0.0066148904
0.23905124 -0.13874614 0.17656751 0.024771802 0.99969268 -0.00096222589 0.0063500386
0.22096279 -0.1383504 0.22794069 -0.0019382446 0.99985576 -0.016875457 0.0050133904
0.2081468 -0.13743649 0.22771481 0.0010735962 0.99994934 -0.01000998 0.004467587
0.18502222 -0.14149632 0.17740263 -0.012830295 -0.99986112 -0.010634217 0.0041745054
0.20105688 -0.14222915 0.17400405 -0.016933776 -0.99980861 -0.0097992439 0.0039084842
0.16778177 -0.14151016 0.18014747 -0.011088349 -0.99991393 -0.0070099835 0.0041391929
0.1648578 -0.1397388 0.2020258 0.010330278 0.99988383 0.011205504 0.0046411203
0.21984975 -0.14312378 0.16988324 -0.012979689 -0.99991006 -0.0033866598 0.003936389
0.21296738 -0.14151525 0.16154483 -0.015959622 -0.99985945 -0.0051414585 0.003979221
0.18807487 -0.1415635 0.17311497 -0.012830295 -0.99986112 -0.010634217 0.0041745054
0.13197953 -0.13792254 0.16439524 0.0056437589 0.99960768 0.02743599 0.0070449258
0.13514245 -0.14045772 0.17321667 0.0050896402 0.99987841 0.014741505 0.0060797408
0.14663562 -0.14156246 0.16620569 -0.011552267 -0.99984968 -0.012926175 0.0049584028
0.12803018 -0.13753751 0.17255057 0.001343585 0.99984574 0.017516633 0.0076059173
0.1484261 -0.13664331 0.2389251 -0.0020830135 0.99999636 -0.0017161014 0.0049520209
0.12146612 -0.13462828 0.18553102 -0.0059483787 0.99981707 0.018178796 0.0074443957
0.15196612 -0.14144614 0.17564683 -0.0086418409 -0.99983919 -0.015713444 0.0049556671
0.1367052 -0.13991858 0.15969136 0.012052151 0.99974197 0.019256068 0.0053932909
0.17586325 -0.14034255 0.1674822 0.010293662 0.99988788 0.010876202 0.0041045807
0.17284672 -0.13674983 0.21448334 0.0075899535 0.99996847 -0.0023362476 0.0040984005
0.1474672 -0.13798369 0.25088289 -0.0048805908 0.99995577 -0.0080355415 0.0061882334
0.1950824 -0.13778029 0.1034772 0.028235348 0.99932855 0.023352183 0.0052792984
0.1926955 -0.1382118 0.1087465 0.024370812 0.99933404 0.027157146 0.0040268265
0.11717299 -0.14185613 0.18693872 0.0059483787 -0.99981707 -0.018178796 0.0074443957
0.21125069 -0.1379683 0.27922919 -0.0056055021 0.99956113 -0.029089564 0.015664987
0.13735025 -0.13326705 0.14592785 0.0113205 0.99961489 0.025332861 0.0049141278
0.18651883 -0.1387057 0.15443175 0.01301471 0.99983728 0.012495814 0.0043120543
0.18167357 -0.13430934 0.22733822 0.0063110809 0.99995869 -0.0065475279 0.0039012567
0.2109822 -0.1339919 0.2770659 -0.0056055021 0.99956113 -0.029089564 0.015664987
0.15017961 -0.14148024 0.1848228 -0.0099708335 -0.99988139 -0.011737961 0.0053184167
0.1030269 -0.1377853 0.18159814 -0.0042346776 0.99963295 0.026757881 0.010251553
