# .PCD v0.7 - Point Cloud Data file format
VERSION 0.7
FIELDS x y z normal_x normal_y normal_z curvature
SIZE 4 4 4 4 4 4 4
TYPE F F F F F F F
COUNT 1 1 1 1 1 1 1
WIDTH 582
HEIGHT 1
VIEWPOINT 0 0 0 1 0 0 0
POINTS 582
DATA ascii
-0.027810097 -0.097133681 0.57391292 -0.30981055 0.85526395 -0.41538054 0.062550589
0.097158484 -0.094512872 0.68304676 0.063281685 0.98859817 0.13663423 0.018587945
-0.070189886 -0.13843447 0.64862627 -0.85577744 0.42061466 0.30121142 0.060108565
-0.044281296 -0.14882682 0.70153105 -0.8496111 0.32174927 0.41789764 0.04402227
-0.02240601 -0.17246878 0.7436797 -0.77674592 0.02119338 0.62945735 0.02770297
-0.0067119761 -0.10813385 0.76197797 -0.42436135 0.69018722 0.5861392 0.11013032
0.024179975 -0.095517762 0.73897833 -0.043156166 0.93351465 0.35593238 0.069538228
-0.013895883 -0.095249549 0.58365732 -0.2057752 0.93635923 -0.284408 0.048847061
-0.058531355 -0.13708617 0.67114013 -0.80162013 0.46798787 0.37201154 0.056047287
-0.0059079425 -0.15728991 0.77687621 -0.51333809 0.085850984 0.85388154 0.077181384
0.019483024 -0.094484657 0.69199717 -0.079368182 0.99280286 0.08968325 0.01280817
-0.0084648198 -0.15687273 0.76729435 -0.58653438 0.1160892 0.80156142 0.079126723
-0.021019498 -0.12424095 0.74694163 -0.6817205 0.48251501 0.54994226 0.087897651
0.004065413 -0.094041333 0.69847727 -0.17440185 0.97835726 0.11136017 0.029324956
-0.069874592 -0.17856865 0.64948398 -0.9490543 0.038911108 0.31270084 0.018600425
0.065625988 -0.093961969 0.61994219 -0.013025508 0.99988276 0.0080416109 9.8367978e-05
-0.027159525 -0.11132466 0.72544551 -0.58009064 0.72755331 0.36628014 0.064218573
-0.051514965 -0.15492405 0.68556511 -0.8691088 0.25506395 0.42378336 0.033010755
-0.067162558 -0.18584001 0.65875256 -0.91280395 0.042761043 0.40615329 0.0028543621
0.091048621 -0.096056238 0.70572066 0.10733316 0.96413088 0.24275762 0.036353119
-0.052635234 -0.15072705 0.68363082 -0.86195099 0.29404664 0.41300979 0.038326748
-0.054080963 -0.14163361 0.68003672 -0.83061457 0.40294519 0.38433668 0.049757414
0.081129648 -0.092911169 0.59912252 0.019865435 0.99945927 -0.026200946 0.00456073
-0.0051366463 -0.093613952 0.66397023 -0.17979155 0.978724 0.098864809 0.027873684
-0.081439294 -0.11037409 0.61425549 -0.79305768 0.60906023 -0.010261693 0.089547165
-0.086016335 -0.15601657 0.61454374 -0.98554957 0.16584498 -0.034459706 0.057653464
-0.087380633 -0.12076186 0.60266435 -0.8734408 0.4592562 -0.1618178 0.097298652
-0.034113817 -0.11538955 0.71546012 -0.6897282 0.63845205 0.3415466 0.059464656
-0.083096057 -0.2034383 0.63042915 -0.99794567 0.050888501 0.038920667 0.052184235
-0.028642338 -0.14269222 0.73362046 -0.79450661 0.30297178 0.52627683 0.055125661
-0.0086123012 -0.10444359 0.75967604 -0.41741079 0.73698539 0.53162098 0.10296392
-0.087486222 -0.34283677 0.62231761 -0.962605 -0.26860672 -0.035242956 0.08919052
-0.022635028 -0.12351055 0.74068135 -0.69336057 0.50424123 0.51477361 0.078726396
-0.018811669 -0.10363097 0.73929876 -0.4697209 0.78786808 0.39827898 0.068907633
-0.074695006 -0.36932385 0.6563794 -0.79393476 -0.5286389 0.30034709 0.067656063
-0.032131724 -0.29274055 0.73398376 -0.83134651 0.049894467 0.55351013 0.011184714
-0.048378259 -0.094992921 0.62381023 -0.45901346 0.88841403 0.005219759 0.065779448
-0.069420137 -0.27358189 0.6605916 -0.92890173 0.022853099 0.36962059 0.0042323447
-0.034395836 -0.22970442 0.72376436 -0.85197932 0.04452211 0.5216791 0.0047795903
-0.068052784 -0.33769462 0.66490561 -0.8818351 -0.26276135 0.39156517 0.047524214
-0.047876798 -0.18800656 0.69626611 -0.88989007 0.030418413 0.45515981 0.00039078205
-0.045398444 -0.3554782 0.71258944 -0.81189704 -0.42112422 0.40432367 0.082887821
-0.034461163 -0.23284182 0.72295392 -0.8556757 0.043278486 0.51569968 0.0040340195
-0.0366336 -0.31457454 0.72946429 -0.86734122 -0.046592169 0.49552831 0.015394552
-0.082166821 -0.37210459 0.63306928 -0.79916096 -0.58776712 0.12598257 0.094052315
-0.088881448 -0.2266399 0.61879539 -0.9951272 0.080583349 -0.056818228 0.05228648
-0.023146963 -0.32780707 0.75851321 -0.71875781 -0.12590851 0.68376482 0.058307439
-0.035034698 -0.17005217 0.71856999 -0.87065649 0.09182626 0.48324439 0.0073937266
-0.0487356 -0.19215144 0.69490004 -0.89016277 0.029170465 0.45470795 0.0003840471
-0.039207771 -0.30174714 0.72123909 -0.87578779 0.015309792 0.4824535 0.0034419356
-0.051194374 -0.25646022 0.69342184 -0.88847858 0.037266586 0.45740241 0.00011067658
-0.076669633 -0.21965651 0.64368677 -0.97219878 0.020035794 0.23329818 0.02502374
-0.042316996 -0.29411513 0.71274674 -0.88409662 0.035858635 0.46592635 0.00068889331
-0.0064085475 -0.27224773 0.7754038 -0.37404951 0.012799328 0.92732042 0.069152229
-0.017248649 -0.3408207 0.76886779 -0.65135133 -0.18456808 0.73598647 0.080340065
-0.020620784 -0.30607942 0.75931233 -0.65822166 0.02103522 0.75253016 0.05153241
-0.067478269 -0.32610664 0.66560054 -0.90116274 -0.15189734 0.4059962 0.030626155
-0.049358256 -0.34097406 0.70482194 -0.84656191 -0.3193247 0.42586941 0.070945404
-0.034027852 -0.20795225 0.72265017 -0.85920298 0.016367946 0.51137304 0.0048538619
-0.0075508752 -0.25484502 0.77264565 -0.43074289 0.014373687 0.90236014 0.068936594
-0.019132232 -0.094520643 0.62146491 -0.21562985 0.97584099 -0.035186242 0.029437169
-0.0099994522 -0.18252437 0.76645714 -0.58616763 -0.014158358 0.81006616 0.055764873
-0.022719877 -0.36257821 0.75840211 -0.68157703 -0.44618866 0.57997268 0.099378489
-0.084277436 -0.28923169 0.62914348 -0.98859388 0.010236786 0.15025795 0.040942933
-0.034678508 -0.35870141 0.73153287 -0.78731841 -0.44001511 0.43187544 0.078676917
0.0016528263 -0.25084472 0.78180587 -0.31241453 -0.027698301 0.94954199 0.06751541
-0.014225734 -0.20498902 0.76071185 -0.66081345 -0.026585167 0.75007921 0.049855594
-0.054837298 -0.32384709 0.69427544 -0.88187677 -0.13865261 0.45063153 0.031070914
-0.024243841 -0.28771368 0.7491414 -0.71625942 0.039343409 0.69672412 0.042653941
-0.03511972 -0.32475409 0.73261803 -0.85922152 -0.14088103 0.49182406 0.034626555
-0.081868269 -0.18758063 0.62902784 -0.9956677 0.024995141 0.089559838 0.047836624
-0.031265333 -0.12644552 0.72258037 -0.75387079 0.522282 0.39862305 0.064289391
-0.03816985 -0.19204877 0.7153945 -0.88079774 0.021248113 0.47301567 0.0019165004
-0.0053893351 -0.13851143 0.77719861 -0.47459581 0.26101521 0.84061283 0.11086771
-0.069684885 -0.31639099 0.66133904 -0.92527044 -0.050051711 0.37599131 0.013238474
-0.022580033 -0.23207836 0.74774563 -0.71355367 0.041647684 0.69936168 0.042507507
-0.046065271 -0.29039529 0.70735276 -0.88941288 0.034319744 0.45581445 0.00037205161
-0.063024722 -0.2404995 0.67005754 -0.90030682 0.034640189 0.43387514 0.00068508432
-0.074996561 -0.14137986 0.63810372 -0.90413654 0.36947694 0.21453178 0.064470232
-0.052005246 -0.16934109 0.68574244 -0.88703012 0.098553084 0.45107073 0.0050462633
0.095160924 -0.093489766 0.64635837 0.015633859 0.99963886 0.021859178 0.0011373637
-0.011666154 -0.098920502 0.73303407 -0.36929396 0.86313844 0.34440365 0.064087152
-0.072694026 -0.10117127 0.62055159 -0.66429663 0.74727935 0.016837962 0.081518985
0.068687879 -0.094514944 0.66763711 0.01128969 0.99885011 0.046593983 0.0011622353
0.037698105 -0.095702231 0.72650236 0.0187774 0.9593268 0.2816726 0.046777979
-0.086151674 -0.25749469 0.62575179 -0.99768943 0.038057879 0.056279264 0.04849631
-0.056063585 -0.21971658 0.68268949 -0.88945842 0.035230801 0.45565623 9.0878631e-05
-0.083088838 -0.36696434 0.63639855 -0.83863407 -0.5096879 0.19212267 0.088872142
-0.027082549 -0.12765725 0.73519003 -0.74350637 0.45480037 0.49026012 0.068903252
-0.084416747 -0.37318596 0.62180179 -0.80840182 -0.58708614 0.04261788 0.1056762
-0.091364451 -0.19478115 0.60755163 -0.97863185 0.05743628 -0.19743535 0.052580785
-0.091332845 -0.29116267 0.60568643 -0.95185715 -0.032115966 -0.30485505 0.062691152
-0.07916224 -0.19859034 0.63582993 -0.99203557 0.065017514 0.10788016 0.043608669
-0.027466062 -0.17569469 0.73401463 -0.82935691 0.042011566 0.55713737 0.015795976
-0.089085266 -0.14786938 0.60769063 -0.96789831 0.21691912 -0.12696049 0.069047689
-0.027810197 -0.31527773 0.74698848 -0.80082601 -0.047761932 0.59698951 0.029865511
-0.017764565 -0.097237684 0.71030217 -0.34325564 0.91779298 0.19957855 0.048819382
-0.061246134 -0.30458874 0.6795488 -0.90000451 0.0057244608 0.43584311 0.0031055952
-0.091140814 -0.14704983 0.60012513 -0.96700013 0.19488919 -0.16410016 0.064148672
-0.044355303 -0.095865391 0.67308331 -0.4759672 0.85440445 0.20844221 0.055787478
-0.061098471 -0.33869424 0.68050385 -0.86070395 -0.2519187 0.44240889 0.0495531
0.0051622484 -0.16763231 0.78060973 -0.2413445 0.02362819 0.97015184 0.066195354
-0.066757724 -0.12959529 0.65240812 -0.79652363 0.51728004 0.31300378 0.064119868
-0.059038267 -0.184838 0.6753034 -0.89703268 0.038640082 0.44027182 0.00067533617
-0.046236191 -0.33459842 0.71036774 -0.85974127 -0.25682375 0.4414596 0.060117621
-0.046115581 -0.10849802 0.68444395 -0.62318462 0.73685294 0.26208535 0.058913857
0.0045791757 -0.093713135 0.67104161 -0.12560992 0.98889607 0.079414457 0.01905353
-0.010500303 -0.19473004 0.76539868 -0.59115797 -0.018452235 0.80634469 0.054567657
-0.092379712 -0.34443948 0.60595715 -0.92924744 -0.28384089 -0.23650271 0.092013419
-0.017091438 -0.2577225 0.76018125 -0.59935802 0.034371618 0.79974282 0.059148043
-0.03821151 -0.34370551 0.72827375 -0.84030098 -0.30601916 0.44748908 0.060255162
-0.030063407 -0.35269892 0.7443381 -0.78902674 -0.34353909 0.50933063 0.075988099
-0.014340525 -0.093924172 0.65823919 -0.21378444 0.97004467 0.11536691 0.033529449
0.008795823 -0.10158243 0.7629863 -0.21078029 0.76659715 0.60654795 0.11592045
-0.091055974 -0.31878942 0.60432231 -0.95135218 -0.1126724 -0.28676456 0.066781245
-0.054209232 -0.2294524 0.68576801 -0.88837612 0.037329257 0.45759624 7.9770442e-05
-0.0026759475 -0.36141124 0.78340179 -0.42380524 -0.40152779 0.81188953 0.11737997
-0.071697563 -0.15350425 0.64464206 -0.92972875 0.24771085 0.27247715 0.041635416
-0.047389053 -0.17237173 0.69569117 -0.88993281 0.073579013 0.45011738 0.0025163288
-0.078464456 -0.28521857 0.64353573 -0.96504599 0.022908518 0.26107752 0.024866089
-0.06764327 -0.10068434 0.62410635 -0.62652659 0.77890795 0.027690722 0.078507371
-0.073665433 -0.10057373 0.61316031 -0.65861905 0.75070041 -0.051671214 0.083455704
-0.02559807 -0.094497755 0.59869146 -0.23772418 0.95494264 -0.17768434 0.047918312
-0.013256764 -0.097944342 0.72451586 -0.38313839 0.87411028 0.29855701 0.061245356
-0.071057752 -0.12567648 0.64185315 -0.82041055 0.51545066 0.24746132 0.071855061
-0.0025258134 -0.13109256 0.77879286 -0.37752968 0.38743019 0.84105247 0.12566616
-0.091110893 -0.31850436 0.60371172 -0.9477362 -0.11284188 -0.29843369 0.065091267
-0.043150898 -0.14084604 0.70388556 -0.83059132 0.38774672 0.39971322 0.054489747
-0.059567492 -0.10101424 0.65257663 -0.62498695 0.741575 0.24383989 0.063125469
-0.091199189 -0.17639834 0.60554153 -0.98112184 0.049857419 -0.18685323 0.04858122
-0.039330631 -0.1516019 0.71166462 -0.86045378 0.26341978 0.43615282 0.033531781
-0.0014088332 -0.11681549 0.77209574 -0.34147188 0.61456811 0.71112794 0.12199807
0.10586213 -0.091864929 0.5969224 0.10178929 0.99188852 -0.076132044 0.021970294
-0.068684898 -0.10844041 0.63691938 -0.71173584 0.68118191 0.17153217 0.079582296
-0.031494576 -0.12479802 0.72372258 -0.74563783 0.53378266 0.39887378 0.06487681
0.074447401 -0.095434994 0.69520634 0.057659667 0.98701823 0.14990142 0.021434575
-0.0064691245 -0.28475037 0.77452666 -0.40391037 0.029637048 0.91431838 0.075469926
-0.081871212 -0.31073356 0.63577014 -0.98530149 -0.028787907 0.16838124 0.041487053
-0.021903027 -0.2670607 0.75144261 -0.67813838 0.043008391 0.73367465 0.050143514
-0.042674165 -0.16836719 0.70418531 -0.88427544 0.10745974 0.45443311 0.0065088905
-0.038339183 -0.28581524 0.71983045 -0.87075704 0.041119002 0.48999119 0.0024758296
-0.085533813 -0.31075448 0.62358934 -0.99741685 -0.052499954 0.049024686 0.049119748
-0.035792775 -0.22024913 0.72034353 -0.85870379 0.029059201 0.51164764 0.0040394054
-0.049181309 -0.20049445 0.69477761 -0.89002693 0.025256878 0.45520774 0.00035036466
-0.08957997 -0.30305395 0.61033314 -0.97340178 -0.040143128 -0.22556013 0.059684403
-0.067756243 -0.12218432 0.64527875 -0.79317015 0.54943854 0.26267514 0.070524633
-0.045839611 -0.20379899 0.70185953 -0.88472408 0.02472432 0.46545881 0.0019339122
0.013395946 -0.19513036 0.75481474 -0.30482325 -0.017708896 0.95224428 0.079328403
-0.08981929 -0.17761795 0.60764861 -0.98284411 0.04827667 -0.17800762 0.048134945
-0.082010187 -0.14424224 0.62402052 -0.95203048 0.30353269 0.038805943 0.074896812
-0.052567631 -0.30061704 0.69554955 -0.89454895 0.016023293 0.44668269 0.00112563
-0.038945619 -0.36405131 0.72192442 -0.76980597 -0.49535736 0.40251693 0.081624284
-0.012867286 -0.13802135 0.76216495 -0.65366852 0.32608387 0.68292516 0.10050897
-0.050523095 -0.22126392 0.69361305 -0.88715357 0.034293573 0.4601984 0.00011816936
-0.047998782 -0.3152391 0.70631486 -0.88899875 -0.082867734 0.45034894 0.018352408
-0.08711569 -0.2412667 0.62414968 -0.99708635 0.066477761 0.037410218 0.047016907
-0.084105901 -0.16212185 0.62101167 -0.99102515 0.1336704 0.0011906727 0.04997335
-0.067015201 -0.22722179 0.65996653 -0.92220682 0.014188888 0.38643673 0.0058802105
-0.0030974247 -0.14183329 0.77820683 -0.43120396 0.22595783 0.87350231 0.10622443
-0.073453255 -0.10147436 0.60771477 -0.66309601 0.7431466 -0.089648545 0.089484774
0.056910273 -0.094463289 0.67021716 0.0072018974 0.99924177 0.038262874 0.00070291047
0.070710421 -0.095344111 0.69481975 0.04304434 0.98964584 0.13692451 0.016861992
-0.0045359028 -0.15788601 0.77636689 -0.48047146 0.086733654 0.872711 0.080461189
-0.083211631 -0.14642943 0.62090611 -0.9631834 0.26752532 0.026606787 0.073175088
0.049939211 -0.095109664 0.69139153 0.024149748 0.99557394 0.09082561 0.0075632669
-0.00022400079 -0.15301208 0.77999711 -0.34123752 0.13778047 0.92982435 0.091399878
-0.085886434 -0.1602696 0.6075263 -0.9805302 0.14158663 -0.13606483 0.050540157
-0.081942268 -0.11304738 0.60761893 -0.82210159 0.55365479 -0.13272241 0.099583253
-0.025568072 -0.09845832 0.56806022 -0.33002257 0.82068229 -0.46643934 0.061027881
0.068149164 -0.099205144 0.51338565 -0.048990741 0.81659335 -0.57513064 0.10805327
-0.072162837 -0.12838465 0.63812876 -0.8352856 0.50327474 0.22138751 0.074139901
-0.089163668 -0.15155686 0.60457742 -0.97285533 0.18755311 -0.13555957 0.059061017
0.019946534 -0.094228201 0.63714927 -0.021304553 0.99975985 0.005133139 0.00055218965
0.0963751 -0.095974073 0.70225894 0.11840065 0.9617784 0.24690802 0.037908584
0.098911591 -0.094474696 0.67958355 0.060010206 0.98982394 0.1290244 0.01706478
0.041340455 -0.10377269 0.75987381 0.10998916 0.77348393 0.62419951 0.091022648
0.075875305 -0.093422465 0.60955483 -0.0013678329 0.99999529 -0.0027430025 0.00053946121
0.059430685 -0.09625791 0.71329439 0.079334445 0.97299951 0.21674384 0.029082695
-0.070327051 -0.099346638 0.61711448 -0.62164873 0.78300911 -0.021202918 0.078244314
0.030576376 -0.094454616 0.58065176 -0.11571277 0.97952539 -0.16474448 0.035172354
-0.061972294 -0.10278311 0.63822085 -0.63854665 0.75133562 0.16659237 0.075065747
0.033688158 -0.094137311 0.57857692 -0.11582623 0.97951406 -0.1647314 0.035868682
0.088807352 -0.098047115 0.51474315 0.11681516 0.82687765 -0.55011594 0.11530018
-0.052571442 -0.10428704 0.66735935 -0.59204149 0.77026349 0.23702575 0.062640436
-0.017822243 -0.094133392 0.65436232 -0.22604282 0.96858233 0.10369607 0.032241423
-0.0090091415 -0.094155461 0.63784695 -0.14437126 0.98883241 0.03697864 0.020045724
0.12758785 -0.093339026 0.661461 0.13873398 0.98542994 0.098391004 0.024233947
-0.056230091 -0.10212485 0.65662456 -0.59707928 0.76551783 0.23974754 0.060369361
0.057580333 -0.097023889 0.73439121 0.16455257 0.9093771 0.38204154 0.054793444
0.059296291 -0.09360759 0.56930536 -0.03879733 0.99227804 -0.11780935 0.012180979
-0.036138538 -0.09599001 0.67748356 -0.43989438 0.87704921 0.19307438 0.05652792
-0.030772487 -0.095982 0.68567586 -0.38233456 0.9063254 0.1799849 0.051998068
-0.049127508 -0.098982252 0.63450974 -0.48171219 0.87336135 0.072063781 0.067547604
-0.029727435 -0.09485323 0.59670383 -0.26292366 0.9454518 -0.1923334 0.057223372
-0.026234796 -0.094890393 0.67317051 -0.3309525 0.931117 0.15326963 0.045979209
0.099667378 -0.10271648 0.50012326 0.18310958 0.65790969 -0.73049694 0.130233
-0.033267785 -0.094821289 0.61836946 -0.31237245 0.94922304 -0.037401956 0.045699563
0.079296872 -0.092822023 0.56504613 0.053600751 0.98562247 -0.16023506 0.02249223
0.041139875 -0.097012356 0.73729593 0.067962408 0.92871863 0.36450347 0.061906967
-0.009779498 -0.093730345 0.67019761 -0.21606459 0.97008127 0.11071785 0.033877045
0.085030518 -0.093777888 0.655532 0.0050956332 0.99934322 0.035877105 0.00055884192
-0.00021853756 -0.13548426 0.77948296 -0.3246128 0.32176408 0.88943493 0.12141953
-0.0062106624 -0.10925752 0.76212978 -0.41917321 0.69262236 0.5869993 0.110221
-0.0095483838 -0.1668279 0.7670511 -0.60580665 0.038846903 0.79466295 0.064073741
0.066049464 -0.093346551 0.58542979 -0.024530876 0.998016 -0.057985343 0.0045906245
-0.024587834 -0.094620772 0.62057036 -0.25153705 0.9670009 -0.040475089 0.034843765
0.046865586 -0.094007306 0.57985228 -0.053472094 0.99457908 -0.089181021 0.0090235444
0.12910612 -0.10095549 0.7152546 0.30221906 0.78968918 0.53390509 0.075628333
-0.019568803 -0.094598904 0.68386471 -0.28061792 0.94879705 0.1450441 0.042320702
-0.045973901 -0.10890023 0.68381977 -0.63167286 0.72945189 0.26246789 0.059904188
-0.00043686913 -0.11714911 0.7732954 -0.31777105 0.61280882 0.72352397 0.12163196
0.057609126 -0.094497271 0.54461884 -0.057124265 0.96259338 -0.26485991 0.044531487
0.10065994 -0.10492687 0.50094414 0.18910506 0.65379006 -0.73266488 0.13104235
-0.069585465 -0.10443942 0.63003379 -0.68479544 0.72246104 0.09542124 0.081461288
-0.051269155 -0.096231304 0.62286478 -0.48791972 0.87288845 -0.00036069614 0.068794303
-0.014136443 -0.094020151 0.66002315 -0.21089329 0.9706943 0.1152234 0.032436315
-0.03869608 -0.098209448 0.69088817 -0.54240984 0.80960768 0.22433676 0.055145387
0.041715931 -0.094742946 0.55811042 -0.14212854 0.95611048 -0.25622687 0.049841948
0.00086256152 -0.094699107 0.58826786 -0.14264157 0.96719384 -0.21021277 0.040002663
0.032233365 -0.099092349 0.75453162 0.032365084 0.83717233 0.54598081 0.097542807
0.10789037 -0.092508964 0.56401408 0.1488872 0.9743281 -0.16887093 0.033784736
0.087764025 -0.092629261 0.59306747 0.04416877 0.99761015 -0.053133726 0.0089987637
0.047487739 -0.094351768 0.64667678 -0.0047995728 0.99991751 0.011916661 0.00011031004
0.047730554 -0.094416477 0.67550665 0.0055137211 0.99919409 0.039758939 0.00068857771
0.019587306 -0.093930401 0.65458739 -0.030958535 0.99931037 0.020501915 0.0016734377
0.12859079 -0.094920523 0.69176376 0.18815669 0.92878807 0.319296 0.05608201
0.051182814 -0.096917227 0.72883886 0.10611466 0.93732959 0.33189294 0.051009037
-0.053623084 -0.105949 0.66589338 -0.62513959 0.7369349 0.25715259 0.06367036
0.085530989 -0.10252839 0.73988026 0.22870003 0.83292651 0.50391436 0.064949028
0.10237384 -0.10198602 0.73305732 0.24807563 0.8028872 0.54206157 0.067478798
-0.052341249 -0.10084087 0.67511755 -0.58265734 0.77259576 0.25220257 0.056365971
-0.0026317958 -0.10271593 0.76759976 -0.33154991 0.72713131 0.6011278 0.10961183
0.093510076 -0.096913703 0.7106837 0.12667823 0.95184749 0.27917585 0.044308972
-0.056535337 -0.11400548 0.66560763 -0.67523783 0.68117106 0.2829487 0.061506119
0.12062036 -0.094914556 0.6854614 0.15940665 0.95629525 0.24513033 0.043048669
-0.0081832828 -0.099829756 0.733293 -0.3456057 0.86999214 0.35166809 0.067859575
-0.062243398 -0.30660659 0.67764109 -0.9033258 -0.00932822 0.42885372 0.0048779435
-0.06769634 -0.22777276 0.65881759 -0.92666471 0.01295328 0.37566569 0.0068765949
-0.061723609 -0.33804387 0.67912471 -0.86973393 -0.24193431 0.430152 0.047959737
-0.012652912 -0.098924138 0.73462015 -0.38493568 0.84768879 0.36503184 0.066561356
-0.028529694 -0.15921295 0.73235774 -0.8395716 0.14113651 0.52459514 0.029230479
-0.021886803 -0.11506909 0.73910189 -0.60534948 0.65089303 0.45813772 0.077021264
0.0014188992 -0.1032638 0.76751751 -0.29791611 0.7298395 0.61528885 0.11390036
0.10874967 -0.093344353 0.64088571 0.050279409 0.9986006 0.016394557 0.0068908087
0.18176965 -0.20576252 0.69896555 0.77466816 -0.020875068 0.63202316 0.039011709
0.027918184 -0.13178475 0.77617919 0.052685231 0.38245815 0.92246956 0.10426545
0.15611368 -0.1496879 0.7128436 0.55518836 0.24847978 0.79374033 0.040054493
0.12360419 -0.15021494 0.72976339 0.45352653 0.24564898 0.85672069 0.02894865
0.1827261 -0.27090696 0.69817138 0.83317131 0.015379474 0.55280113 0.044942908
0.18019895 -0.32517055 0.70086813 0.81141037 -0.10249846 0.57541919 0.056797817
0.1650978 -0.26257539 0.71075964 0.68837172 -0.011772502 0.72526252 0.032992598
0.17722771 -0.23686682 0.70263994 0.82489443 -0.01785754 0.56500459 0.043920137
0.17587808 -0.28992558 0.70495296 0.75460428 -0.012274893 0.65606529 0.038716301
0.19045733 -0.16602105 0.68919867 0.83254963 0.091275625 0.54637885 0.050597008
0.12055457 -0.33801839 0.73795587 0.43602887 -0.19217074 0.87917531 0.040849935
0.16160981 -0.30453101 0.71432507 0.65505731 -0.0099252043 0.75551403 0.025345035
0.18003692 -0.32364911 0.70042259 0.8136254 -0.091892205 0.57408148 0.055411983
0.18315753 -0.29105875 0.69837755 0.81835502 -0.0089188972 0.57464385 0.047925495
0.14124604 -0.21427096 0.72560942 0.53003931 0.017717963 0.84778792 0.005057482
0.1166212 -0.36215281 0.73704284 0.40333048 -0.38861302 0.82843494 0.077725157
0.19092198 -0.21211183 0.69018131 0.81765705 -0.013964478 0.57553625 0.043634076
0.091003962 -0.22304446 0.7491914 0.43603584 0.017367203 0.89976174 0.00026532373
0.19176121 -0.33426556 0.67941672 0.95648271 -0.13248992 0.25997537 0.069630198
0.036784794 -0.10536472 0.7634809 0.086526021 0.73849142 0.66868806 0.10059283
0.11951911 -0.30946115 0.73672962 0.45571756 -0.03627228 0.8893851 0.0042637154
0.016454579 -0.12123585 0.7800504 -0.058260169 0.49768236 0.86540043 0.12203119
0.096878856 -0.34491453 0.74822599 0.37228662 -0.23807305 0.89706409 0.049615555
0.189198 -0.37070236 0.65998399 0.89368612 -0.44651508 -0.044151433 0.089129977
0.17674187 -0.33757427 0.62494648 0.92884099 -0.19567844 -0.31458598 0.044533342
0.081849106 -0.10778662 0.741445 0.2612665 0.8149417 0.51731008 0.065886021
0.03182907 -0.17018132 0.77761918 0.047442053 0.031535629 0.99837607 0.052554525
0.0030067412 -0.094545387 0.61995208 -0.064119652 0.99705982 -0.041956805 0.0046615135
0.087329395 -0.10028628 0.73274088 0.18666142 0.87916034 0.43844578 0.061936203
0.086695097 -0.12534866 0.74645787 0.40550157 0.53091604 0.74410796 0.061168041
0.093395635 -0.099077709 0.73224485 0.20240128 0.86244875 0.46391368 0.064316176
0.056168109 -0.18209401 0.76341742 0.3060354 0.015428124 0.95189512 0.012989006
0.14314598 -0.17923988 0.72082371 0.54004979 0.049525663 0.84017462 0.0058456003
0.14727682 -0.31704471 0.72308832 0.56455487 -0.077903315 0.821711 0.019510735
0.12345228 -0.33112532 0.73585689 0.43732199 -0.14739293 0.88714415 0.029291872
0.11706033 -0.19378 0.73608303 0.46052477 0.041953973 0.88665485 0.00034865449
0.061824217 -0.30064544 0.76276475 0.33270988 -0.016926039 0.94287729 0.0074394983
0.053296272 -0.23001492 0.76844007 0.25562871 0.00092033058 0.96677458 0.020243572
0.12810092 -0.16914585 0.72819924 0.4749659 0.098084562 0.87452084 0.003098564
0.14770548 -0.29489535 0.72147113 0.59144789 -0.0084372358 0.80629909 0.015747339
0.13948093 -0.19400001 0.72491235 0.52339822 0.031209363 0.85151649 0.0043654293
0.1896688 -0.11361998 0.68027455 0.79715306 0.48678634 0.35719192 0.086953387
0.16859142 -0.098705076 0.62180454 0.43789309 0.88503921 -0.15797246 0.074653342
0.13522859 -0.097800545 0.56377143 0.36435577 0.90934849 -0.20082398 0.064731516
0.15163893 -0.16950987 0.58188909 0.89799714 0.054485399 -0.43661487 0.0051052524
0.19173704 -0.22073855 0.67566764 0.94141597 -0.065001875 0.33092394 0.05467122
0.19572832 -0.17665134 0.67367566 0.94139469 0.010620651 0.33714002 0.061600316
0.1932541 -0.18876968 0.68312854 0.88281578 -0.018189093 0.46936715 0.058382016
0.17586306 -0.23430812 0.63254261 0.96727294 0.0075319041 -0.25362656 0.01808141
0.15858684 -0.34677097 0.58879387 0.8470788 -0.31169945 -0.43046597 0.048133943
0.068543553 -0.15825854 0.75813645 0.39563346 0.18436497 0.8997131 0.021644164
0.14885397 -0.095132671 0.68327427 0.35157004 0.88911527 0.29304036 0.078045793
0.17529163 -0.13091813 0.69943023 0.63184077 0.34689555 0.69313824 0.061047416
0.10363269 -0.27934489 0.74327457 0.44192535 0.012637054 0.89696282 0.00040365584
0.17320567 -0.16988328 0.70297062 0.65591818 0.075073667 0.75108939 0.018267965
0.069177084 -0.2790556 0.75879443 0.36424786 -0.0085322475 0.93126291 0.0039082863
0.046798617 -0.19558202 0.76837981 0.26617929 0.011696193 0.96385258 0.019693412
-0.023690816 -0.094413653 0.60032839 -0.22336693 0.96103853 -0.16282563 0.042284556
0.18924531 -0.25237477 0.69203222 0.90775418 -0.015549488 0.4192141 0.046530459
0.14173126 -0.16478807 0.72100556 0.51276064 0.13154455 0.84839404 0.011774068
0.04864715 -0.33131868 0.77118468 0.24966429 -0.14765145 0.95700926 0.038697481
0.10418436 -0.200905 0.74218529 0.44715023 0.033929788 0.8938151 0.00032217507
0.041547682 -0.27708092 0.77255267 0.20657352 -0.018146455 0.97826284 0.031271353
0.18984707 -0.30371493 0.68811542 0.91547465 -0.0068220356 0.40231788 0.043338973
0.14508963 -0.094612837 0.60705513 0.27695265 0.95124447 -0.13576171 0.064611472
0.11219199 -0.31485492 0.50573564 0.49378693 -0.017364576 -0.8694095 0.047250859
0.18919033 -0.35548773 0.68815202 0.90246373 -0.2469081 0.35298112 0.093768783
0.10069379 -0.16969618 0.49601206 0.27418128 0.02465898 -0.96136183 0.043246068
0.11340747 -0.24681081 0.50544691 0.42612189 -0.025932524 -0.90429401 0.048473168
0.12370979 -0.12280443 0.52514982 0.67356724 0.44150344 -0.59277487 0.11351879
0.13851374 -0.36526525 0.54906338 0.72665179 -0.55044115 -0.41108611 0.069469735
0.11984768 -0.28187481 0.51426423 0.4586907 -0.011934657 -0.88851577 0.043856233
0.11231463 -0.22907303 0.50412869 0.41825473 0.0031639922 -0.90832424 0.044732951
0.11840484 -0.28553161 0.51088315 0.43858883 -0.012177144 -0.89860535 0.043490201
0.11880074 -0.32800171 0.51441598 0.56900984 -0.090592436 -0.81732535 0.066644795
0.19150066 -0.33538806 0.67783213 0.96191639 -0.14041056 0.23452449 0.071225174
0.12685436 -0.13405138 0.53068453 0.75022459 0.3027494 -0.58779752 0.086934976
0.1034179 -0.10004551 0.72840893 0.2319217 0.84310627 0.48516402 0.066300392
0.12222627 -0.17662936 0.52419549 0.71340948 0.021485055 -0.700418 0.038528897
0.11737674 -0.20557442 0.512999 0.59611362 0.001358291 -0.80289894 0.051612027
0.10961352 -0.27389893 0.50359637 0.33031619 -0.0088190548 -0.94382918 0.04435363
0.12064122 -0.10130958 0.53554004 0.3839727 0.83153319 -0.40139452 0.091160782
0.11614938 -0.24286912 0.50745058 0.45456564 -0.035450507 -0.8900075 0.046053164
0.14028776 -0.36296055 0.553765 0.76487261 -0.50180435 -0.40393341 0.067796625
0.12442812 -0.35102978 0.51950186 0.6497525 -0.32576486 -0.68680346 0.091439091
0.12034519 -0.20915021 0.51937985 0.64988613 0.012262666 -0.75993264 0.04876142
0.11393357 -0.094580561 0.5573743 0.19556759 0.95769918 -0.21110564 0.047163449
0.13141401 -0.36981371 0.53779876 0.65241587 -0.56693119 -0.50293392 0.085679844
0.070285514 -0.10289006 0.74657917 0.24122779 0.84232944 0.48196498 0.060578294
0.094221108 -0.10202065 0.73593742 0.24564348 0.82165909 0.51433027 0.067388169
0.16196187 -0.10126984 0.69736058 0.49982455 0.68675578 0.52777064 0.095264725
0.097964101 -0.30065572 0.4992567 0.23065281 0.007780992 -0.97300506 0.044898778
0.097778313 -0.33530268 0.49771291 0.27991593 -0.12423068 -0.95195264 0.070645101
0.12566081 -0.11130774 0.53300261 0.58246046 0.64796937 -0.49079058 0.10387087
0.11361059 -0.11056567 0.51225513 0.49698257 0.58299851 -0.64274496 0.14157487
0.10798239 -0.280045 0.50252706 0.32627526 -0.0069133821 -0.9452495 0.045416072
0.061490405 -0.095888346 0.52722615 -0.051925223 0.91105413 -0.40900394 0.078138068
0.067019537 -0.098684318 0.51367533 -0.044359382 0.83921945 -0.5419805 0.10138697
0.026443899 -0.10583755 0.76756483 -0.0037529436 0.72690386 0.68672895 0.11400456
0.034273475 -0.095505893 0.7323491 0.0052864277 0.94990706 0.31248781 0.058132257
0.10412126 -0.096962035 0.52792698 0.19009064 0.89405292 -0.40562901 0.089801498
-0.019922599 -0.094513401 0.59489799 -0.19765057 0.95699263 -0.21236624 0.042703632
0.068168513 -0.093205802 0.57265669 0.011548251 0.99370587 -0.11142342 0.013201954
0.13391401 -0.29735294 0.5340156 0.74842513 -0.0036697178 -0.66320908 0.028507937
-0.014364437 -0.098997831 0.56201184 -0.31132904 0.82348371 -0.47428766 0.064292721
0.10492077 -0.11064251 0.50524139 0.26992726 0.63770533 -0.72143686 0.13780273
0.11772234 -0.097677357 0.54841113 0.26009637 0.92560995 -0.27494752 0.064161874
0.098162055 -0.1725271 0.49626768 0.22894402 0.01130709 -0.97337395 0.041964784
0.10412917 -0.098126277 0.51965731 0.21001741 0.83748102 -0.50449789 0.11061123
0.10957899 -0.14672928 0.50551665 0.55383146 0.14076225 -0.82064402 0.072652422
-0.05822856 -0.10109275 0.6357621 -0.57178718 0.81406844 0.10174513 0.077239253
-0.029234663 -0.094582565 0.6090551 -0.27149725 0.95786351 -0.093737639 0.04012382
0.097740792 -0.2208167 0.49777776 0.14609404 0.0067120353 -0.98924792 0.052039985
-0.059565004 -0.096706584 0.61512756 -0.55595833 0.83074027 -0.027943272 0.073390402
0.10995259 -0.096593775 0.53514916 0.20691951 0.91430289 -0.34818742 0.077400818
-0.0095097767 -0.09505453 0.57653677 -0.21206339 0.92471761 -0.31611156 0.055669233
-0.05877566 -0.099420801 0.6258691 -0.55592138 0.83103055 0.01842794 0.072044998
0.096556783 -0.2688016 0.49949482 0.16976859 -0.01174851 -0.98541391 0.049225371
0.09773767 -0.17298803 0.49865943 0.24234565 0.010489106 -0.9701333 0.042938329
0.11578906 -0.21960306 0.5098722 0.5267033 -0.0013076208 -0.85004818 0.049014531
0.19139011 -0.32185084 0.67676121 0.97176641 -0.047569487 0.23109984 0.053035524
0.10322727 -0.12119853 0.49971041 0.28018886 0.4314031 -0.85754633 0.13562775
0.12494547 -0.29563245 0.52093416 0.58959669 -0.02731733 -0.80723572 0.046090584
0.10604566 -0.10194145 0.50611788 0.23171306 0.68592751 -0.68979162 0.13174061
0.1295407 -0.12969136 0.53791136 0.74870312 0.38622203 -0.53877282 0.091854848
0.1298518 -0.36183134 0.52934748 0.6732024 -0.40794939 -0.61674625 0.094131999
0.095029466 -0.09330368 0.62558597 0.021491529 0.99976897 -0.00047168924 0.002945065
0.10740669 -0.17740928 0.50215465 0.36083418 -0.0065250425 -0.93260717 0.043845408
0.10937883 -0.19776672 0.50322765 0.28465593 0.02492417 -0.95830572 0.054968555
0.11485083 -0.17385554 0.50767767 0.57986921 0.018237807 -0.8145054 0.035214957
0.12642159 -0.10209917 0.54853475 0.40313351 0.85711288 -0.32068798 0.076970927
0.12040798 -0.10902218 0.52399218 0.54954982 0.61463332 -0.5658806 0.11935727
0.12774253 -0.10935272 0.54112291 0.54542941 0.72302455 -0.42396012 0.090176739
0.11673094 -0.13688669 0.51407748 0.64323628 0.25388151 -0.72235131 0.10526545
0.1044438 -0.10992691 0.5042516 0.22271295 0.64218348 -0.73348439 0.13344227
0.12172047 -0.12293945 0.52173948 0.66227084 0.43747112 -0.60828966 0.11726948
0.097512528 -0.095706388 0.70011473 0.11208648 0.96280384 0.24585655 0.037542958
0.044798501 -0.095125385 0.69868982 0.026553851 0.99264002 0.11815559 0.012696423
0.050745483 -0.093909509 0.56415504 -0.092443526 0.98092097 -0.17102079 0.030442532
0.035609625 -0.094305523 0.57093042 -0.12891622 0.97538126 -0.1789192 0.039676279
0.13431507 -0.1315642 0.54606754 0.81373489 0.3528246 -0.46189871 0.069705367
0.11899003 -0.099768415 0.52815998 0.39086112 0.80364156 -0.44876251 0.10268127
0.10194206 -0.12257721 0.49736077 0.26231772 0.40346453 -0.87658751 0.13026215
0.13427773 -0.33985212 0.53542072 0.78911608 -0.19830842 -0.58135146 0.052141413
0.12802024 -0.33370757 0.52455097 0.69753408 -0.12257626 -0.70598954 0.058952838
0.11515635 -0.20850173 0.51067376 0.53172845 -0.0033340259 -0.84690839 0.049803808
0.090362646 -0.098075181 0.51047218 0.11270131 0.79082876 -0.6015715 0.1202539
0.12436103 -0.15533826 0.525195 0.73228037 0.0717659 -0.67721128 0.049781874
0.12428568 -0.26461989 0.52173889 0.58310014 0.0075373654 -0.81236541 0.049859378
0.18792711 -0.35310301 0.64988953 0.95501751 -0.27598581 -0.10850514 0.072038583
0.19027179 -0.36949915 0.65978074 0.91001767 -0.41292131 -0.036929999 0.08551383
0.17776056 -0.37036952 0.62874591 0.81215769 -0.50501806 -0.29215842 0.071013071
0.19225216 -0.34025726 0.65828377 0.98792195 -0.15493587 -0.0022755491 0.069840826
0.084535912 -0.32387653 0.49724618 0.07267531 -0.063482367 -0.99533325 0.058586247
0.11900837 -0.0987515 0.72144037 0.24551924 0.83721483 0.48866308 0.068958327
0.1644223 -0.30614287 0.5981704 0.90397477 -0.025971344 -0.42679632 0.0039904481
0.15715705 -0.095848203 0.59361434 0.41829053 0.87859988 -0.23042403 0.082081012
0.050191712 -0.093809523 0.57288963 -0.064521126 0.9916389 -0.11175566 0.015365647
-0.066621147 -0.096985206 0.61438024 -0.58747661 0.80858636 -0.032546699 0.076152794
0.13920921 -0.26912978 0.54823279 0.8396861 0.033432215 -0.54204202 0.011721523
0.10003947 -0.30126384 0.50004327 0.24444863 0.0059796325 -0.96964371 0.043422803
-0.01826705 -0.094501719 0.62781155 -0.20813791 0.97809172 0.0039098542 0.025731053
0.12831333 -0.09692435 0.55769056 0.31584764 0.92152721 -0.2258936 0.060048949
0.11899813 -0.2523165 0.50986916 0.44284675 -0.001729602 -0.8965956 0.049939409
-0.0030700534 -0.093785807 0.66629469 -0.16385727 0.98187894 0.095207497 0.025282461
0.0076002637 -0.093990251 0.69310403 -0.16392995 0.98066103 0.10691524 0.027919706
0.085784055 -0.093833439 0.65702885 0.0074963532 0.99913836 0.040820513 0.00078347017
0.15356281 -0.32085148 0.57387561 0.88910496 -0.1223167 -0.44105658 0.021940611
0.0036426028 -0.093807623 0.65625936 -0.10639431 0.99271578 0.056530654 0.015215778
0.18928222 -0.36259964 0.65754664 0.93144292 -0.36026931 -0.051187102 0.084621459
0.18297802 -0.36354411 0.63852733 0.88693333 -0.41647437 -0.19974594 0.073760793
0.099211119 -0.10120454 0.50138909 0.17728464 0.67615426 -0.71511221 0.1302449
-0.024055617 -0.098843142 0.56448305 -0.33222842 0.80801195 -0.48656037 0.060671262
0.10197934 -0.10548822 0.49865183 0.19235115 0.6282258 -0.75387883 0.12972161
0.0059585813 -0.23388377 0.53343296 -0.45597243 0.02572855 -0.88962203 7.4165953e-05
0.021283429 -0.094256707 0.63961309 -0.019219991 0.99979705 0.0060396614 0.00048025325
0.058395691 -0.093725502 0.55473542 -0.048031326 0.97059691 -0.23587 0.038343735
0.070217326 -0.096374251 0.52083218 0.0052968226 0.90477169 -0.42586398 0.087626696
0.03463608 -0.098516665 0.53135008 -0.24961251 0.85312605 -0.45811537 0.055722211
-0.010673672 -0.094221972 0.64731187 -0.16259491 0.98457557 0.064606421 0.023134358
0.097811371 -0.30196166 0.49957949 0.22877146 0.0072505786 -0.97345316 0.043022688
0.017236579 -0.25424579 0.52642417 -0.44189733 0.019452481 -0.89685464 0.00040135882
-0.032995369 -0.19366141 0.55455631 -0.50659454 0.016828613 -0.86202013 0.0050992309
-0.0025081863 -0.19157895 0.53991795 -0.45802674 0.031177297 -0.88839149 0.002049776
0.01476438 -0.097087473 0.54739988 -0.28577048 0.84139067 -0.45869046 0.072751246
0.054232571 -0.24527395 0.50821072 -0.26974884 0.0092085684 -0.96288669 0.019007809
0.029567134 -0.22697237 0.5207938 -0.4176774 0.024688656 -0.90825987 0.0036068521
0.095246531 -0.32089043 0.49702612 0.19516945 -0.042661939 -0.97984123 0.053909052
0.022754326 -0.09867388 0.53285861 -0.29378784 0.81223935 -0.50394034 0.069712691
0.096879601 -0.34956294 0.49548599 0.29354265 -0.19670939 -0.93548816 0.090337172
0.10125346 -0.14868593 0.49609947 0.41724005 0.11700255 -0.90123314 0.061971422
-0.093240149 -0.23099662 0.5972591 -0.92649186 0.075287096 -0.36870682 0.056643866
-0.027076647 -0.094742619 0.59477401 -0.24719146 0.94447392 -0.21648401 0.054425057
0.12284934 -0.098785445 0.71754956 0.24684756 0.84892768 0.46732014 0.070932053
0.083775282 -0.092835948 0.59922689 0.026541315 0.99921221 -0.029506313 0.0054572173
-0.021360373 -0.09598887 0.58225065 -0.24880069 0.91294956 -0.32345232 0.057818111
0.040779728 -0.094251633 0.56186396 -0.13004334 0.96948099 -0.2078348 0.041561991
-0.031762108 -0.094793811 0.61557436 -0.30568528 0.95115793 -0.043072045 0.045087084
0.044839744 -0.094160058 0.55974859 -0.12290838 0.96625751 -0.22636242 0.043899477
-0.014176995 -0.10294914 0.54797232 -0.35895365 0.71913493 -0.5949766 0.06928315
0.031198032 -0.097880684 0.53696048 -0.23514412 0.8795988 -0.41353729 0.057494469
-0.0023520351 -0.22942872 0.53797436 -0.45780647 0.027629465 -0.88862246 4.4703756e-05
-0.012993845 -0.28497329 0.54213601 -0.46426523 0.0054741739 -0.8856793 5.7544108e-05
0.062369641 -0.14842883 0.50465405 -0.29112694 0.15556051 -0.94395238 0.0578973
-0.032470092 -0.22490424 0.55283809 -0.50034988 0.017618563 -0.86564404 0.0027336697
0.085140191 -0.17405787 0.49818647 0.081276603 -0.0042615798 -0.99668247 0.041503198
0.059897415 -0.14944367 0.50603682 -0.32268804 0.14774972 -0.93490243 0.050653517
0.057738077 -0.25653064 0.50599772 -0.2539494 0.025337331 -0.96688563 0.018739104
0.085990399 -0.15951435 0.49784234 0.12947391 0.073545009 -0.98885173 0.052143089
-0.0069998843 -0.18994243 0.54237473 -0.45975402 0.030939592 -0.8875072 0.0019531067
0.011003456 -0.20275737 0.53237778 -0.46038783 0.028010488 -0.88727582 0.001821806
-0.025486268 -0.29279771 0.54851067 -0.48756582 2.3331722e-06 -0.87308621 0.00066454848
0.010292639 -0.19078599 0.53342962 -0.46166694 0.029160218 -0.88657391 0.0017809605
0.084272556 -0.23082958 0.49778754 -0.067654029 -0.0053819055 -0.99769431 0.042155433
0.1024441 -0.10281739 0.50180978 0.19792405 0.65921658 -0.72543746 0.130417
-0.092528321 -0.26792955 0.59044588 -0.87482083 0.012136673 -0.48429465 0.055181269
0.077952057 -0.12120116 0.50011474 -0.068740048 0.49163678 -0.868083 0.12203133
-0.092219427 -0.24593368 0.5953849 -0.87942696 0.055825278 -0.47274911 0.059901677
-0.010876251 -0.15348999 0.54537064 -0.45338571 0.15978882 -0.87687457 0.023195967
-0.012566728 -0.14860478 0.54629779 -0.45065066 0.20352712 -0.86918968 0.03247498
0.0291998 -0.10126019 0.52485996 -0.31390733 0.76782095 -0.55849195 0.059977934
0.090874903 -0.3502014 0.49677172 0.21661466 -0.21511053 -0.95226336 0.098622866
-0.092547141 -0.23167752 0.59828687 -0.92513567 0.077312715 -0.37168092 0.056932177
0.095378116 -0.092478022 0.60621607 0.043140579 0.99874336 -0.025509782 0.0079002399
0.16566581 -0.3089503 0.60455823 0.90600342 -0.029964466 -0.42220831 0.0049162279
0.086818643 -0.10350397 0.5013088 0.081912152 0.67019206 -0.73765367 0.12777518
0.057740081 -0.10289087 0.51415491 -0.18828455 0.75177634 -0.63196617 0.10143249
-0.0070413351 -0.22583136 0.54030001 -0.45809484 0.027468154 -0.88847882 0.00013675861
-0.029085657 -0.20777762 0.55208516 -0.48440981 0.021610178 -0.8745743 0.0019101234
-0.090662494 -0.28355974 0.58987755 -0.82415378 -0.024399523 -0.56584024 0.05525602
-0.091628127 -0.26097646 0.59213108 -0.88060117 0.042370971 -0.47196016 0.056587707
0.084616959 -0.14168537 0.49635419 -0.012356712 0.18706465 -0.98226982 0.093237177
0.012009544 -0.20840168 0.53151703 -0.45881191 0.028759839 -0.88806784 0.0018422569
0.05919848 -0.1800655 0.50734317 -0.28706712 0.0015679974 -0.95790917 0.029816804
-0.071846105 -0.20142433 0.57651019 -0.73518401 0.075173631 -0.67368644 0.051445544
0.09400703 -0.11964215 0.49662879 0.11729885 0.45797431 -0.88119262 0.12494829
-0.088139653 -0.2330201 0.59055871 -0.8298018 0.056657773 -0.55517465 0.052851833
0.081758626 -0.26057297 0.49957031 -0.042470265 0.009539553 -0.99905223 0.043873079
0.096193999 -0.11951163 0.49681959 0.12521961 0.45500621 -0.88164014 0.12420528
0.0034191459 -0.17429835 0.53770208 -0.46013311 0.045711018 -0.8866725 0.0025506823
0.0087068835 -0.23200117 0.531627 -0.45697799 0.025611309 -0.88910919 9.6214026e-05
0.087857448 -0.1780341 0.49738765 0.071826212 -0.018225264 -0.99725068 0.041448832
0.070637263 -0.24411738 0.50054789 -0.19966811 0.0065587452 -0.97984171 0.024055468
0.085610598 -0.26251665 0.49977443 -0.0093272291 0.011868937 -0.9998861 0.045980364
-0.019989304 -0.3430976 0.54558426 -0.4506644 -0.22177158 -0.86470741 0.040424298
0.021420272 -0.26132858 0.52469677 -0.44018435 0.017495653 -0.89773691 0.00046644654
-0.0075534941 -0.17707662 0.54310948 -0.4559285 0.037553858 -0.88922381 0.0020793753
0.072741888 -0.16603418 0.50053823 -0.15891236 0.035893392 -0.98663998 0.041090406
0.0945796 -0.31771615 0.49761823 0.18752097 -0.04185158 -0.98136866 0.048483483
0.10665368 -0.09212511 0.59080547 0.11686081 0.98775882 -0.10332485 0.024330745
0.10959168 -0.098183937 0.52480143 0.24622519 0.86169946 -0.44367462 0.10199703
-0.027550429 -0.16979471 0.55217403 -0.47349575 0.077539489 -0.87737644 0.0056030103
-0.056346051 -0.17046039 0.5657804 -0.6471101 0.058890413 -0.76011866 0.030709216
-0.054932211 -0.097919025 0.59739095 -0.53502852 0.83137155 -0.15021975 0.081997894
0.013141687 -0.2984392 0.52913743 -0.44736367 -0.0059868614 -0.89433211 0.00035812982
0.028850457 -0.3154833 0.5209344 -0.41123042 -0.061173212 -0.9094764 0.011156945
0.0400622 -0.099867471 0.52429253 -0.27656329 0.78144574 -0.5593347 0.065780409
0.0056010447 -0.16242844 0.53698349 -0.46724489 0.11162233 -0.87705344 0.01214535
-0.0095405057 -0.11401259 0.5502618 -0.41896546 0.56449008 -0.71120942 0.079669259
0.0063552787 -0.1557551 0.53722984 -0.45108619 0.17269732 -0.87561226 0.025943512
0.010875866 -0.11892062 0.53763229 -0.41166314 0.49345315 -0.76618367 0.084448822
0.02719941 -0.21702178 0.52367115 -0.42886689 0.02164462 -0.90310836 0.0028621934
7.469226e-05 -0.1512976 0.54033184 -0.44294184 0.18807267 -0.87660205 0.02790449
0.014167476 -0.1272053 0.53537524 -0.42874944 0.38987201 -0.81496865 0.074720435
0.003504775 -0.11508057 0.54150885 -0.40933603 0.53187376 -0.74131924 0.079528287
0.070702568 -0.11259273 0.5059126 -0.10286648 0.6117841 -0.78430778 0.12349405
0.16321294 -0.097866789 0.61664635 0.40676114 0.89713603 -0.17231481 0.07203266
0.12307908 -0.09536536 0.69502896 0.17842594 0.93383086 0.31003898 0.049657829
0.16229351 -0.094347209 0.65249056 0.3866325 0.91837955 0.08422754 0.068359099
0.089395076 -0.092869803 0.5634988 0.081807345 0.98133457 -0.17404018 0.023930546
0.093790174 -0.092385732 0.57368582 0.08227025 0.98945248 -0.11922809 0.015395906
0.12344933 -0.097250901 0.55838984 0.27037042 0.93926185 -0.21139295 0.056750525
0.077275746 -0.096304476 0.71317625 0.12174051 0.95273298 0.27835098 0.043232754
0.11037616 -0.096224055 0.70531285 0.18188632 0.91841257 0.35133421 0.055425402
-0.020818448 -0.1063154 0.55411035 -0.39685303 0.67993122 -0.61660463 0.068332225
0.039337028 -0.095083699 0.55537665 -0.15014301 0.94908714 -0.27693087 0.052957125
0.028861254 -0.10246938 0.52350706 -0.32917401 0.73607206 -0.59147489 0.061576467
0.055960461 -0.17937265 0.50915509 -0.3131927 0.004673529 -0.94967812 0.023339979
-0.090374179 -0.33802032 0.60063004 -0.91169316 -0.24667701 -0.32858175 0.079754114
0.011308222 -0.24923559 0.52966547 -0.4500863 0.020767709 -0.89274353 0.00018891024
-0.059322752 -0.17516138 0.56753814 -0.66635305 0.042003751 -0.7444523 0.035640229
0.051339265 -0.37462437 0.51089907 -0.29979607 -0.52578688 -0.79603428 0.092491738
0.078452855 -0.33480668 0.49850667 -0.03899543 -0.11857083 -0.99217957 0.071369253
-0.092641488 -0.29494154 0.59703273 -0.92678809 -0.023047395 -0.37487701 0.05860962
0.0025884099 -0.3498551 0.53470737 -0.43473986 -0.30579939 -0.84704667 0.058206245
-0.047275618 -0.21141644 0.56137413 -0.57026023 0.032577764 -0.82081783 0.015848542
0.029594578 -0.20396695 0.52246475 -0.42756933 0.021861091 -0.90371811 0.0030870249
-0.031950332 -0.24081182 0.55256188 -0.49583235 0.016376911 -0.86826384 0.0014941067
0.14376235 -0.24548948 0.55990076 0.87769157 0.034102533 -0.47801101 0.0021226709
0.10237525 -0.22736394 0.49963155 0.2016965 0.0086856345 -0.97940958 0.055260967
0.022574415 -0.09472511 0.69622731 -0.062344085 0.99268824 0.10335974 0.013418812
0.084549136 -0.19185741 0.49750122 -0.01396916 -0.013557393 -0.99981058 0.052271008
-0.042863917 -0.11780154 0.56152934 -0.52473873 0.50491136 -0.68535662 0.070328012
-0.052067462 -0.20027044 0.56365812 -0.59101737 0.041974325 -0.80556601 0.020351028
-0.039861694 -0.34316263 0.55624539 -0.53982377 -0.25091338 -0.80351281 0.039447337
0.055544239 -0.095434032 0.6900537 0.03048688 0.99473429 0.097848147 0.0096325753
0.15856032 -0.32815132 0.58710533 0.88164783 -0.14576519 -0.44883141 0.03098461
-0.01650211 -0.34099865 0.54375267 -0.45956707 -0.21607545 -0.86145782 0.040791869
-0.012109178 -0.26258618 0.54213494 -0.46314245 0.017310439 -0.88611484 7.8081976e-05
-0.0034829502 -0.20305724 0.54016393 -0.46252778 0.027136445 -0.88618946 0.0017822842
-0.079793729 -0.25626105 0.57994503 -0.7207315 0.018604778 -0.69296461 0.035756651
0.10292161 -0.20783536 0.49890888 0.11832628 0.007208189 -0.99294859 0.050851259
-0.0070912582 -0.13740903 0.5439741 -0.4327392 0.29871464 -0.85059184 0.050348435
-0.072871812 -0.22956531 0.57566005 -0.68873769 0.045463227 -0.72358382 0.034002624
-0.088143349 -0.25151375 0.58891577 -0.84690046 0.052427296 -0.52916056 0.054861326
-0.028563589 -0.30813968 0.54972744 -0.50038487 -0.043567657 -0.86470628 0.0039770147
-0.031071479 -0.25596952 0.55231476 -0.49703941 0.017495118 -0.86755157 0.0010798435
-0.078584544 -0.37199223 0.59111232 -0.72938013 -0.50585365 -0.46056136 0.10377984
0.11067959 -0.29188958 0.50419086 0.35433736 -0.010608392 -0.93505746 0.043620154
-0.059459165 -0.31852481 0.56664026 -0.63512892 -0.11188906 -0.76425916 0.028763724
-0.022127138 -0.15710513 0.55017745 -0.46555021 0.15893279 -0.87063378 0.021174479
0.07658083 -0.349572 0.49935326 -0.038975339 -0.22582018 -0.97338897 0.09825179
0.13624106 -0.095212296 0.69095731 0.25699604 0.8992815 0.35390088 0.072241858
0.18180721 -0.22504328 0.64508069 0.99066496 -0.026600406 -0.133699 0.044196706
0.091304921 -0.23655531 0.49804205 0.073284037 -0.0022894384 -0.99730849 0.044793148
0.03672114 -0.19010937 0.51928461 -0.41293335 0.024353841 -0.91043562 0.0049367286
-0.01976284 -0.22025079 0.54761869 -0.46771413 0.025942657 -0.88349897 0.00038408602
0.075723082 -0.092922881 0.58203572 0.031992879 0.99658126 -0.07617268 0.009616876
0.098378986 -0.10335054 0.49800053 0.17428413 0.63890183 -0.749286 0.12907133
0.14710245 -0.15296821 0.57416433 0.87001395 0.19813275 -0.45146328 0.039571095
0.13499005 -0.10054278 0.5615229 0.40890506 0.88174492 -0.23520768 0.070187204
0.12369023 -0.28964224 0.51973599 0.55113655 -0.023936074 -0.8340717 0.047036868
0.10203326 -0.27012882 0.50125968 0.27151558 -0.011705863 -0.96236283 0.047147915
-0.01411256 -0.093998648 0.64851308 -0.1874322 0.97952884 0.073432297 0.026194362
0.062904276 -0.096720062 0.52112335 -0.059894439 0.88994247 -0.45212299 0.08534684
0.085131072 -0.10266089 0.50180334 0.073713198 0.67804527 -0.7313146 0.12759349
-0.04112773 -0.094962426 0.60886472 -0.40680146 0.90912104 -0.089507684 0.063049473
-0.043586843 -0.094913319 0.61832881 -0.45094311 0.89216566 -0.026283478 0.064820625
-0.041908842 -0.094763272 0.62498778 -0.42631039 0.90449786 0.011951311 0.061679669
0.010010062 -0.0938944 0.64868975 -0.038039573 0.99909192 0.019194778 0.0018939906
0.043494437 -0.094258219 0.6712482 -0.00080704864 0.99963766 0.026905952 0.00022198347
-0.034134515 -0.099614359 0.56954819 -0.40899497 0.74636513 -0.52503544 0.066940673
-0.089820415 -0.18922654 0.60769767 -0.97456884 0.058857575 -0.21622065 0.053206459
0.0017591665 -0.10591231 0.77355039 -0.2994262 0.66867995 0.68059617 0.11607488
0.054243796 -0.11120924 0.51345253 -0.24612089 0.64628214 -0.72231835 0.097142942
-0.088865705 -0.28239214 0.58745766 -0.8052898 -0.020591952 -0.59252375 0.05479037
-0.073473446 -0.19793659 0.57843351 -0.75494546 0.074079119 -0.65159005 0.054249346
0.054521222 -0.29638842 0.5078662 -0.25557178 -0.0029012773 -0.96678573 0.020524673
