# .PCD v0.7 - Point Cloud Data file format
VERSION 0.7
FIELDS x y z
SIZE 4 4 4
TYPE F F F
COUNT 1 1 1
WIDTH 1403
HEIGHT 1
VIEWPOINT 0 0 0 1 0 0 0
POINTS 1403
DATA ascii
-0.01182598 -0.089075282 0.74074548
-0.020590009 -0.1203134 0.75440723
0.01464486 -0.094167776 0.71446502
-0.006133676 -0.090935871 0.7508409
-0.0073370342 -0.26094219 0.7822119
5.3748488e-05 -0.15806089 0.78410381
-0.019672809 -0.1258143 0.76449698
-0.01039499 -0.2071626 0.78795183
-0.01669216 -0.09110181 0.77084261
-0.002310514 -0.16379081 0.79724091
-0.01540381 -0.2330533 0.76717031
0.056765418 -0.097686201 0.69759911
-0.01339543 -0.099284753 0.77591658
-0.091237158 -0.1558028 0.59974629
-0.077578127 -0.14275309 0.6280992
0.13077161 -0.091557011 0.68568528
0.097693317 -0.096637107 0.74405271
-0.01862997 -0.09733209 0.58581448
0.0123086 -0.09567301 0.70160788
0.1125475 -0.094074957 0.64341033
0.032605171 -0.096495733 0.74757558
-0.008479774 -0.092701882 0.66734868
0.069304757 -0.093498677 0.52515048
0.1083688 -0.094706513 0.50185871
-0.058325529 -0.097651511 0.63952291
0.01534113 -0.098944813 0.78724688
-0.021895951 -0.092494443 0.71675831
0.1228361 -0.094473228 0.72211063
0.001018822 -0.093311548 0.70701861
0.16617011 -0.3048639 0.71733677
0.1570289 -0.091962963 0.71104407
0.048541129 -0.0959346 0.67946881
0.14310279 -0.17807651 0.72151482
0.044394609 -0.09771803 0.74239701
-0.051259849 -0.09274748 0.61299962
-0.025052249 -0.095632792 0.59632218
0.09108451 -0.091443628 0.60841048
0.1652448 -0.093160689 0.61187869
0.02081776 -0.094964497 0.77334261
0.1021989 -0.093785018 0.57328397
0.091652513 -0.093321837 0.65800703
0.1444138 -0.095293909 0.67209542
0.1251439 -0.1469502 0.73196852
0.16269121 -0.196284 0.71583062
0.1023055 -0.12824211 0.74039012
0.1282776 -0.089616753 0.60290372
0.19134679 -0.1508369 0.69833988
0.17819031 -0.092500389 0.68423402
0.1470226 -0.092191249 0.66089988
0.165047 -0.29747039 0.71932822
0.1470869 -0.1761674 0.72265458
0.1578714 -0.099391997 0.71682
0.1898783 -0.1857767 0.70099312
0.1866508 -0.2055175 0.70042998
0.025967 -0.1236929 0.78085083
0.1829576 -0.1887957 0.70505762
0.016104581 -0.092400387 0.63618892
0.077697746 -0.093967423 0.68323988
0.1835936 -0.094403617 0.69124621
0.13838761 -0.094897091 0.69185841
0.1314 -0.1488943 0.73291731
0.1546752 -0.26921251 0.72263432
0.17210659 -0.27019289 0.71222168
0.1515802 -0.26612079 0.72337317
0.1891309 -0.27374551 0.70587742
0.17519461 -0.34347549 0.7124933
0.1781107 -0.3498669 0.71039402
0.189082 -0.32067659 0.70582372
0.1772311 -0.094212502 0.67981178
0.029267609 -0.1001227 0.76697612
0.1949372 -0.34880701 0.69708222
0.15035281 -0.1042638 0.71694243
0.025377329 -0.1329526 0.78235412
0.0042186379 -0.094177566 0.64748043
0.1046997 -0.09648326 0.65386093
0.1596166 -0.1484624 0.71452498
0.056404918 -0.095402479 0.67675781
0.16407511 -0.26290861 0.70430231
0.13520551 -0.2289369 0.73513007
0.1405752 -0.13456351 0.72124851
0.1759806 -0.1019391 0.70419222
0.064581484 -0.095066011 0.59800768
0.031460609 -0.098187223 0.77248538
0.1754642 -0.37582481 0.71718419
0.1406415 -0.1153786 0.72463292
0.14709631 -0.1895956 0.72490138
0.0149051 -0.109797 0.78696817
0.19411869 -0.2275373 0.69955581
0.2020707 -0.1067181 0.68512321
-0.01034451 -0.094341189 0.73652518
-0.041421119 -0.099583089 0.61407232
0.085018128 -0.092316844 0.65404028
0.1563696 -0.30121651 0.71952581
0.153688 -0.32165071 0.72408342
0.16794451 -0.18637811 0.71088731
0.1816947 -0.28474009 0.70558548
0.16822959 -0.14574151 0.71256912
0.1866844 -0.3224149 0.7063688
0.12733389 -0.1150501 0.73409432
0.1320684 -0.1085978 0.73032123
0.1491316 -0.34458631 0.72807771
0.1402541 -0.18245099 0.72786391
0.1626294 -0.1789211 0.71329689
0.15699179 -0.2347858 0.72122151
0.2011527 -0.16676331 0.69381648
0.2023626 -0.1930365 0.69842702
-0.00328055 -0.094583057 0.57769543
-0.004503191 -0.094398379 0.75580132
0.036948979 -0.094391704 0.74248332
0.053806361 -0.094621867 0.56051832
0.042103712 -0.1072227 0.77725822
-0.02649981 -0.093011722 0.61043501
-0.01065388 -0.092275649 0.63196248
0.032910168 -0.1745957 0.78357542
0.034431759 -0.1247892 0.78337282
0.03026754 -0.1312025 0.7842316
0.019385461 -0.1090174 0.7867831
0.02292395 -0.1707835 0.78383237
0.1156818 -0.091705263 0.69226497
0.1697769 -0.08900933 0.69329202
0.1968063 -0.15084989 0.69788349
0.081100702 -0.24633861 0.75270969
0.13184521 -0.250294 0.73317128
0.1272627 -0.33738351 0.74028379
0.071549892 -0.16371959 0.76223439
0.050142169 -0.2390566 0.77597409
0.082331903 -0.24856851 0.75536501
0.1008498 -0.28173891 0.7465387
0.16373231 -0.19147711 0.71813017
0.1254648 -0.29211959 0.73496813
0.1243801 -0.33995 0.74141419
0.19108251 -0.1901114 0.70057923
0.12557191 -0.3101615 0.7391485
0.13028809 -0.21524011 0.73646742
0.2067757 -0.18582641 0.68914193
0.0669294 -0.16776881 0.76181698
0.1094941 -0.2376859 0.74136662
0.100593 -0.29710731 0.75027108
0.1939079 -0.27470249 0.70179629
0.1657718 -0.265046 0.71521401
0.1017169 -0.27626589 0.74864513
0.1812205 -0.26711339 0.70536608
0.098106921 -0.21750391 0.74929619
0.07393384 -0.15447821 0.75949317
0.1130397 -0.2759988 0.75048298
0.077133574 -0.27892569 0.75519317
0.101971 -0.093375891 0.6029287
0.15517659 -0.1498232 0.7154147
0.0992091 -0.36345011 0.75432098
0.063688248 -0.094840787 0.66644102
0.036130369 -0.1642518 0.77825648
0.067287207 -0.15327971 0.76331729
0.097079337 -0.2408292 0.74832112
0.096983127 -0.3184059 0.75197101
0.1639808 -0.35218021 0.72151858
0.17792 -0.093417227 0.65645021
0.1318396 -0.34962681 0.73386061
0.065932602 -0.2416064 0.7656967
0.1459811 -0.27134401 0.72654903
0.1338609 -0.3263649 0.73485363
0.1837441 -0.1229116 0.70144957
0.17119271 -0.19108529 0.7092756
0.1240052 -0.36192179 0.74287993
0.1769307 -0.1135974 0.70377398
0.1672038 -0.1111846 0.70645821
0.1291004 -0.2296544 0.7355082
0.2020341 -0.1452093 0.69205958
0.1760214 -0.1599225 0.70751762
0.1896662 -0.1156362 0.69594342
0.1854545 -0.1425295 0.70362961
0.16740531 -0.1401134 0.71091253
0.095383078 -0.2285005 0.75070488
0.006800503 -0.094973236 0.61939901
0.055009369 -0.12595209 0.77141857
0.1700107 -0.093616068 0.69692159
0.04040134 -0.1108314 0.77878422
0.161348 -0.16829661 0.71556139
0.16057689 -0.1646942 0.71603823
0.14953551 -0.15202381 0.72078449
0.18938071 -0.1269889 0.69875127
0.1925983 -0.098382503 0.69593197
0.18570291 -0.1571297 0.70485771
0.1621324 -0.2452419 0.71374911
0.1597722 -0.2208204 0.71765703
0.18064021 -0.241846 0.70830512
0.1900557 -0.2893945 0.70208132
-0.01065561 -0.095334947 0.66435772
0.01265603 -0.097063959 0.78937352
0.084872536 -0.1674758 0.75717151
0.1709784 -0.090574712 0.64739531
0.125985 -0.093858808 0.69508451
0.092441499 -0.090891302 0.59027612
0.1401566 -0.1003161 0.70953423
0.165915 -0.0945279 0.70302618
0.1425319 -0.193747 0.72837633
0.19995479 -0.33306381 0.68170792
0.1845195 -0.12902901 0.70185977
0.2007809 -0.2112266 0.69537169
0.035096679 -0.09422788 0.72250468
0.067338847 -0.26595041 0.76697439
0.087060571 -0.2293752 0.7536999
0.099839091 -0.245336 0.74919868
0.029092669 -0.094993003 0.78024489
0.115884 -0.30294329 0.74345058
0.1785036 -0.32150111 0.70981878
0.17808031 -0.1399471 0.707412
0.17073169 -0.2142407 0.71299869
-0.032998621 -0.095874697 0.69932848
0.03282246 -0.097079813 0.6386441
0.0054854448 -0.095566601 0.78165728
0.1063664 -0.2252952 0.74159008
0.18852431 -0.094616063 0.66755968
0.1327991 -0.094659597 0.7008611
0.1104717 -0.096437477 0.48831081
0.090157963 -0.090262651 0.50007379
0.097976543 -0.091932736 0.63240612
0.1386914 -0.092209637 0.53125709
0.20282429 -0.096671909 0.69146031
0.2087035 -0.1069064 0.69482869
0.13924851 -0.31737351 0.73489588
0.15894189 -0.19329999 0.7168836
0.148367 -0.1670004 0.72044539
0.1026982 -0.3421903 0.75057667
0.15230601 -0.094346017 0.5993402
0.17875759 -0.1704375 0.70428741
0.1763317 -0.240153 0.70262098
0.145665 -0.13570251 0.72000861
0.0075265169 -0.1722984 0.79226887
0.1456883 -0.2913385 0.72760421
0.023642659 -0.095101893 0.71999192
-0.01992986 -0.098357111 0.61838418
0.15657111 -0.28304559 0.72327077
0.006415844 -0.094637454 0.66176587
0.1593844 -0.2002454 0.71969157
-0.5607633 -0.30314109 0.2880272
0.03820676 -0.2577123 0.77895123
0.2011767 -0.28799829 0.69584662
-0.58737892 -0.31894401 0.2428488
0.078114778 -0.099466652 0.50001317
0.1897085 -0.3516891 0.70834178
0.1821074 -0.090123683 0.65217751
0.13723481 -0.088632293 0.67555898
0.12793609 -0.092907608 0.53205431
0.1421964 -0.29017779 0.73034161
0.1766281 -0.095446616 0.69964242
0.17964751 -0.1885917 0.70745671
0.1736003 -0.30672541 0.71067309
0.1633966 -0.1499476 0.71358168
0.045615669 -0.091536731 0.56524378
0.1640384 -0.1893955 0.71453708
0.17377581 -0.2137977 0.72268492
0.1645458 -0.1133987 0.70792758
0.1905757 -0.25816181 0.69976127
0.1981 -0.232678 0.69908881
0.2157023 -0.103491 0.69197381
0.1748087 -0.1774886 0.71081668
0.191512 -0.3461985 0.70295328
0.1816006 -0.21724141 0.70322847
0.19511171 -0.119406 0.69504732
0.160105 -0.36115211 0.61441672
0.062125441 -0.09496367 0.54586411
0.1227727 -0.097769588 0.72063529
0.1221782 -0.2066344 0.5079785
0.142506 -0.33116201 0.54275912
0.1234457 -0.28074831 0.51053041
0.1245428 -0.32673809 0.5114764
0.1263399 -0.109216 0.53248751
0.123942 -0.09780699 0.53650701
0.115063 -0.28121829 0.50910389
0.1204818 -0.3074787 0.50052339
0.1201495 -0.1096939 0.51066631
0.1259097 -0.1195704 0.52219862
0.13727009 -0.3684147 0.5343765
0.1035683 -0.29565749 0.4896777
0.1105635 -0.23188069 0.49211419
0.1348238 -0.1272153 0.53605747
0.03401446 -0.09392792 0.52898091
0.03899866 -0.082238548 0.52105999
0.1245041 -0.09023504 0.55106151
0.066270187 -0.097896934 0.52755052
0.1074232 -0.26243129 0.4899416
0.20211381 -0.1067213 0.67792511
0.1167439 -0.1421607 0.4973872
0.117089 -0.1929139 0.49601829
0.1420413 -0.33612099 0.55105299
0.1307268 -0.28602609 0.51377511
0.15697961 -0.083564498 0.65042078
0.1626702 -0.090661421 0.64333612
0.1897767 -0.094102927 0.65626347
-0.0067937081 -0.094481647 0.57567811
0.046759371 -0.091152526 0.55292982
0.098872863 -0.09208031 0.50493407
0.1200836 -0.1647242 0.51119238
0.1185584 -0.2419205 0.50420719
0.1003883 -0.225784 0.51116771
0.1244793 -0.1525576 0.52344728
0.13592871 -0.2166339 0.54083288
0.04795336 -0.090118438 0.58322603
0.1026123 -0.086780578 0.55653077
0.1745425 -0.097612828 0.65369421
0.085045911 -0.092392832 0.59761602
0.12766489 -0.17858671 0.52165949
0.1126156 -0.1131318 0.49681669
0.1031725 -0.2981503 0.49336219
0.1148565 -0.2280682 0.49990621
0.056360729 -0.099683553 0.67945492
0.0211962 -0.097217657 0.63202101
-0.022884671 -0.092950642 0.57970887
0.1073049 -0.1013122 0.48977089
0.1057385 -0.33526921 0.49651989
0.1847475 -0.36191341 0.63629729
0.1983885 -0.1635209 0.67293352
0.1809957 -0.263037 0.62702471
0.1642275 -0.094395578 0.6133579
0.085131727 -0.094654381 0.61579043
-0.017527981 -0.092578143 0.69343758
0.1698678 -0.1129948 0.62021708
0.17650031 -0.091877222 0.62006462
0.17105059 -0.37059921 0.60325789
0.1822575 -0.2769556 0.64208061
0.1604092 -0.34430119 0.57088119
0.1984898 -0.2562674 0.66095531
0.1842774 -0.1375833 0.64433628
0.070447862 -0.089553513 0.51775831
-0.022384951 -0.089378089 0.55187398
0.096196368 -0.09125337 0.59903908
0.13973451 -0.26510039 0.54384172
0.1371987 -0.1892139 0.53893292
0.1391679 -0.27150759 0.54821253
0.1300884 -0.1315746 0.52804232
0.096577764 -0.089940913 0.50708401
0.1147179 -0.08451432 0.56071228
0.1289777 -0.35986191 0.51543963
0.181008 -0.2478037 0.62898672
0.18168201 -0.23682509 0.64227718
0.1919471 -0.26999381 0.64236408
0.1845011 -0.31939301 0.62837738
0.1814245 -0.222101 0.64154381
0.04327089 -0.095884763 0.656178
0.203869 -0.143142 0.68001431
0.1801919 -0.31076881 0.62153208
0.1374615 -0.1752941 0.54651892
0.13456 -0.1262024 0.54810607
0.17800049 -0.25986889 0.61587769
0.1569856 -0.24869169 0.58265471
0.133892 -0.1232185 0.54523343
-0.031126751 -0.096875817 0.61546743
-0.0081818402 -0.18477499 0.53358757
0.095522493 -0.1175211 0.4947027
0.056970149 -0.2384042 0.50720787
0.1622021 -0.2307284 0.58414829
0.1742159 -0.3328419 0.61470312
0.17123049 -0.25278181 0.61243522
0.1691184 -0.093369141 0.66741228
0.1486989 -0.091116823 0.65140772
-0.02466801 -0.097281903 0.59892428
0.041307431 -0.09256582 0.56153709
-0.02830863 -0.19007149 0.55386001
-0.006040886 -0.28094971 0.54555398
0.018825511 -0.087237187 0.53842342
-0.005776078 -0.096328586 0.6359899
0.068402112 -0.098102607 0.6541357
0.1299534 -0.31351611 0.52657229
0.089070313 -0.087779999 0.57401729
0.1341354 -0.095084012 0.71421558
0.058470938 -0.096101493 0.57940072
0.2010482 -0.2248746 0.67067438
0.062537983 -0.14693069 0.50703669
-0.046059821 -0.26724339 0.56054598
0.098099172 -0.32100919 0.49308449
0.01195642 -0.19145741 0.53565979
0.1903996 -0.2465736 0.65085143
0.16229209 -0.26534319 0.58679467
0.12645771 -0.26361811 0.51738441
0.021784659 -0.091170609 0.53101152
0.019268891 -0.1109378 0.52868879
0.1131247 -0.096316047 0.70958292
0.078439184 -0.092527479 0.57399893
0.099524133 -0.095705971 0.48620471
0.068644121 -0.29362431 0.50329638
-0.006539762 -0.18356501 0.53848767
-0.0088469833 -0.20133311 0.54033118
0.086567707 -0.17360149 0.50007522
0.057646479 -0.1360711 0.503057
0.01426497 -0.2279716 0.53233153
0.1100305 -0.13586371 0.478358
-0.03906092 -0.3284201 0.56070948
-0.033955451 -0.28459081 0.5611887
0.20152479 -0.150161 0.68391818
-0.080631733 -0.1671274 0.58021653
0.1491214 -0.29203421 0.55964887
0.1268211 -0.1058252 0.52202731
0.1077958 -0.095930643 0.4975363
-0.037629042 -0.1146352 0.56007773
0.14540391 -0.089481533 0.59671098
-0.01272626 -0.097812489 0.66737127
0.16725869 -0.33780071 0.60112858
0.16404261 -0.3069196 0.59984642
0.16244289 -0.2493196 0.59455979
0.20872431 -0.1751551 0.65612322
0.1566065 -0.2184654 0.5811969
0.17287821 -0.26732111 0.60258323
0.1059055 -0.22867329 0.46733609
0.1943157 -0.2868503 0.65166301
0.173536 -0.30236551 0.60770851
-0.01498127 -0.09817785 0.54535162
-0.053539399 -0.096553952 0.64310879
-0.086718589 -0.22815409 0.58175069
-0.092053637 -0.2381233 0.59547591
-0.09250477 -0.1177401 0.59116131
-0.080268592 -0.096548617 0.60087389
-0.0021922591 -0.2262914 0.53676271
0.015950721 -0.2559329 0.52470863
0.034193579 -0.1923191 0.52061689
0.0096309632 -0.3465372 0.53507519
-0.050923619 -0.36331841 0.55983162
0.0023444591 -0.25336239 0.53018391
0.1554742 -0.1934751 0.5874787
-0.044378132 -0.20826229 0.56226617
-0.08908999 -0.096564233 0.58422792
0.083821453 -0.25563529 0.49437341
0.030193301 -0.096990518 0.52534997
0.089639872 -0.18001179 0.50329667
0.0061840708 -0.098660387 0.53618699
0.1716633 -0.1682336 0.61721659
0.079058588 -0.3234385 0.49352971
-0.0061903298 -0.1091419 0.54407603
0.2089083 -0.25363341 0.68778539
-0.064390957 -0.1087064 0.57843649
-0.041823421 -0.093428671 0.67073292
0.1917711 -0.091155112 0.64876831
0.18972149 -0.090794563 0.6710217
0.1936446 -0.14980949 0.65031779
0.08503893 -0.22954071 0.4990865
0.0049698949 -0.1483501 0.5417527
-0.098168582 -0.1516453 0.59283948
0.065784723 -0.098982722 0.74236077
-0.0066696848 -0.1518217 0.54619461
-0.0089388937 -0.1466452 0.54232877
-0.0047490299 -0.1735718 0.53645712
0.1582347 -0.09412089 0.60029078
0.1236143 -0.092791572 0.57691377
0.094154343 -0.1003673 0.71272367
0.031697478 -0.09406358 0.73447222
0.1244389 -0.093577698 0.69373637
0.097871199 -0.093863197 0.65809637
0.0106006 -0.093872592 0.69925982
0.1645321 -0.087615952 0.61908817
0.06086487 -0.092890322 0.54812288
0.086372793 -0.098861396 0.49670151
0.17010251 -0.15839709 0.61299831
0.15197431 -0.088916898 0.58375192
0.0139635 -0.098039433 0.78035319
0.1712559 -0.1365879 0.61722088
0.17218509 -0.14244521 0.62934059
0.1419933 -0.1205005 0.55495763
0.1635987 -0.29010189 0.58884168
0.1534237 -0.2340713 0.57340461
0.201915 -0.25179839 0.66684449
0.1578313 -0.1586667 0.58816338
0.15267649 -0.1551947 0.57853621
0.061098371 -0.18000519 0.50858319
0.051515281 -0.3742488 0.51040322
0.2072529 -0.2303149 0.71867353
-0.070915967 -0.1536549 0.57091278
-0.03724429 -0.1495765 0.55760372
-0.05267961 -0.094556928 0.5944795
-0.086517394 -0.3278785 0.59015357
-0.01029427 -0.23206609 0.54162741
-0.02477962 -0.22295889 0.55243307
-0.03848571 -0.3550117 0.56395411
-0.001326099 -0.36033711 0.53386623
0.087684721 -0.13908771 0.49454829
0.093893901 -0.2333153 0.4914116
0.05076858 -0.090643927 0.69793141
0.1494347 -0.1623984 0.55812287
0.073596314 -0.2165826 0.50221229
0.1043592 -0.2237794 0.4944787
0.079761587 -0.090050861 0.68478411
0.1233205 -0.15855061 0.52621567
0.19006149 -0.2004838 0.65525562
0.078857392 -0.097291417 0.71697551
0.044726338 -0.092377767 0.75224549
0.1065607 -0.093925677 0.60733032
0.1722289 -0.2701312 0.59577161
0.1704669 -0.1008237 0.60428208
0.1701121 -0.1079735 0.60285747
0.0072636311 -0.093838677 0.5802868
0.1086942 -0.37610361 0.48937881
0.17665119 -0.14602479 0.61465353
0.1641584 -0.3641077 0.59498328
0.1643977 -0.3233065 0.57416242
0.1156869 -0.091327459 0.59112608
0.1230358 -0.21093769 0.51098508
0.19477621 -0.1218918 0.65429688
0.01648679 -0.1244711 0.53204322
0.1547716 -0.1666716 0.57805032
0.1547614 -0.17550761 0.5802297
0.1157982 -0.1525293 0.50337702
0.1692934 -0.1956443 0.59006351
-0.087667577 -0.15593231 0.57611448
0.1082056 -0.2014764 0.48732999
0.036298599 -0.095483743 0.63708711
-0.069640733 -0.1135296 0.57407838
0.026711879 -0.28288949 0.52318949
0.033134401 -0.2990112 0.52085239
0.067340277 -0.090754509 0.58968347
0.05084708 -0.095707178 0.56143671
0.1018731 -0.29875821 0.49267411
0.061063949 -0.093101718 0.54336172
0.068418831 -0.095226988 0.5084393
0.1100485 -0.1179338 0.48998651
-0.021607939 -0.095032468 0.55860621
0.1212722 -0.28253779 0.50834417
0.112012 -0.2285623 0.5024581
0.048935741 -0.092638731 0.58408552
0.1024125 -0.092866637 0.49336901
0.1214412 -0.32834989 0.51322782
0.1181709 -0.2402354 0.50565618
0.1184251 -0.1076693 0.50854999
0.096995562 -0.090754554 0.50510949
0.1130375 -0.112675 0.4985055
0.10764 -0.33206561 0.50131118
0.1178691 -0.3106162 0.50183398
0.10996 -0.36537701 0.49045309
0.1362085 -0.37099749 0.53532422
0.1159061 -0.2708303 0.50127739
0.01677781 -0.097204551 0.57464772
0.1023911 -0.2256618 0.49758771
0.1036862 -0.22487649 0.4914611
-0.0077509279 -0.094753519 0.57523638
-0.0065244441 -0.093160197 0.72703928
0.1064913 -0.1206568 0.48942
0.034044798 -0.093900777 0.73202437
-0.019369069 -0.092439219 0.58751887
0.060740288 -0.095822051 0.52814108
-0.48960829 -0.25341991 0.39708671
0.1119921 -0.2860091 0.49919319
0.085876971 -0.092252061 0.65605497
0.1973318 -0.158562 0.6757437
-0.01460743 -0.09390901 0.61365938
0.06927371 -0.09352155 0.53333658
0.050382052 -0.093599193 0.52634227
0.1015335 -0.09219496 0.52896333
0.17201149 -0.097722404 0.62283909
-0.49296239 -0.2444931 0.40841091
0.072121888 -0.096062846 0.54790372
0.2028375 -0.241722 0.68291152
0.022579251 -0.098562822 0.69352353
0.1978551 -0.1621259 0.67134029
0.1196089 -0.2060729 0.50657457
0.116728 -0.088869937 0.53025073
-0.01756769 -0.095330521 0.65460652
0.05852139 -0.097789027 0.67438298
0.063568279 -0.094954327 0.52220857
-0.02258821 -0.094710708 0.57269692
-0.02328193 -0.094196022 0.56021643
0.16456801 -0.095439017 0.61137599
0.097803541 -0.094870657 0.48377359
0.084801808 -0.092399389 0.5960772
0.16229901 -0.093731336 0.64862353
0.034163982 -0.093090147 0.52855998
0.076190449 -0.091585606 0.57102692
0.086046129 -0.1028299 0.49670571
0.1064723 -0.093345582 0.4907046
0.095056243 -0.117849 0.4943791
-0.016514691 -0.096041583 0.54235148
0.05910052 -0.1459341 0.50299299
-0.043027028 -0.2051411 0.55610847
-0.00065359467 -0.1882599 0.5333516
0.069095843 -0.1118556 0.50535029
0.028418859 -0.1004774 0.52947521
0.080160223 -0.33181259 0.49984521
0.084324487 -0.15956789 0.49483171
0.084974617 -0.1725774 0.49698389
0.01330713 -0.1196454 0.54271042
0.088291697 -0.1732128 0.49475661
-0.037054949 -0.1142994 0.55611318
-0.0096594691 -0.141716 0.544752
-0.0073568318 -0.1907106 0.54747331
0.03351206 -0.1901135 0.51780069
-0.027778599 -0.097010761 0.59330511
0.060399801 -0.1783482 0.50552732
-0.0085552633 -0.2298619 0.54032463
-0.080733597 -0.3221277 0.5811584
-0.087615147 -0.28563321 0.58586591
-0.099384233 -0.28736421 0.58879542
0.06143612 -0.1472218 0.50535911
0.082536124 -0.2574538 0.49665341
0.096647091 -0.118032 0.49292111
-0.01003926 -0.1101274 0.54493642
-0.024444951 -0.1662889 0.54941827
0.0062340139 -0.097942017 0.70964158
0.059110399 -0.092684388 0.55039239
0.040382609 -0.094776988 0.56590652
0.12651139 -0.093833663 0.55721557
0.071930543 -0.1631421 0.50052989
0.097116709 -0.31946641 0.49360129
-0.055546049 -0.17291179 0.56323022
-0.0081670824 -0.1502948 0.54175872
-0.087898448 -0.1756141 0.58862102
-0.093281299 -0.2375793 0.59005171
-0.092719018 -0.26108679 0.59128863
-0.072661251 -0.2014001 0.57670158
-0.03910974 -0.3228845 0.55341178
-0.02594872 -0.3033464 0.5457505
-0.030742951 -0.1914448 0.55569792
0.033258379 -0.1988396 0.51902902
0.083014071 -0.22375441 0.49088329
0.096443594 -0.091369212 0.59899938
0.075507998 -0.37210861 0.49482399
0.1057022 -0.20481519 0.48893309
-0.0099458508 -0.33445781 0.54473478
0.1027414 -0.1672029 0.4852944
0.05552214 -0.13840289 0.50498497
0.02132214 -0.097440153 0.63580543
-0.01367464 -0.092572629 0.65279692
-0.01214988 -0.097265363 0.66468191
0.095522791 -0.094543763 0.57237673
0.1233593 -0.096121788 0.71849138
0.087092549 -0.1386672 0.4947769
0.03000134 -0.2264953 0.51779699
-0.022581279 -0.091425389 0.61745638
-0.044528808 -0.094604909 0.68262023
-0.040318489 -0.1154337 0.5573473
-0.003182739 -0.2272964 0.53567648
-0.018048789 -0.33706081 0.53913611
-0.016032221 -0.3753264 0.53850532
-0.01836931 -0.18516751 0.5487653
-0.0079964399 -0.2602357 0.54242182
-0.024794649 -0.29423639 0.55063719
-0.040477902 -0.34612021 0.55411923
-0.072897524 -0.26594651 0.57796699
-0.055899121 -0.32972309 0.56283802
-0.02896242 -0.25522611 0.55186367
-0.069258958 -0.22548591 0.57119799
-0.085267179 -0.2488461 0.58463389
0.1453492 -0.09182018 0.59838587
0.043477301 -0.094888151 0.6718111
-0.033606861 -0.27866521 0.56047332
-0.01177427 -0.2546742 0.54349637
-0.062738881 -0.35387889 0.56852931
0.090379447 -0.094207533 0.50325942
0.085145563 -0.22598331 0.49369901
0.0232837 -0.151649 0.52606827
0.095603161 -0.31535441 0.4930608
-0.01167704 -0.1653012 0.54623818
-0.018882081 -0.1549435 0.54922098
-0.060604881 -0.2814998 0.56325018
0.083532237 -0.1885184 0.49516931
-0.037988409 -0.30064791 0.55759078
0.1025368 -0.1480455 0.4864907
0.0025142301 -0.1489287 0.53906399
0.139456 -0.091342933 0.5533058
0.1681142 -0.094596706 0.69593972
0.082547747 -0.094577149 0.49346149
0.058072262 -0.1015866 0.50423223
0.1368365 -0.092760891 0.68679172
0.1105271 -0.1100276 0.49704239
0.0861279 -0.1350078 0.49381319
-0.01895465 -0.1032108 0.54578573
-0.04353923 -0.088128418 0.62948602
-0.037507139 -0.095299572 0.55639118
-0.069615938 -0.1348716 0.57084692
-0.073803067 -0.1921315 0.57050961
0.050283238 -0.1073638 0.50714338
0.027141999 -0.2439166 0.52446461
-0.090602472 -0.3536455 0.58249527
0.02013229 -0.1656597 0.52965438
0.1081564 -0.098974593 0.58814871
-0.052000009 -0.36715531 0.5630331
-0.084097743 -0.2244195 0.58501798
0.07855805 -0.092512943 0.50215203
0.04541545 -0.34480709 0.51375932
0.03143321 -0.2131581 0.52182877
0.071992673 -0.24137279 0.49932569
-0.079063676 -0.3705011 0.58056909
0.003603267 -0.096667677 0.77783781
0.098839559 -0.17860539 0.48832539
0.092007808 -0.1627955 0.49399889
0.098084398 -0.3463178 0.48689809
0.092038222 -0.1476576 0.4915598
0.1050435 -0.35257491 0.48948991
0.078418337 -0.3128553 0.4969548
0.080664746 -0.28051209 0.49791569
-0.072059169 -0.09363386 0.60571003
0.1004212 -0.094116092 0.65237218
0.087489553 -0.095792651 0.56487978
0.079514652 -0.120865 0.498815
0.06268429 -0.132827 0.5081979
0.058446169 -0.18151949 0.50982589
0.069914661 -0.29023331 0.50283599
0.1015231 -0.148405 0.49327639
0.1109108 -0.2585102 0.49647149
0.067778468 -0.35589159 0.50601888
-0.031907551 -0.094561219 0.67952752
0.033717621 -0.096245259 0.58901012
-0.068677761 -0.096587993 0.61431032
-0.055822071 -0.096417427 0.61363763
0.01560977 -0.095182627 0.77237892
-0.045620851 -0.095114827 0.61229563
-0.00049179792 -0.095325842 0.64648849
-0.093231052 -0.098845631 0.59006679
-0.092947312 -0.1171312 0.58789903
-0.083156377 -0.097252667 0.60192519
-0.088508412 -0.114518 0.58760488
-0.043419421 -0.092447393 0.62536579
-0.073023118 -0.1546334 0.57352692
-0.05640896 -0.1071309 0.56879801
0.0049082641 -0.099729113 0.53570521
-0.079073407 -0.097284257 0.58352423
-0.056393929 -0.1738115 0.56850469
0.029732861 -0.1060384 0.52956432
-0.01818594 -0.093320012 0.5568499
-0.066704981 -0.094963998 0.59074479
0.02191424 -0.1006315 0.76755542
-0.09561222 -0.1508141 0.59081697
-0.078323767 -0.1066282 0.57940769
-0.092041217 -0.094826132 0.60043663
-0.060512081 -0.1044965 0.57555318
-0.059134599 -0.2425511 0.56545752
-0.09492743 -0.2801002 0.58478558
-0.091972239 -0.33311889 0.59339178
-0.083301209 -0.23271701 0.58043969
-0.05675948 -0.1969765 0.56565648
-0.05339428 -0.20169111 0.56552023
0.027620699 -0.1869138 0.52262849
-0.01199101 -0.2465838 0.54691219
-0.031860579 -0.2435673 0.55623251
-0.06707795 -0.216013 0.57218963
-0.031006251 -0.22569349 0.55593818
-0.005019546 -0.3345108 0.53963119
-0.079053253 -0.3199141 0.58462763
-0.083329678 -0.22655191 0.58556318
0.1047169 -0.335136 0.4944405
-0.02553123 -0.297598 0.55293977
0.065983653 -0.24516819 0.50513017
0.077113137 -0.1958421 0.49753079
0.083489522 -0.095206141 0.64754909
-0.1038488 -0.35016009 0.59360993
0.1152652 -0.1750387 0.4956862
0.1112643 -0.097817153 0.64297122
0.077092327 -0.22115541 0.4990232
0.069502227 -0.1368134 0.50474501
0.041214921 -0.1982083 0.51780838
0.0572845 -0.100681 0.67937022
0.075884469 -0.2418824 0.49788541
-0.069199197 -0.1077034 0.57635403
0.068021514 -0.1691021 0.50502819
-0.075689591 -0.17017829 0.57897311
0.02310707 -0.08973515 0.66294098
0.06938754 -0.14630879 0.50411427
0.030983301 -0.15942229 0.52569479
-0.069398724 -0.17013779 0.57484728
-0.0043711942 -0.099840909 0.5407005
-0.092922807 -0.13241699 0.58995903
-0.0082538594 -0.30067661 0.53882313
-0.070510603 -0.3025929 0.57503998
-0.05403848 -0.3167904 0.57005912
0.098616287 -0.198119 0.48930031
-0.0800694 -0.1192001 0.58200401
0.087115303 -0.2163998 0.49468899
0.072783552 -0.32294941 0.49957591
-0.085483223 -0.1066663 0.58231652
-0.046930451 -0.33685201 0.55827433
-0.080384962 -0.36895311 0.58480883
0.062461998 -0.3221418 0.50708538
-0.002614595 -0.091500193 0.78567177
-0.02592057 -0.2129577 0.5512352
-0.081442542 -0.1448213 0.58045387
-0.079974703 -0.29784599 0.58433437
0.03007846 -0.09613359 0.74308062
0.1234921 -0.093652427 0.68799078
0.1168602 -0.09176594 0.52029371
0.079753824 -0.12926669 0.499578
0.1151104 -0.1701718 0.5084002
0.094194807 -0.1798812 0.49129939
0.051507711 -0.37186071 0.50612271
-0.088425629 -0.2830224 0.58404797
0.0086439997 -0.090499803 0.62949222
-0.077206492 -0.194067 0.57547051
-0.03903586 -0.1007052 0.61497182
0.064839043 -0.35109511 0.50092882
0.059912082 -0.177075 0.50429118
-0.05736398 -0.174692 0.5632236
-0.073452286 -0.15309571 0.57170212
-0.040704139 -0.34486541 0.55381721
0.047362559 -0.09538871 0.54452759
0.016571909 -0.091077954 0.54505181
0.086163171 -0.095510691 0.59819752
-0.092014641 -0.28045821 0.58796
-0.079104587 -0.29223669 0.57529449
-0.01327536 -0.094731092 0.65948719
-0.087758221 -0.30910951 0.57812071
-0.063086897 -0.30232021 0.56313521
-0.057840358 -0.093233787 0.60501897
-0.01998714 -0.1013925 0.54466653
-0.01773553 -0.097231127 0.54351139
0.0097011402 -0.37605229 0.52768838
0.01010598 -0.33958161 0.52792323
0.049125679 -0.090893097 0.56296992
-0.071446247 -0.09727329 0.61716771
-0.074040532 -0.19928931 0.57512683
0.02966566 -0.37042341 0.52314037
-0.054000922 -0.1976932 0.56157148
0.06994082 -0.093308464 0.51633441
0.081979848 -0.095120609 0.49346691
-0.07596229 -0.1677676 0.57332462
0.017103739 -0.33371261 0.52139682
0.024928849 -0.090599298 0.53553289
0.074468084 -0.37078801 0.49295589
-0.0532648 -0.1286132 0.56017452
0.04589311 -0.36875489 0.50720781
-0.08100234 -0.3619726 0.57620227
-0.00412856 -0.35954389 0.5334453
-0.056238901 -0.1577553 0.5630827
0.086741723 -0.09433654 0.48701009
0.083845124 -0.091018111 0.55687672
0.05449206 -0.3265166 0.5041315
-0.059332412 -0.2396576 0.5616805
0.101333 -0.088726223 0.60915017
-0.043254379 -0.090963691 0.62399763
0.0277474 -0.1036376 0.52238482
-0.01036715 -0.32998079 0.53778702
0.058268219 -0.094918497 0.55643427
0.1010416 -0.095150828 0.5051595
0.083277076 -0.099047087 0.4919143
-0.01758234 -0.37137401 0.53528827
-0.080058381 -0.31022891 0.57617319
0.006824248 -0.33919269 0.52950227
0.092929043 -0.087509722 0.59270662
0.072749257 -0.1183904 0.49508801
-0.01208811 -0.1421427 0.53848767
-0.056981929 -0.1074244 0.5652141
0.054614391 -0.28967619 0.50229532
-0.0025264099 -0.092096448 0.63997191
0.0365569 -0.095397957 0.53121543
0.051957361 -0.2890681 0.50123382
0.1030489 -0.1674602 0.4859722
0.080519579 -0.25304881 0.49107891
0.078644581 -0.32521191 0.49307761
0.082579948 -0.1568006 0.49117121
0.06988994 -0.16092511 0.4941124
-0.085559599 -0.24065439 0.57367623
0.067670368 -0.27867359 0.4971309
0.070637837 -0.20423789 0.499143
-0.042819019 -0.27615869 0.55939311
0.064900227 -0.28966779 0.50257182
-0.078988329 -0.1035225 0.57350779
-0.02629702 -0.28877619 0.54373038
-0.0267873 -0.2874485 0.54413331
-0.028744631 -0.3021588 0.54210532
0.084547117 -0.13465171 0.4907504
0.095145591 -0.19171961 0.48040429
-0.035753921 -0.1373754 0.55190372
-0.059822671 -0.1269529 0.56939608
-0.060990538 -0.1039462 0.5703522
0.0039036199 -0.097324759 0.56314862
0.094774462 -0.091255069 0.62115979
0.05303083 -0.2405411 0.50317347
0.08186654 -0.2229813 0.48929721
-0.027643129 -0.199123 0.54114431
-0.006598644 -0.1871677 0.541309
0.002352305 -0.19047721 0.54258358
-0.0091751441 -0.25669649 0.53809673
0.099897631 -0.1655266 0.48474219
-0.0058085551 -0.22325011 0.52809918
0.055977169 -0.249604 0.50042391
0.01345969 -0.2031422 0.52604192
0.01311026 -0.195722 0.52607471
0.040738828 -0.1836469 0.51610541
-0.01730657 -0.2101817 0.53684479
0.0481566 -0.2451084 0.51461679
0.081751883 -0.1857017 0.48960009
-0.01186917 -0.0966115 0.63100541
-0.034653161 -0.2690717 0.54841918
0.082080074 -0.088864543 0.5165996
0.01211729 -0.1847014 0.53094989
0.01167398 -0.2248196 0.52717572
-0.03168546 -0.1874643 0.55247861
-0.03055528 -0.33011979 0.54320788
0.00252489 -0.31572261 0.53341001
-0.031557251 -0.2219 0.55045211
0.053610511 -0.091989249 0.52739322
0.064221367 -0.2402138 0.49850211
0.073203139 -0.2372926 0.49109381
-0.07672102 -0.2476432 0.57012433
0.022723161 -0.1680624 0.4840084
-0.030583721 -0.25123489 0.54648572
-0.042271301 -0.24428821 0.54867113
-0.025564469 -0.25792289 0.54355532
0.048967879 -0.2970351 0.50243998
0.098753072 -0.1787668 0.4877615
0.066397563 -0.1851351 0.4996784
-0.032456439 -0.239793 0.55133557
-0.006447725 -0.3297115 0.53382558
-0.034047492 -0.27476859 0.5457598
0.1216356 -0.088873617 0.59378052
0.01124849 -0.22597989 0.52803618
-0.019574249 -0.33496249 0.53819132
0.1058006 -0.26524699 0.49258009
0.054730751 -0.1735619 0.49882039
0.08916194 -0.2301127 0.4793497
0.056498941 -0.232372 0.49957949
0.092776313 -0.2337222 0.48882759
0.00066377968 -0.092591576 0.76957059
0.01113986 -0.08199963 0.75281048
0.0046852161 -0.09201324 0.66632122
-0.092544891 -0.3300105 0.58872467
-0.04482599 -0.203229 0.55301839
-0.072527677 -0.1314927 0.56721652
0.088784777 -0.090482064 0.49773341
0.075382933 -0.09048903 0.49839601
0.065324157 -0.2210768 0.50059521
-0.00091136253 -0.25214371 0.5293209
0.028022431 -0.094019771 0.73662281
-0.069203436 -0.091214299 0.58297747
-0.087051339 -0.17882121 0.59238821
-0.1031516 -0.32254919 0.58333647
0.061829191 -0.090996116 0.60892051
0.076128103 -0.23535781 0.4651424
-0.058805749 -0.3235195 0.55392599
0.09547127 -0.092491873 0.56828588
0.037791468 -0.2519117 0.50765628
-0.084307179 -0.34210521 0.58855641
0.048154239 -0.094778657 0.72991413
0.067404807 -0.2827898 0.49648061
0.082269832 -0.328172 0.49351719
0.074572057 -0.21664231 0.49294299
0.085198902 -0.13049559 0.4908286
0.114985 -0.26118481 0.50409049
0.079385899 -0.2756421 0.49282289
0.077403903 -0.3522093 0.48486409
0.087412007 -0.2147987 0.49499971
-0.088981837 -0.2629711 0.57966262
-0.026552949 -0.098828539 0.59793389
-0.08677502 -0.22813299 0.58484399
-0.02374756 -0.091242857 0.57672417
-0.070910931 -0.09019047 0.60334629
0.0042715971 -0.099077716 0.78471613
0.032203231 -0.09293218 0.53370738
-0.084875531 -0.3307555 0.59116209
-0.087621689 -0.28344411 0.58582258
-0.09233398 -0.25917491 0.58630443
-0.092086293 -0.2377845 0.59302843
0.085776873 -0.1003395 0.4953528
-0.093708903 -0.18194599 0.58779001
0.03046757 -0.2263304 0.52094811
-0.0088496804 -0.1474786 0.54473191
0.0011241731 -0.19053321 0.54292399
-0.042644311 -0.2061182 0.55821782
0.062094241 -0.1782407 0.50627291
0.083141796 -0.2560862 0.4949533
-0.024118779 -0.1691764 0.5549069
0.085114807 -0.2276673 0.4968093
0.033335362 -0.2023856 0.52204829
0.093863189 -0.2378298 0.4889476
0.0996131 -0.179561 0.48971391
0.083437093 -0.1891242 0.49328631
0.1069124 -0.22945 0.50092071
0.099373907 -0.3524484 0.49343881
0.05553472 -0.24487381 0.50807983
0.055516001 -0.29383919 0.50840223
-0.016251029 -0.34027699 0.54412007
0.01102925 -0.33851409 0.52688658
-0.03861095 -0.32447219 0.5552907
-0.0021383171 -0.36305639 0.53787762
-0.0051310961 -0.3326624 0.5380004
0.0075301682 -0.1540698 0.53651267
-0.0088500082 -0.25852779 0.54011399
-0.039465129 -0.1141673 0.55646467
-0.024457781 -0.29200831 0.54879493
-0.068656243 -0.1059208 0.57298058
-0.077630743 -0.1052356 0.57646883
-0.056133632 -0.17225429 0.56299359
-0.070049427 -0.1353035 0.57217431
0.0094693154 -0.15206841 0.53524119
-0.1023934 -0.3442162 0.58873308
-0.050637569 -0.1343369 0.56638819
-0.087356903 -0.1805594 0.59287173
-0.096412212 -0.16046 0.58823597
0.0729433 -0.1640743 0.49911761
0.01460625 -0.29551181 0.52471131
-0.05636375 -0.2401634 0.56361759
-0.04890665 -0.14063071 0.56514817
-0.068778373 -0.3760238 0.57113039
0.065755457 -0.35102561 0.50289649
0.1073848 -0.1728902 0.4931615
0.03516173 -0.096259579 0.58858919
0.05161649 -0.098617934 0.74016082
0.01461732 -0.2314575 0.53416538
0.01606888 -0.2031185 0.53409958
-0.0226507 -0.1687721 0.55528599
-0.0845007 -0.2356232 0.58420962
-0.058806699 -0.1317883 0.57357287
-0.041052122 -0.1395285 0.55964661
0.01453726 -0.25558981 0.52339011
0.071781673 -0.28467721 0.50383472
-0.0019971731 -0.31483141 0.53400832
-0.043521181 -0.1724613 0.56098688
0.064577341 -0.28845799 0.50192738
0.03099573 -0.29817611 0.5285567
0.1258622 -0.096215531 0.53387868
-0.01351026 -0.35909981 0.56658608
0.1087193 -0.2697539 0.49592489
-0.057799891 -0.2444476 0.56784958
-0.066483378 -0.22790921 0.59331262
-0.016815411 -0.18930119 0.5518589
0.072235852 -0.16505571 0.49944749
-0.0115339 -0.124072 0.55834389
-0.006902501 -0.1715119 0.54398888
0.073934473 -0.2447141 0.50265628
0.068591543 -0.3569915 0.50710702
-0.04204309 -0.28042391 0.55945909
0.068766862 -0.19078331 0.50392288
0.075603507 -0.2795215 0.50028831
-0.030440049 -0.1900661 0.55142069
-0.01841283 -0.1008324 0.54451638
-0.086450852 -0.28332111 0.58365208
-0.02343455 -0.1672937 0.5501734
-0.02248225 -0.093230233 0.56891608
-0.080200031 -0.2252555 0.5825063
-0.066772103 -0.092643872 0.60541111
-0.04607325 -0.096372738 0.67961341
-0.069223143 -0.1349344 0.56984657
-0.02341992 -0.16619129 0.54980749
-0.077276647 -0.3653377 0.57480258
-0.051632419 -0.3638708 0.5602845
-0.078306332 -0.1611402 0.56829178
-0.089960992 -0.35664561 0.58596349
-0.039878279 -0.34610301 0.55661249
-0.042768002 -0.20646439 0.55756521
-0.076716043 -0.1925102 0.57267612
-0.026885839 -0.3076196 0.55068111
-0.073501937 -0.1556866 0.57543939
-0.092463881 -0.2601842 0.58863312
-0.038720101 -0.094246753 0.60221422
-0.02572507 -0.096666247 0.59334427
-0.082377523 -0.32463321 0.58684301
-0.02605805 -0.2058357 0.55199927
-0.01428676 -0.37684461 0.54209101
-0.017897369 -0.33873591 0.54359162
-0.03869316 -0.32610539 0.55772239
-0.07401666 -0.1993611 0.57727039
-0.02453539 -0.29476419 0.55144489
-0.04648089 -0.33487469 0.55706519
-0.054001719 -0.196458 0.56185251
-0.079016916 -0.3715857 0.58478498
-0.099804491 -0.34707841 0.59143609
-0.046025869 -0.098689847 0.6200065
-0.07090798 -0.26498979 0.57384789
-0.091286629 -0.33203599 0.59388411
-0.02376953 -0.1684802 0.5544042
-0.03132451 -0.243614 0.55737752
-0.03003213 -0.2258824 0.55723721
-0.068719298 -0.2256752 0.57304323
-0.05142295 -0.36804301 0.56432778
-0.02881825 -0.2558226 0.55426788
-0.084694922 -0.24779651 0.58310938
-0.02108356 -0.2383586 0.55493438
-0.05051503 -0.212145 0.56779498
-0.02978313 -0.094009817 0.61251611
-0.034324881 -0.09677887 0.57566088
-0.055018961 -0.1732527 0.56783062
-0.099972583 -0.2888914 0.59120542
-0.056129519 -0.332441 0.56936097
-0.05896366 -0.099776059 0.68770421
-0.057732161 -0.1025236 0.57192278
-0.036971088 -0.1147892 0.55949259
-0.04077759 -0.1166079 0.56104487
-0.01868182 -0.09369494 0.55830109
-0.081839353 -0.09801212 0.60448962
-0.062765688 -0.3076677 0.5658192
-0.4965331 -0.25626981 0.39903101
-0.03041306 -0.1921615 0.55794913
-0.081596367 -0.2247514 0.58573848
-0.05828077 -0.088699877 0.67934752
-0.093325756 -0.1371762 0.59688771
-0.075189292 -0.25365141 0.57936978
-0.052917842 -0.31416959 0.57015592
-0.042992651 -0.235605 0.56075102
-0.068926483 -0.096477598 0.61563259
0.058423251 -0.097203463 0.67243189
0.021033321 -0.33676329 0.52543223
0.02415067 -0.093968183 0.53721708
0.05082655 -0.094385952 0.54075241
-0.02729398 -0.090623327 0.6381641
0.1184371 -0.2420821 0.50599301
0.1231037 -0.32452509 0.51039487
0.1184225 -0.28534111 0.51136738
0.1141183 -0.14813779 0.50331289
0.0896222 -0.1812312 0.50292128
-0.022537651 -0.096645027 0.6183989
0.108672 -0.36701539 0.49214381
0.1025394 -0.2289741 0.50563347
0.1032089 -0.29876289 0.49415019
0.1021162 -0.29864219 0.49177209
0.1339791 -0.37675041 0.53959388
0.1138081 -0.097733021 0.72670293
0.045214649 -0.093297631 0.58568108
0.076462179 -0.28788701 0.496059
0.1244834 -0.1219953 0.5209378
-0.009292841 -0.095078543 0.57828659
0.1076381 -0.089963064 0.67257297
0.1606527 -0.092023 0.59375858
0.1019707 -0.094088778 0.52774853
0.1587422 -0.093078703 0.64656723
0.1533639 -0.090351 0.58752072
0.1127226 -0.28754231 0.50066149
0.1093378 -0.32957199 0.50283128
0.1025583 -0.26749501 0.49183899
0.1022177 -0.3364915 0.49621379
0.1128167 -0.229076 0.50385678
0.1158483 -0.096687183 0.60868311
0.091468751 -0.097815201 0.66861081
0.03000599 -0.097699583 0.73690581
0.1577144 -0.091464117 0.65029949
0.1055261 -0.087937161 0.63716841
0.1341707 -0.093584403 0.71394348
-0.003051341 -0.1016455 0.7161873
0.1696596 -0.096113428 0.66374809
0.03775334 -0.1038403 0.70064771
0.006879508 -0.09301506 0.76238447
0.095683098 -0.095174924 0.74231178
0.069750428 -0.099501938 0.75261742
-0.01358217 -0.09418641 0.71142328
-0.0073002581 -0.100375 0.78836811
0.1101599 -0.09537375 0.67772561
0.08659476 -0.092395984 0.65790957
0.069436729 -0.098029509 0.69790483
0.1109232 -0.096084967 0.64581323
0.026029469 -0.098965287 0.69165647
0.15926491 -0.093891807 0.61454278
0.1541983 -0.098397627 0.59921157
0.1472408 -0.090194538 0.58941698
0.1721133 -0.098241881 0.62466621
0.1130725 -0.17019761 0.51308721
0.110319 -0.093128458 0.53694153
0.17803819 -0.3223809 0.62063777
0.1127589 -0.1709494 0.51733738
0.18552309 -0.33405241 0.6432718
0.1860567 -0.098587766 0.66192251
0.1161906 -0.243347 0.51006019
0.1764489 -0.3216095 0.62570143
0.19880711 -0.31354529 0.66309011
0.1884767 -0.2493782 0.65452093
0.1107185 -0.1174283 0.49190161
0.1152508 -0.35992929 0.488305
0.1156328 -0.27134299 0.50204062
0.1021837 -0.2404269 0.49783269
0.086996049 -0.26750991 0.50782698
0.13181891 -0.099693522 0.62481833
0.1893433 -0.34091359 0.68045098
0.1853807 -0.25319991 0.65676898
0.1925927 -0.29008541 0.65882868
0.1977088 -0.36116329 0.65304053
0.1892221 -0.3133944 0.65174788
0.050850689 -0.093361959 0.71727288
0.062747598 -0.1014422 0.66952437
0.17532849 -0.093641177 0.61494142
0.1269978 -0.083469972 0.67387158
0.1145234 -0.29273751 0.5174973
0.062379122 -0.097036108 0.67311132
0.1177954 -0.09143059 0.61424828
0.179399 -0.2591776 0.6162194
0.1109094 -0.2144942 0.51858169
0.1131813 -0.2130197 0.51186311
0.174843 -0.09926416 0.64061862
0.1820637 -0.3698512 0.63786089
0.1097269 -0.31438291 0.50146627
0.1249786 -0.2045742 0.51881349
0.1726681 -0.34160069 0.6176796
0.1181481 -0.1281063 0.52956641
0.18745621 -0.1007466 0.66811502
0.18133891 -0.32554919 0.63474369
0.1136234 -0.2268762 0.51253998
0.19246 -0.35297549 0.65069258
-0.060027361 -0.098288819 0.6425252
0.18892971 -0.33868331 0.67711681
0.1684145 -0.094302922 0.6734581
0.1375975 -0.095457546 0.70395797
0.1670811 -0.097391687 0.64858007
0.022159521 -0.094876558 0.6348837
0.16922709 -0.1762813 0.69863123
0.027128249 -0.13042469 0.77592403
0.1497273 -0.1492447 0.71378708
0.034209881 -0.1151069 0.77052379
0.156148 -0.100106 0.70801228
0.1503709 -0.27427661 0.727476
0.1469861 -0.102266 0.60241091
0.1581835 -0.09785074 0.60189718
0.01902834 -0.1276852 0.77705002
0.18963 -0.1525629 0.69444251
0.188206 -0.1869005 0.69567692
0.19199149 -0.216324 0.69660091
0.16685881 -0.2766917 0.70458788
0.18785299 -0.27931181 0.69206709
0.1456271 -0.32570031 0.71945328
0.1566418 -0.153191 0.70776981
0.16135509 -0.29932189 0.71393538
0.18383209 -0.3253687 0.69897008
0.119044 -0.31799901 0.73335743
0.1713549 -0.34585819 0.7111752
0.056447949 -0.1268983 0.75756401
0.01899627 -0.21042161 0.78145391
0.1653327 -0.31021601 0.71758628
0.1507532 -0.17200179 0.70940602
0.0048786029 -0.1015693 0.78405339
0.1611432 -0.1521955 0.70739299
0.067681037 -0.1010466 0.74997002
0.19452471 -0.1728141 0.68650591
0.077582031 -0.094072543 0.60246748
0.019350709 -0.1174021 0.77350932
0.00082851952 -0.34718919 0.78336078
0.031178391 -0.2116539 0.77138788
0.02488425 -0.098342977 0.7444523
0.1555142 -0.27423209 0.72579902
0.1760627 -0.35123071 0.71018732
0.067291893 -0.15828951 0.75453871
0.1752428 -0.2404602 0.69815463
0.17398509 -0.29405379 0.70019418
-0.01168278 -0.3638007 0.78911138
0.034853879 -0.26630971 0.77462697
0.065105833 -0.2786743 0.75444251
0.1879967 -0.1878266 0.69583982
0.056344751 -0.1579252 0.75849152
-0.008969903 -0.1005361 0.77173817
0.01114616 -0.1985162 0.78478462
0.05560768 -0.1012295 0.73620182
0.1637807 -0.26972651 0.70645368
0.1386932 -0.16737179 0.71863502
0.033449631 -0.1214969 0.77205539
0.2015076 -0.1121036 0.68820298
0.1231425 -0.092637688 0.68324131
0.01150711 -0.1118183 0.78338218
0.065637499 -0.1411379 0.74760032
0.18703911 -0.27227429 0.69947052
0.1784059 -0.307394 0.69999868
0.034248382 -0.35628799 0.77554429
0.001431644 -0.1741115 0.78796518
0.1315081 -0.3277083 0.7303409
0.1182139 -0.3436096 0.73484808
0.1057642 -0.2821427 0.74596262
0.18058179 -0.33061069 0.69981462
0.02286699 -0.1404842 0.77616447
0.1747508 -0.098151147 0.68367559
0.1593211 -0.26735711 0.71127951
0.099618852 -0.099874347 0.66030288
0.059229311 -0.092663318 0.56018758
0.1447814 -0.32183611 0.72207701
0.06096169 -0.167051 0.7568928
0.03441361 -0.32726941 0.77380258
0.1146484 -0.2924501 0.73180288
0.1948854 -0.21644031 0.69027078
0.197292 -0.19883861 0.68867391
0.19075631 -0.1469449 0.68887669
0.063868329 -0.110744 0.49395019
0.1855752 -0.13548701 0.69415128
0.1022274 -0.26770049 0.74521619
0.002279639 -0.09484756 0.76963729
0.0478318 -0.097500227 0.67659342
0.06993717 -0.1622812 0.75333083
0.1347637 -0.27328321 0.72138202
0.1908253 -0.35679981 0.692424
0.15724631 -0.35391739 0.71676469
0.01369366 -0.1714047 0.78131092
-0.039106488 -0.098178893 0.60343421
0.14956769 -0.1032386 0.70852268
0.02335963 -0.17702679 0.78074747
0.074151874 -0.14199311 0.75718522
0.1204656 -0.29914999 0.73105311
0.02664745 -0.098627508 0.53784019
0.121772 -0.092032582 0.60273409
0.19779091 -0.1694286 0.68732673
0.15639371 -0.095521599 0.70221591
0.1067138 -0.093636133 0.64086127
0.1881026 -0.2371272 0.69503379
0.19183069 -0.34525779 0.68867552
0.1742813 -0.1162024 0.70061392
0.1824442 -0.3630943 0.71257168
0.09309417 -0.094896883 0.6048646
0.1674308 -0.1422949 0.70359731
0.1559215 -0.1448108 0.70523512
0.1652822 -0.1634257 0.7031821
0.1047069 -0.090593927 0.58263153
-0.038488511 -0.094532639 0.70086622
0.063460737 -0.097641923 0.73059303
0.1174669 -0.29831141 0.74467802
0.078099102 -0.099800408 0.64619988
0.032371022 -0.1048409 0.75539482
0.1580631 -0.35948291 0.70931822
0.14808761 -0.2408777 0.71626133
0.18201751 -0.2956683 0.69413781
0.1753166 -0.12931401 0.69917881
0.179507 -0.1414824 0.70083421
-0.027697351 -0.099610299 0.62211072
0.095287167 -0.2844035 0.74489522
0.1493606 -0.300827 0.71866941
0.04691036 -0.099788547 0.73619622
-0.033764541 -0.096698612 0.67752898
0.131225 -0.097573042 0.71084362
0.0048906212 -0.12843519 0.7816599
-0.00039961931 -0.098381668 0.69870651
0.0024682281 -0.1819869 0.78434688
0.1004477 -0.094664223 0.50458801
0.099809997 -0.09972316 0.49169919
0.1874232 -0.15246341 0.69568312
0.1575333 -0.28508219 0.71004212
0.1610411 -0.1220852 0.70630407
0.19211251 -0.3460364 0.67522591
0.17600811 -0.36640221 0.6963836
0.133013 -0.098410457 0.66747832
0.13705 -0.098105818 0.69245142
0.1656515 -0.3032029 0.7122075
0.064351499 -0.095848322 0.57981497
0.1037659 -0.096291751 0.60891807
0.18867169 -0.32672799 0.6642347
-0.00061550742 -0.1297899 0.78398943
0.1540841 -0.097898386 0.58444399
0.1664384 -0.09601447 0.69876778
0.1199073 -0.28824961 0.73488092
-0.052556869 -0.098559588 0.59390879
0.024190489 -0.1042246 0.53506809
-0.02318674 -0.0826177 0.56953943
0.1414495 -0.092264317 0.6581009
0.04992434 -0.092859797 0.53337181
0.18531311 -0.3671574 0.6977877
0.15701839 -0.110972 0.70608449
0.1415105 -0.1032619 0.71770662
0.18412811 -0.2561208 0.70098639
0.0066648419 -0.23269489 0.78398311
0.01389766 -0.1110282 0.77620649
0.1064974 -0.095078953 0.69264442
0.058283839 -0.090975396 0.67453301
0.18919981 -0.229948 0.70063412
0.19216719 -0.28792211 0.69360262
0.17769 -0.1617972 0.69933951
0.15000761 -0.2230508 0.71376193
0.15099581 -0.247706 0.70919442
0.1803093 -0.1146899 0.69732261
0.1797007 -0.1280327 0.69720358
0.1835904 -0.1005106 0.6951291
0.020184521 -0.1011257 0.63273531
0.108112 -0.089689203 0.64161098
-0.028499721 -0.1064587 0.73204881
-0.042885538 -0.1343513 0.70406938
0.1223869 -0.092450447 0.60396898
-0.05944404 -0.093350507 0.6387105
0.041208621 -0.099456213 0.70648009
0.0040220022 -0.091502622 0.70998323
-0.02876121 -0.09082675 0.57299441
0.097165167 -0.092142671 0.68315208
-0.077128172 -0.13856129 0.65196377
-0.04720157 -0.1488634 0.7029357
-0.02799237 -0.172297 0.74633431
-0.01346934 -0.1030895 0.76687509
0.02422726 -0.094180077 0.73902398
-0.0139721 -0.093804508 0.58355898
-0.06525594 -0.13708749 0.67440683
-0.0081928372 -0.15813211 0.78160858
0.01963925 -0.091752477 0.69210011
-0.0076524471 -0.156799 0.76664537
-0.026367869 -0.1229836 0.7494067
0.004020452 -0.095108673 0.69845867
-0.074804068 -0.1782721 0.65243691
0.065725327 -0.096806496 0.61988932
-0.03630656 -0.1069723 0.72941887
-0.054483529 -0.1548603 0.68711632
-0.072491594 -0.1847588 0.66160911
0.09103632 -0.094650209 0.70581049
-0.05898476 -0.150446 0.68703949
-0.062276721 -0.14163581 0.68414772
0.081113987 -0.092386447 0.59912801
-0.005163074 -0.090422422 0.66397351
-0.091024518 -0.1035678 0.61816788
-0.090931714 -0.1559923 0.61648989
-0.099010713 -0.117091 0.6057117
-0.039862931 -0.1126079 0.71827519
-0.092153788 -0.2029566 0.63489759
-0.03102213 -0.1426238 0.7346217
-0.01511341 -0.097197562 0.76363772
-0.093544133 -0.34222609 0.62392789
-0.02699104 -0.1224507 0.74294418
-0.03062975 -0.096504956 0.74381119
-0.080143809 -0.3731581 0.66062951
-0.038266961 -0.29214171 0.73690343
-0.048459768 -0.090650953 0.62383813
-0.072222829 -0.27346581 0.66221881
-0.042531971 -0.22928829 0.72815818
-0.076589577 -0.3380422 0.66841573
-0.053740259 -0.18777201 0.69945753
-0.051622089 -0.35584 0.71585917
-0.041027069 -0.23254199 0.72645158
-0.03852069 -0.3145102 0.73034573
-0.094384611 -0.37339711 0.63842243
-0.098192751 -0.2265259 0.62078488
-0.02912849 -0.3274689 0.76172638
-0.037513319 -0.1699571 0.71989131
-0.050321341 -0.19202571 0.69575632
-0.04225504 -0.3015058 0.72283012
-0.057800651 -0.25599179 0.69733661
-0.088138819 -0.2189137 0.64936727
-0.046756741 -0.2935181 0.71534848
