# .PCD v0.7 - Point Cloud Data file format
VERSION 0.7
FIELDS x y z
SIZE 4 4 4
TYPE F F F
COUNT 1 1 1
WIDTH 386
HEIGHT 1
VIEWPOINT 0 0 0 1 0 0 0
POINTS 386
DATA ascii
0.70962411 -0.54279608 1.410494
0.71366209 -0.56568831 1.405781
0.65186 -0.60378528 0.92590028
0.74243402 -0.361164 1.0103559
-0.1148078 -0.1413525 0.24808741
0.60881472 -0.28907219 1.080788
0.57815742 -0.54779547 0.79518092
-0.072186947 0.060082551 0.2491432
0.59352398 -0.30558911 1.0719939
0.67104667 -0.32332319 1.141374
-0.097544193 0.021471741 0.29888859
-0.30352229 -0.38270479 1.015208
-0.32399461 0.045840621 0.25440621
-0.1845753 -0.1225693 0.25564751
0.67723179 -0.50737178 0.84325129
-0.1783679 -0.38249961 1.045482
0.41820881 -0.56686032 0.70074522
0.46390131 -0.310996 1.094246
0.70441532 -0.54358459 0.82076257
0.66192889 -0.30494431 1.0851049
0.6419692 -0.32768461 1.127313
0.56257027 -0.63363642 0.69385231
0.48188919 -0.29580599 0.95382643
0.48618361 -0.64354593 1.012123
0.61392689 -0.36381429 1.1210459
0.07347846 -0.35589331 0.3116169
0.64845711 -0.28128669 1.093863
0.56410837 -0.29789251 0.99687922
0.73186213 -0.53803468 1.425987
0.6827054 -0.45800999 1.378659
-0.02665305 -0.1355855 0.30267289
0.58930987 -0.3808139 1.166728
-0.073552608 0.05534821 0.26656911
0.2192402 0.121893 0.4050144
-0.047237631 -0.28511661 0.5557363
0.73853248 -0.65743989 0.79139018
0.1527162 0.1626831 0.9789173
-0.079774141 0.05584633 0.3030636
0.4551101 0.02403795 0.63602591
0.2430937 0.1302329 0.64479661
-0.26414371 0.03924679 0.39376631
0.49260661 -0.58096582 0.73309672
0.45333889 -0.2912972 1.0929151
-0.36488011 0.18016531 0.97048253
-0.27595639 0.1920166 0.67752129
-0.096187353 0.057103649 0.28121209
-0.254926 0.030660629 0.39413249
-0.31954741 0.206916 0.82472628
-0.1031063 0.190282 0.29034179
-0.1585028 0.02145941 0.43139711
0.73475909 -0.30155581 1.007996
-0.30631971 0.0045985882 1.018855
0.72108531 -0.30743811 1.157421
0.1780729 -0.72770929 0.97513348
-0.38034341 -0.3862384 1.018831
0.67124349 -0.3481741 1.125689
-0.1009645 0.1065839 0.26235941
-0.1159048 0.063257739 0.27932271
-0.3314347 -0.3847391 1.0262049
-0.32169369 0.189007 0.81155127
-0.28412601 0.1764988 0.77717787
-0.1919239 -0.27507511 0.46215159
-0.1917738 -0.0038728081 0.38858539
-0.20244689 -0.31353599 0.47404939
-0.1300929 0.2106813 0.34660199
-0.13939551 -0.122402 0.27833211
-0.1842407 0.02963629 0.42286041
-0.084832191 0.061400309 0.24972381
0.67477578 -0.3024798 1.114472
-0.23041201 0.18802901 0.68412572
-0.1682291 0.1601927 0.51600981
-0.2135324 0.1503088 0.5604524
-0.096848957 -0.1395957 0.26057941
-0.1262949 0.1961731 0.35052949
0.68759018 -0.33120829 1.04096
-0.22331519 -0.4035311 0.53899717
-0.1140494 0.1489376 0.2183042
-0.1206007 0.1217631 0.5192492
0.66481477 -0.35918951 1.0674241
0.69698989 -0.3266615 1.096833
0.69338942 -0.32034549 1.057266
0.70498168 -0.3387593 1.13029
-0.369674 -0.1210548 0.85618252
-0.289067 0.1028572 0.91643429
0.61450219 -0.3042675 1.0666699
-0.1177504 0.1048955 0.3048068
-0.1682415 0.03552049 0.31331661
-0.041771889 -0.087028362 0.27457801
-0.14844359 0.1710033 0.2225588
-0.2303967 0.1827967 0.69049501
-0.16842841 0.038491029 0.41176891
-0.17981701 -0.037180409 0.4304069
-0.17810179 0.1936432 0.56793487
-0.1355143 0.22951099 0.61013138
-0.2292182 0.01372011 0.46521661
-0.3405526 0.1900079 0.82771248
-0.1219859 -0.084784873 0.29033211
-0.062294241 0.061156351 0.3142226
0.45416281 -0.67542452 0.61113739
-0.1590827 -0.052779779 0.30797139
-0.1103177 0.18321539 0.24689481
-0.2151816 0.1589562 0.54860872
-0.21401639 0.045970879 0.44722891
-0.1368783 0.24381021 0.33690059
-0.1918273 -0.1116541 0.45156699
-0.1514764 0.2281125 0.42874229
-0.14357691 -0.19650599 0.55748898
-0.1361554 0.1312793 0.43295789
-0.19314229 0.2067195 0.27951851
-0.1862537 -0.369252 0.53255588
-0.16404399 -0.24991851 0.46276861
0.37888911 -0.70405889 0.63767183
-0.29716781 0.16724899 0.73480737
-0.2216423 0.19519509 0.5585984
-0.16943911 -0.1432638 0.2456371
-0.2113705 0.043985579 0.3269822
-0.1984092 0.118861 0.4495855
-0.13187119 -0.083233558 0.30400819
-0.1482753 -0.068510607 0.37588519
-0.1945311 0.12704261 0.4966996
-0.2385404 -0.2838921 0.46349579
-0.13980959 -0.2384201 0.44147789
-0.24198011 -0.1136179 0.45456061
-0.2076147 0.1628657 0.50068438
-0.15168799 0.098715067 0.52133697
-0.2040652 -0.1998049 0.53558731
0.419292 -0.70939708 0.5626387
-0.36505231 0.1335371 0.97640288
-0.34858391 0.05119453 0.96671498
-0.3409051 -0.3513836 0.51327962
-0.3361921 -0.37703609 0.53810108
-0.263284 -0.085176282 0.39092359
-0.31664029 -0.1150409 0.35778931
-0.31091139 0.085524753 0.78116691
-0.310662 0.1215957 0.70545292
-0.2739431 0.120378 0.54305589
-0.1654997 -0.00182816 0.38245231
-0.4059208 0.1798612 0.81019568
-0.35633191 0.1348286 0.61685097
-0.32169539 0.1354735 0.6246143
-0.2075602 0.056256071 0.44455159
-0.32676119 0.1754548 0.67551923
0.72165948 -0.6848523 1.0323009
0.68211758 -0.56159621 0.81210053
0.72056121 -0.69681448 0.75855768
0.71507478 -0.73355848 0.91533208
0.69325948 -0.71811581 1.098153
0.72538787 -0.72031552 0.92025059
0.72412628 -0.46783739 0.9072575
0.57923818 -0.56777549 0.89715749
-0.1121722 -0.19046029 0.3953073
-0.2692382 -0.36802661 0.5419656
-0.2726922 -0.36505479 0.54399532
-0.1701857 -0.1144506 0.2268033
-0.2359698 0.080658413 0.44320309
-0.17873131 0.090501107 0.2312289
-0.1812934 -0.1347044 0.25484031
-0.18699031 0.025008131 0.2992993
-0.18529589 0.001910865 0.29261181
-0.18497349 -0.01399866 0.29243991
-0.1798548 -0.1093711 0.24618331
-0.187071 -0.087336183 0.27384859
-0.34066191 0.17916261 0.77441829
-0.2201281 -0.068974517 0.38641739
-0.16845921 0.087091357 0.2257055
-0.3835645 0.1091501 0.90684807
-0.27270639 0.1547531 0.52337211
-0.34883919 0.22879981 0.77393669
-0.3415983 0.1798728 0.79223633
-0.40244639 0.1412351 1.008055
-0.4413861 0.05604158 1.050467
-0.40276119 0.1521825 0.97467393
-0.26110709 0.1686644 0.50485313
-0.2360117 0.1113388 0.45668179
-0.2411864 0.106273 0.4574483
-0.25983691 0.1860341 0.51321381
-0.252597 0.16320629 0.5261026
-0.30287561 0.2572926 0.64721721
-0.2172495 0.01441347 0.38879961
-0.36150831 0.1054379 0.83659232
-0.2480053 0.1060443 0.4824343
-0.26018131 0.1683057 0.52431142
-0.24337371 0.2474993 0.4721837
-0.2368788 0.063333742 0.44686189
-0.28858441 0.1797431 0.54248482
-0.2654064 -0.38626561 0.53101349
-0.2487849 -0.24752881 0.47104469
-0.2203436 -0.0039115548 0.3925963
-0.25343919 -0.38538191 0.4852632
-0.24534769 -0.38847661 0.46690139
-0.27490351 -0.35893449 0.54702508
-0.2502296 -0.27670401 0.47970071
-0.2478624 -0.1988916 0.4579328
-0.25782239 -0.36212239 0.51798809
-0.24406829 -0.25828159 0.46032509
-0.2612744 -0.38186401 0.497529
-0.24696121 -0.2373808 0.45706469
-0.2168671 -0.0051094592 0.37864411
-0.264541 -0.34826201 0.50706321
-0.23200411 -0.017986281 0.429719
-0.27126059 -0.2018739 0.54093081
-0.1701245 0.050936248 0.2240212
-0.1676244 0.04099213 0.2340128
-0.1873845 0.1102879 0.2914784
-0.1665308 0.045811761 0.2286673
-0.19012161 0.1514459 0.30281681
-0.1868187 0.040048569 0.296011
-0.1735502 0.081945047 0.23739401
-0.1810915 0.085073858 0.2721045
-0.1843458 0.078428589 0.2465319
-0.16425709 0.15121339 0.2143697
-0.18763199 0.099621363 0.26901329
-0.1885033 0.064166524 0.2927064
-0.1879634 0.2026846 0.27923799
-0.1592212 0.1795558 0.2005478
-0.17715821 0.0241527 0.25176579
-0.17307 0.1002264 0.23857459
-0.17505731 0.1021897 0.23375469
-0.16516531 0.078088351 0.2182283
-0.19092271 0.13135821 0.3015134
-0.1706965 0.1225295 0.2428738
-0.1954082 0.016257489 0.30888441
-0.15945721 0.1522848 0.21450239
-0.18650191 0.1460661 0.2908867
-0.1994978 0.093857907 0.3386606
-0.1756586 -0.1489712 0.2355914
-0.1842532 -0.14962991 0.26869261
-0.1869155 -0.053577758 0.27534971
-0.18687139 -0.038057368 0.27512619
-0.1847221 -0.0072824359 0.29028159
-0.18668281 -0.0054457039 0.27165931
-0.17457619 0.01407087 0.25613639
-0.1962982 -0.076918192 0.30495489
-0.193406 -0.097848237 0.29365969
-0.2697241 0.1534463 0.54864287
-0.3107976 0.19033889 0.66442281
-0.22818729 0.038872551 0.4226771
-0.2414721 -0.29799721 0.47037971
-0.26039699 -0.27632329 0.44649139
-0.27645689 -0.195078 0.54056281
-0.1876273 0.20072541 0.2807968
-0.2096985 0.13581809 0.36003011
-0.18508831 -0.071845092 0.27925599
-0.1707703 0.018333839 0.2383731
-0.1809347 0.18015631 0.25818411
-0.25767931 0.1145071 0.50594908
-0.23467951 -0.2005019 0.4604232
-0.1635246 0.2199299 0.2003267
-0.16208661 0.21840841 0.2018829
-0.4004316 0.041515291 0.9362666
-0.1631709 0.13482819 0.209318
-0.1807334 0.17116819 0.27953711
-0.29139861 0.2174006 0.61755872
-0.22753979 0.1892495 0.4360508
-0.29296109 0.2207012 0.61548883
-0.2082573 -0.1093041 0.346212
-0.2053653 0.21760041 0.33467039
-0.28156129 0.179441 0.5803619
-0.29039061 0.1671935 0.60940403
-0.27317619 0.20770191 0.56096208
-0.25728321 0.1809788 0.5235731
-0.21798261 0.1001435 0.3914201
-0.19788221 0.22700541 0.32278889
-0.2244603 0.03876685 0.4027445
-0.30873239 0.1743457 0.65365249
-0.1738161 0.20310099 0.25043911
-0.29330459 0.1973623 0.63205087
-0.3064386 0.1888625 0.67561263
-0.32178989 0.1133009 0.73587912
-0.23175719 0.1667203 0.43319091
-0.1763217 0.17926119 0.2474727
-0.22547939 0.23225249 0.41246909
-0.17787901 0.1194065 0.25246069
-0.2201129 0.1235573 0.38911301
-0.34495971 0.1186049 0.78702211
-0.2014481 0.23662511 0.3525475
-0.27700299 0.1937332 0.56721687
-0.21951219 0.2488596 0.39314851
-0.30089131 0.2027853 0.65223062
-0.1687791 0.02814235 0.2296517
-0.1840145 0.1203903 0.26433489
-0.199053 0.2118106 0.32307881
-0.211998 -0.04322302 0.34271681
-0.42695159 0.14299481 1.027974
-0.4972842 -0.43294099 1.096799
-0.16939341 0.1443066 0.23420119
-0.1811451 0.082421571 0.26429331
-0.29646191 0.24033441 0.65005201
-0.2426675 0.1319093 0.46515459
-0.22124369 0.23809829 0.3724651
-0.2764222 0.1359468 0.58214068
-0.30294439 0.13727491 0.64555889
-0.2045618 0.1218033 0.34584111
-0.21070939 0.099156298 0.35355151
-0.1808306 0.1337433 0.26079959
-0.37016651 0.1302785 0.90393138
-0.24462759 0.14254379 0.4739154
-0.2363912 -0.1067361 0.4374221
-0.1824418 -0.14995959 0.25542209
-0.1668029 -0.20707449 0.2139989
-0.17534199 -0.1918859 0.2158687
-0.2607379 0.1188065 0.52120852
-0.2111526 0.1720202 0.35666451
-0.1708072 -0.068293728 0.25711069
-0.26677781 0.2251367 0.52758759
-0.23052511 0.094577327 0.44614199
-0.15156171 0.056980651 0.20648549
-0.26186621 0.1262455 0.54675817
-0.27444831 0.1659676 0.57499278
-0.2130647 -0.1004799 0.37784061
-0.24042609 -0.1880684 0.44160151
-0.19301111 0.22611231 0.305464
-0.1677127 0.031599302 0.24548841
-0.19311149 0.01107031 0.30881739
-0.1762252 0.13970719 0.2396128
-0.27375039 0.12998921 0.54189253
-0.1620249 0.09981811 0.2119882
-0.30891871 0.1249705 0.69180638
-0.19882061 0.24607299 0.33078349
-0.38044211 0.1163776 0.92694902
-0.1921083 0.1639539 0.2924704
-0.30165869 0.1848578 0.61547649
-0.26069641 -0.3603251 0.54837781
-0.1756186 0.1306175 0.2487765
-0.1747451 -0.1425454 0.2313869
-0.2175048 -0.073409669 0.3693378
-0.2391101 0.2579096 0.49123541
-0.1952544 0.080929272 0.32539731
-0.2051672 -0.098191693 0.32503369
-0.2409505 0.1366408 0.45166069
-0.29697019 0.1999636 0.62770891
-0.2977356 0.1668345 0.66209972
-0.2895883 0.1321687 0.59224921
-0.2561473 0.23596659 0.50933999
-0.3269234 0.13593429 0.66613889
-0.2433037 0.17021661 0.46420911
-0.38446641 0.1915759 0.93063128
-0.26596129 -0.16296311 0.53162837
-0.19583181 -0.084767468 0.31594461
-0.41008961 0.16190469 0.97567183
-0.2442214 -0.39626729 0.45262599
-0.25295961 -0.2948454 0.47436771
-0.23938981 -0.1041877 0.43634939
-0.2465874 -0.2151134 0.4604784
-0.26655161 -0.3901234 0.48409221
-0.27365479 -0.1225393 0.53010678
-0.1876746 0.059243731 0.29414171
-0.1874935 0.21991099 0.30817789
-0.1672159 -0.2069961 0.22205681
-0.1868861 -0.01936039 0.27185771
-0.1782576 -0.044425171 0.26202649
-0.17799599 -0.055814538 0.26145181
-0.19407921 -0.06148497 0.290068
-0.30630991 0.15333921 0.64800638
-0.23909131 0.02149028 0.4672108
-0.2267172 0.2000038 0.4200761
-0.27426261 0.2371337 0.59315473
-0.269853 -0.3806147 0.51562119
-0.1625087 0.15071879 0.2071211
-0.1985345 -0.03963137 0.31467521
-0.2341788 -0.25245491 0.43501309
-0.23595969 0.2438556 0.4680962
-0.19356459 0.2094164 0.30911511
-0.22122189 -0.1176337 0.38775381
-0.18472859 0.031110819 0.26455331
-0.2018107 0.178489 0.3209424
-0.1993908 -0.1030738 0.3310177
-0.2386646 0.1193082 0.466519
-0.2311824 0.112005 0.41953179
-0.2818228 0.1801293 0.57894391
-0.2251261 0.1810642 0.4005312
-0.1605646 0.1213079 0.21952809
-0.1815217 0.2325251 0.26784149
-0.2268485 0.200177 0.4146013
-0.184561 -0.34945101 0.26576161
-0.2089521 0.235392 0.36644831
-0.2429482 0.060313899 0.43558311
-0.2224739 0.2233547 0.42959559
-0.162797 0.1216457 0.21763439
-0.16971549 0.1538035 0.22598059
-0.16770791 0.23265021 0.2214867
-0.16427229 0.1684352 0.2120724
-0.19000611 0.15173849 0.28351969
-0.2203286 0.1254285 0.41778889
-0.2083129 0.17371351 0.35714599
-0.3249374 0.23945659 0.73127502
