# .PCD v0.7 - Point Cloud Data file format
VERSION 0.7
FIELDS x y z normal_x normal_y normal_z curvature
SIZE 4 4 4 4 4 4 4
TYPE F F F F F F F
COUNT 1 1 1 1 1 1 1
WIDTH 422
HEIGHT 1
VIEWPOINT 0 0 0 1 0 0 0
POINTS 422
DATA ascii
-0.16282269 -0.74185199 0.20466217 9.7960117e-05 -1 2.1804768e-05 0.00027332583
-0.15539145 -0.74185199 0.20351665 9.7960117e-05 -1 2.1804768e-05 0.00027332583
-0.17534199 -0.74185199 0.2158687 -1.7021392e-05 -1 -2.6438442e-05 0.00020251535
-0.16369773 -0.74185199 0.21540286 2.0216388e-05 -1 -2.0827672e-05 0.00018665867
-0.15945721 -0.74185199 0.21450239 1.7727136e-05 -1 -2.2823129e-05 0.00017105411
-0.1140494 -0.74185199 0.2183042 2.6083273e-05 -1 -0.00011441467 0.00012426493
-0.17305386 -0.74185199 0.2288723 5.1304719e-06 -1 -3.8233306e-05 0.00016372834
-0.16747467 -0.74185199 0.22505367 2.5982275e-05 -1 -1.7364782e-05 0.00015346342
-0.14844359 -0.74185199 0.2225588 1.6257074e-05 -1 -2.4827874e-05 0.00014056137
-0.17510478 -0.74185199 0.23537254 8.0057198e-06 -1 -1.2957411e-05 0.00014085171
-0.1685089 -0.74185199 0.23410699 1.7522934e-05 -1 -1.2309193e-05 0.00013152631
-0.1839363 -0.74185199 0.24793646 -1.1898824e-05 -1 -2.5305562e-05 0.00012532319
-0.1746871 -0.74185199 0.24367014 8.0993468e-06 -1 -5.3028318e-05 0.00012718425
-0.16857591 -0.74185199 0.24556276 -2.7123567e-06 -1 -4.0284231e-05 0.00011985211
-0.11256275 -0.74185199 0.24749111 2.6946127e-05 -1 -0.00011410596 9.6969423e-05
-0.084832191 -0.74185199 0.24972381 3.3483455e-05 -1 -7.2406518e-05 0.0001450491
-0.072186947 -0.74185199 0.2491432 4.4256354e-05 -1 -8.5469044e-05 0.00017198545
-0.18350855 -0.74185199 0.2555348 -2.2232927e-05 -1 -3.644075e-05 0.00011393312
-0.17431824 -0.74185193 0.25378263 -3.1414053e-05 -1 -5.307675e-05 0.00011403902
-0.18289214 -0.74185199 0.26518381 -4.223796e-05 -1 -3.8519913e-05 0.00011201717
-0.1781268 -0.74185193 0.26173913 -5.3467724e-05 -1 -5.3451411e-05 0.0001043582
-0.1009645 -0.74185199 0.26235941 3.0268255e-05 -1 -6.8474168e-05 9.6897929e-05
-0.096848957 -0.74185199 0.26057941 2.6465537e-05 -1 -6.4731248e-05 0.00010468061
-0.073552608 -0.74185199 0.26656911 2.839797e-05 -1 -0.00010231572 0.0001666406
-0.19314229 -0.74185199 0.27951851 -3.0486579e-05 -1 -4.2875508e-05 0.00010223583
-0.18524766 -0.74185199 0.27437586 -4.4731394e-05 -1 -4.3848017e-05 9.9122743e-05
-0.13939551 -0.74185199 0.27833211 5.5064888e-06 -1 -2.0942703e-05 0.00010417953
-0.1159048 -0.74185199 0.27932271 2.2565786e-05 -1 -6.8806767e-05 8.2277053e-05
-0.041771889 -0.74185199 0.27457801 3.4247303e-05 -1 -7.8677316e-05 0.00021987154
-0.19000611 -0.74185199 0.28351969 -1.742058e-05 -1 -2.9616089e-05 0.00010007417
-0.1876273 -0.74185199 0.2807968 -1.742058e-05 -1 -2.9616089e-05 0.00010007417
-0.096187353 -0.74185199 0.28121209 4.3456985e-06 -1 -5.1549971e-05 0.00010405541
-0.1937426 -0.74185199 0.29186386 -1.6799679e-05 -1 -3.1679399e-05 0.0001049004
-0.186867 -0.74185199 0.29321069 -1.5504376e-05 -1 -3.9150087e-05 0.00010154736
-0.1219859 -0.74185199 0.29033211 1.1065717e-05 -1 -2.8646235e-05 8.7452281e-05
-0.1031063 -0.74185199 0.29034179 -5.5534665e-06 -1 -7.2462404e-05 0.0001046928
-0.097544193 -0.74185199 0.29888859 -5.4269121e-06 -1 -3.8238133e-05 0.00011938799
-0.1933513 -0.74185199 0.30633956 1.1503362e-05 -1 -1.5050069e-05 9.9980418e-05
-0.1874935 -0.74185199 0.30817789 -1.2142953e-05 -1 -3.5032535e-05 8.9471498e-05
-0.1590827 -0.74185199 0.30797139 -2.8267847e-05 -1 -5.5610082e-05 8.0596532e-05
-0.13187119 -0.74185199 0.30400819 -4.9909522e-06 -1 -1.4294563e-05 8.4642139e-05
-0.1177504 -0.74185199 0.3048068 -1.0054887e-06 -1 -8.0259655e-05 8.821494e-05
-0.079774141 -0.74185199 0.3030636 2.1637441e-06 -1 -1.6808594e-05 0.00012741331
-0.02665305 -0.74185199 0.30267289 2.8566015e-05 -1 -6.7852627e-05 0.00011760457
-0.1944567 -0.74185199 0.31451696 -3.8548355e-06 -1 -8.6805985e-06 8.7888257e-05
-0.1682415 -0.74185199 0.31331661 -2.8536415e-05 -1 -4.7289213e-05 7.9889738e-05
-0.062294241 -0.74185199 0.3142226 -1.0161284e-05 -1 -4.4209123e-06 6.8184047e-05
-0.2113705 -0.74185199 0.3269822 -6.0410563e-05 -1 -2.9082854e-05 0.00010547558
-0.20348895 -0.74185199 0.32298803 -6.742627e-05 -1 -3.0395209e-05 9.3651965e-05
-0.19739653 -0.74185199 0.323755 -6.0741786e-05 -1 -3.5812878e-05 9.1875692e-05
-0.203867 -0.74185199 0.3332665 -1.1207021e-05 -1 -2.1051515e-05 9.6941709e-05
-0.19923639 -0.74185199 0.33348727 -2.814105e-05 -1 -1.4431147e-05 9.8046003e-05
-0.1368783 -0.74185205 0.33690059 -2.1209344e-05 -1 -7.1144408e-05 8.5567292e-05
-0.211998 -0.74185199 0.34271681 0 -1 0 0.00010493714
-0.20640954 -0.74185199 0.34602654 -2.5766118e-05 -1 -5.3350032e-06 9.5517324e-05
-0.1300929 -0.74185205 0.34660199 1.0233884e-05 -1 -8.1654089e-06 8.2628096e-05
-0.2111526 -0.74185199 0.35666451 -3.1657026e-05 -1 -7.3641736e-06 9.3789582e-05
-0.2041378 -0.74185199 0.35436198 -2.1296788e-05 -1 -4.1281378e-06 9.0155743e-05
-0.1262949 -0.74185205 0.35052949 -3.9350837e-07 -1 -1.2130487e-05 8.2242979e-05
-0.2175048 -0.74185199 0.3693378 -1.2642965e-05 -1 -4.8471506e-05 9.6791679e-05
-0.2089521 -0.74185199 0.36644831 -3.0857795e-05 -1 -3.628925e-05 8.7419772e-05
-0.22124369 -0.74185199 0.3724651 -1.2642965e-05 -1 -4.8471506e-05 9.6791679e-05
-0.21585399 -0.74185199 0.37725678 1.1689386e-05 -1 -2.714439e-05 9.1819296e-05
-0.1482753 -0.74185199 0.37588519 0 -1 0 8.6983433e-05
-0.22122189 -0.74185199 0.38775381 -1.9510213e-05 -1 -3.3449171e-05 9.3044022e-05
-0.2172495 -0.74185199 0.38879961 -2.2833459e-05 -1 -4.9289261e-05 9.1698224e-05
-0.1917738 -0.74185199 0.38858539 1.1588501e-05 -1 -1.3868339e-05 7.9305115e-05
-0.1654997 -0.74185199 0.38245231 -1.6498656e-05 -1 -1.5892034e-07 8.5435851e-05
-0.254926 -0.74185199 0.39413249 3.9251336e-05 -1 -1.0475159e-05 0.00013085578
-0.2203436 -0.74185199 0.3925963 -5.3415719e-05 -1 -7.3353614e-05 9.6163414e-05
-0.2181478 -0.74185199 0.39188787 -5.3415719e-05 -1 -7.3353614e-05 9.6163414e-05
-0.2247932 -0.74185199 0.40163785 -6.6148368e-06 -1 -1.8305396e-05 0.00010369175
-0.2311824 -0.74185199 0.41953179 2.480295e-05 -1 4.9059167e-06 0.00010546369
-0.22421885 -0.74185199 0.41495308 3.7639558e-05 -1 -1.3540339e-05 0.00010717606
-0.16842841 -0.74185199 0.41176891 7.5214875e-06 -1 -0.00013975844 0.00010233895
-0.23200411 -0.74185199 0.429719 0 -1 0 0.00010567337
-0.22579281 -0.74185199 0.42411625 3.427238e-05 -1 -1.3135442e-05 0.00010305333
-0.1842407 -0.74185199 0.42286041 2.7271668e-05 -1 -4.3392865e-05 0.00010542371
-0.1514764 -0.74185199 0.42874229 2.1766116e-06 -1 -8.2617233e-05 0.00015084504
-0.2429482 -0.74185199 0.43558311 7.5470649e-05 -1 3.6232286e-05 0.00011055316
-0.23542926 -0.74185199 0.43549389 3.6381651e-05 -1 -1.1497033e-05 0.00010625069
-0.22753979 -0.74185199 0.4360508 2.461556e-05 -1 -3.6413145e-05 0.00010747969
-0.17981701 -0.74185199 0.4304069 8.2215238e-06 -1 -7.0142203e-05 0.00011042316
-0.1585028 -0.74185199 0.43139711 1.7990506e-05 -1 -0.00013618729 0.00013474473
-0.1361554 -0.74185199 0.43295789 1.139168e-05 -1 -3.5994977e-05 0.00018297732
-0.26039699 -0.74185199 0.44649139 -5.9264071e-06 -1 -4.1419826e-05 0.00011975136
-0.2410306 -0.74185199 0.44514728 5.1577041e-05 -1 1.3131344e-05 0.00010332435
-0.23482862 -0.74185199 0.44500524 3.3729306e-05 -1 -9.7120474e-06 0.00010114992
-0.22635999 -0.74185199 0.4418664 2.2295839e-05 -1 -3.4542281e-05 0.00010343386
-0.21401639 -0.74185199 0.44722891 1.5598776e-05 -1 -3.9917475e-05 9.875487e-05
-0.2075602 -0.74185199 0.44455159 7.3311986e-07 -1 -4.1886826e-05 9.6937445e-05
-0.1984092 -0.74185199 0.4495855 3.6344241e-05 -1 -1.754605e-05 0.0001018074
-0.13980959 -0.74185199 0.44147789 -1.2594595e-05 -1 -2.7153559e-05 0.00013848988
-0.24525627 -0.74185199 0.45554602 -2.5180923e-05 -1 -6.4285894e-05 0.00011025667
-0.1918273 -0.74185199 0.45156699 2.4840367e-05 -1 -2.2132203e-05 0.00010913176
-0.24439493 -0.74185199 0.46341372 1.1956648e-05 -1 -4.7443249e-05 0.0001012532
-0.23774394 -0.74185199 0.46441218 2.0053221e-06 -1 -3.2589774e-05 9.605533e-05
-0.2292182 -0.74185199 0.46521661 3.7395595e-05 -1 -4.1629806e-05 8.8003551e-05
-0.1919239 -0.74185199 0.46215159 2.7914502e-05 -1 2.259378e-05 9.2224e-05
-0.16404399 -0.74185199 0.46276861 4.5242134e-05 -1 -8.8824701e-05 0.00011649832
-0.2515946 -0.74185199 0.47703421 6.1395061e-05 -1 -2.4722534e-05 0.00011953894
-0.24476826 -0.74185199 0.47169766 9.1736083e-06 -1 -5.1182531e-05 0.00010258712
-0.20244689 -0.74185199 0.47404939 -4.6639457e-06 -1 -6.1344079e-05 8.563848e-05
-0.26655161 -0.74185199 0.48409221 3.7740906e-06 -1 -6.6011919e-05 0.00012902929
-0.25576985 -0.74185199 0.48309857 4.9207858e-05 -1 -4.7895075e-05 0.0001149947
-0.2612744 -0.74185199 0.497529 3.5444908e-05 -1 -2.7474118e-05 0.00010200307
-0.25459653 -0.74185199 0.49758849 -8.6960972e-06 -1 -1.8050798e-05 9.6732285e-05
-0.2391101 -0.74185199 0.49123541 3.630641e-05 -1 -3.1460095e-05 9.9641242e-05
-0.1945311 -0.74185199 0.4966996 2.4379713e-05 -1 -0.00010276173 0.00010124033
-0.264541 -0.74185199 0.50706321 -4.8295365e-06 -1 -4.6575853e-05 9.4455558e-05
-0.25556329 -0.74185199 0.50599724 1.5601541e-05 -1 -1.2128908e-05 9.0531808e-05
-0.2076147 -0.74185199 0.50068438 0 -1 0 8.9461602e-05
-0.269853 -0.74185199 0.51562119 -2.1960763e-05 -1 -3.7393696e-05 0.00010027415
-0.25882965 -0.74185199 0.51560092 2.4322875e-05 -1 4.1997578e-06 9.8358425e-05
-0.1682291 -0.74185199 0.51600981 1.7085034e-05 -1 -1.6303347e-05 4.8290935e-05
-0.26256567 -0.74185199 0.52436918 3.1378706e-05 -1 2.4480134e-05 0.00010481403
-0.25494009 -0.74185199 0.52483785 3.1378706e-05 -1 2.4480134e-05 0.00010481403
-0.15168799 -0.74185199 0.52133697 0 -1 0 6.6432927e-05
-0.27365479 -0.74185199 0.53010678 8.770272e-05 -1 -6.4627216e-07 0.00010978168
-0.26582533 -0.74185199 0.53513527 9.332021e-05 -1 -1.2772562e-06 0.00011043869
-0.22331519 -0.74185199 0.53899717 2.1908147e-05 -1 -1.8412535e-05 9.501708e-05
-0.2040652 -0.74185199 0.53558731 1.9540577e-05 -1 2.8752469e-05 0.00010289138
-0.1862537 -0.74185199 0.53255588 4.7484773e-05 -1 -3.2678778e-05 0.00010469832
-0.27540267 -0.74185199 0.54224092 7.4372023e-05 -1 1.3535382e-06 0.00010624452
-0.26538125 -0.74185199 0.54643613 0.00013450907 -1 1.7192098e-05 0.00010626605
-0.2151816 -0.74185199 0.54860872 3.4237099e-05 -1 -2.242486e-05 9.3074719e-05
-0.2216423 -0.74185199 0.5585984 2.6045374e-05 -1 -5.5629785e-05 9.207314e-05
-0.14357691 -0.74185205 0.55748898 1.2354385e-05 -1 -5.9225233e-05 0.0001045586
-0.27508959 -0.74185199 0.56408948 4.362558e-05 -1 -1.9641217e-05 9.9904923e-05
-0.2135324 -0.74185199 0.5604524 3.280885e-05 -1 -2.7675707e-05 9.651365e-05
-0.17810179 -0.74185199 0.56793487 3.8322942e-06 -1 5.8241254e-05 5.0430015e-05
-0.2818228 -0.74185199 0.57894391 -1.3632993e-05 -1 -4.9003604e-05 8.6496497e-05
-0.27444831 -0.74185199 0.57499278 -5.5496566e-06 -1 -4.5020053e-05 8.7188098e-05
-0.28156129 -0.74185199 0.5803619 -1.3632993e-05 -1 -4.9003604e-05 8.6496497e-05
-0.27794245 -0.74185199 0.58290213 -0.00011341772 -1 -0.00012203671 8.8850356e-05
-0.27426261 -0.74185199 0.59315473 -0.00012736229 -1 -0.00012240977 8.1177517e-05
-0.28505421 -0.74185199 0.60231668 -2.322697e-05 -1 -3.5666009e-05 9.2218928e-05
-0.30165869 -0.74185199 0.61547649 -0.00014229925 -1 -7.4836425e-05 0.00010974913
-0.29217985 -0.74185199 0.61652374 -0.00014229925 -1 -7.4836425e-05 0.00010974913
-0.32169539 -0.74185199 0.6246143 -0.00020027849 -1 -0.00012286149 0.00014025705
-0.29697019 -0.74185199 0.62770891 -8.102884e-05 -1 -7.9239806e-05 0.00012828816
-0.29330459 -0.74185199 0.63205087 -8.102884e-05 -1 -7.9239806e-05 0.00012828816
-0.30459276 -0.74185199 0.6476118 -0.00024409934 -1 -0.00015133699 0.00014073838
-0.3113679 -0.74185199 0.65850759 0.00014667562 -1 -5.9096576e-05 0.00014621878
-0.30481184 -0.74185199 0.65294158 -0.00017592253 -1 -0.00015959666 0.00015298597
-0.29646191 -0.74185199 0.65005201 -0.00024409934 -1 -0.00015133699 0.00014073838
-0.3269234 -0.74185199 0.66613889 0.00019426503 -1 -6.9998081e-05 0.00016431014
-0.3107976 -0.74185199 0.66442281 0.00019426503 -1 -6.9998081e-05 0.00016431014
-0.2977356 -0.74185199 0.66209972 0.00014667562 -1 -5.9096576e-05 0.00014621878
-0.32676119 -0.74185199 0.67551923 0.00024043467 -0.99999988 -5.6906993e-05 0.00018103907
-0.3064386 -0.74185199 0.67561263 0.00019426503 -1 -6.9998081e-05 0.00016431014
-0.27595639 -0.74185199 0.67752129 0.00019426503 -1 -6.9998081e-05 0.00016431014
-0.30891871 -0.74185199 0.69180638 0.00024043467 -0.99999988 -5.6906993e-05 0.00018103907
-0.310662 -0.74185199 0.70545292 2.9123074e-05 -1 -2.6336065e-05 5.5509314e-05
-0.32336366 -0.74185199 0.73357707 1.6940536e-05 -1 -1.8047134e-05 3.8031885e-05
-0.29716781 -0.74185205 0.73480737 0.00013011535 -1 2.845937e-05 4.3708245e-05
-0.34475055 -0.74185199 0.77417749 -0.00025836242 -0.99999988 -0.0001073645 3.1681589e-05
-0.34495971 -0.74185199 0.78702211 -3.1466603e-05 -1 3.3026809e-05 3.3585373e-05
-0.31091139 -0.74185199 0.78116691 -0.00025836242 -0.99999988 -0.0001073645 3.1681589e-05
-0.3415983 -0.74185199 0.79223633 -3.1466603e-05 -1 3.3026809e-05 3.3585373e-05
-0.32169369 -0.74185199 0.81155127 -6.4889711e-05 -1 -7.2923736e-05 8.4931693e-05
-0.36257279 -0.74185199 0.8210417 0.00011670799 -1 4.8088514e-05 7.0952119e-05
-0.3405526 -0.74185199 0.82771248 0.00011670799 -1 4.8088514e-05 7.0952119e-05
-0.31954741 -0.74185199 0.82472628 0.00014881245 -1 -4.639394e-05 0.00012244079
-0.369674 -0.74185193 0.85618252 -0.00012769856 -1 -7.2092473e-05 7.8506142e-05
-0.38151541 -0.74185205 0.89304692 0.00012666818 -1 1.7612363e-05 2.3505214e-05
-0.37898239 -0.74185199 0.9001466 0.00012383136 -1 -1.809411e-05 3.4221895e-05
-0.38044211 -0.74185193 0.92694902 -9.1915448e-05 -1 -5.9443191e-05 3.0218014e-05
-0.38446641 -0.74185199 0.93063128 -9.1915448e-05 -1 -5.9443191e-05 3.0218014e-05
-0.40973479 -0.74185205 0.95829618 0 -1 0 4.4728524e-05
-0.41008961 -0.74185199 0.97567183 0 -1 0 7.9584963e-05
-0.40276119 -0.74185199 0.97467393 5.2763608e-05 -1 -5.827703e-05 5.50285e-05
-0.36496621 -0.74185199 0.97344267 5.2763608e-05 -1 -5.827703e-05 5.50285e-05
-0.4134976 -0.74185199 0.9839986 0 -1 0 7.9584963e-05
-0.072186947 0.060082551 0.2491432 -0.6948393 0.6945622 0.1864984 0.059331872
-0.097544193 0.021471741 0.29888859 -0.009488821 0.89952171 0.43677282 0.040474527
-0.18205094 -0.12248737 0.25641412 -0.94886994 0.045213632 -0.31241241 0.0015518263
-0.073370084 0.057635508 0.26679641 -0.6948393 0.6945622 0.1864984 0.059331872
-0.076442041 0.053014606 0.30196527 -0.6948092 0.69458324 0.18653268 0.059329972
-0.27602595 0.19204034 0.67765099 -0.96400934 0.26497528 -0.021772498 0.060025938
-0.09694764 0.054248706 0.27929148 -0.6948393 0.6945622 0.1864984 0.059331872
-0.25498754 0.035489883 0.39352047 0.96038651 0.27425906 -0.049393743 0.12986417
-0.31954741 0.206916 0.82472628 -0.52930701 0.81041825 -0.2511102 0.0083760442
-0.1585028 0.02145941 0.43139711 -0.06219203 0.86790866 -0.49281502 0.11782726
-0.32429338 0.19352198 0.80976117 -0.52930701 0.81041825 -0.2511102 0.0083760442
-0.19196942 -0.0030026773 0.3849524 0.71519822 0.21825017 -0.6639716 0.14016408
-0.1300929 0.2106813 0.34660199 0.41035488 0.065259218 -0.90958786 0.098281272
-0.1842407 0.02963629 0.42286041 0.26384336 0.72571695 -0.63539106 0.10324425
-0.084756002 0.061789144 0.24981256 -0.6948393 0.6945622 0.1864984 0.059331872
-0.16811045 0.035430904 0.31310698 0.92841989 0.0029473673 0.37152112 0.14220424
-0.1615877 0.17236306 0.21736911 -0.95136768 -0.0063480269 -0.3079924 0.0013171206
-0.16842841 0.038491029 0.41176891 0.19020353 0.69994742 -0.68840128 0.027474642
-0.2292182 0.01372011 0.46521661 0.43243113 0.747262 -0.50458181 0.13254248
-0.34104359 0.19086063 0.8273744 -0.52930701 0.81041825 -0.2511102 0.0083760442
-0.2151816 0.1589562 0.54860872 0.94115907 -0.052196141 0.33390883 0.071799576
-0.21404682 0.046028964 0.44733849 -0.043748312 0.33868045 -0.93988389 0.17893328
-0.18576615 0.20697577 0.28144696 -0.95355397 0.00077202311 -0.30122128 0.00072972447
-0.16404399 -0.24991851 0.46276861 nan nan nan nan
-0.17681666 -0.14387605 0.24300772 -0.95016319 0.030474717 -0.31026003 0.0037868943
-0.2113705 0.043985579 0.3269822 -0.96502084 -0.0030583153 -0.26215541 0.017903566
-0.1984092 0.118861 0.4495855 0.92631847 0.057038203 0.37239864 0.052076198
-0.24794304 -0.28382623 0.46676937 -0.97993433 0.034358066 -0.19633673 0.010229731
-0.24198011 -0.1136179 0.45456061 -0.97712302 0.025974063 -0.21108259 0.0010570937
-0.310662 0.1215957 0.70545292 -0.98565251 0.15326254 0.070709124 0.082749285
-0.27411097 0.12043371 0.54291534 -0.94105059 0.094177864 -0.324891 0.054687835
-0.32389703 0.14176746 0.6252892 -0.9321754 0.11222489 -0.3441723 0.031178175
-0.20947008 0.054069784 0.44795078 0.64253497 -0.024845885 0.76585346 0.17411026
-0.32728669 0.17588121 0.67460418 -0.94553554 0.30461556 0.11476872 0.052661773
-0.26652938 -0.36867568 0.54231727 -0.97763979 0.1415447 -0.15551716 0.011021692
-0.2647987 -0.36289737 0.53999919 -0.95776463 0.15925686 -0.23942482 0.016644713
-0.17413294 -0.1178392 0.23007463 -0.94975644 0.059460662 -0.30728993 0.0025218858
-0.23606336 0.080607802 0.44290408 0.94712901 0.044850171 0.31770274 0.087686457
-0.17050958 0.089765348 0.22823228 -0.94244081 -0.019150328 -0.33382413 0.0017317885
-0.18043967 -0.13208976 0.25042883 -0.94492537 0.069729701 -0.31977144 0.0023330036
-0.18565726 0.023858873 0.29919684 -0.95454663 0.0047337487 -0.29802388 0.014180619
-0.18784282 0.0020575179 0.29185852 -0.94523203 0.037024811 -0.32429221 0.012073835
-0.18848048 -0.013979581 0.29178056 -0.94125026 0.032802787 -0.33611286 0.010200725
-0.17917496 -0.10972739 0.24439842 -0.94460237 0.047775824 -0.32472116 0.0016437286
-0.18640141 -0.087412387 0.27413335 -0.95357668 0.036135171 -0.29897448 0.0011221917
-0.21848358 -0.065647006 0.37502888 -0.9521873 0.090198152 -0.29189661 0.011640723
-0.16778509 0.087060638 0.22615865 -0.94235575 -0.017197995 -0.33417061 0.0016416247
-0.25393927 0.1504024 0.50243771 -0.95410037 0.049807694 -0.29531607 0.041629389
-0.34187371 0.18148002 0.79189301 -0.52930701 0.81041825 -0.2511102 0.0083760442
-0.41284433 0.13466159 0.98409516 -0.97219777 0.18502156 -0.14352201 2.4273362e-07
-0.40782335 0.15314592 0.97392571 -0.97219777 0.18502156 -0.14352201 2.4273362e-07
-0.25239632 0.16707705 0.4987019 -0.95348597 0.0253361 -0.30037081 0.032090187
-0.23774232 0.11130046 0.45051897 0.93197119 0.030987129 0.36120567 0.033166908
-0.23465602 0.10572965 0.44428012 0.92956197 0.037614968 0.36674193 0.04472544
-0.25892448 0.18620132 0.51327765 -0.95217919 0.0072275205 -0.30545461 0.034817021
-0.25937378 0.16289587 0.52418691 -0.95465714 0.024133179 -0.29672757 0.036097068
-0.2176275 0.013041886 0.39199883 0.45320094 0.77674824 -0.43734545 0.14759818
-0.25408328 0.10559189 0.48232895 -0.92044818 -0.015302899 -0.39056486 0.0265595
-0.25969654 0.1683279 0.52444845 -0.95465714 0.024133179 -0.29672757 0.036097068
-0.25878212 0.25320071 0.49730521 -0.92761379 -0.0012949026 -0.37353849 0.013935552
-0.23339464 0.066170812 0.43960482 0.91490936 0.062325992 0.39881867 0.11845158
-0.25327128 0.17223239 0.49994409 -0.95348597 0.0253361 -0.30037081 0.032090187
-0.26883426 -0.38542548 0.53041661 -0.95776463 0.15925686 -0.23942482 0.016644713
-0.24877687 -0.2466664 0.47056645 -0.99540031 0.02682925 -0.091969348 0.0076191141
-0.2196268 -0.0018598494 0.38566005 0.77592289 0.25725791 -0.57598776 0.14382324
-0.25353071 -0.38515931 0.48517027 0.94992441 -0.1611841 0.26769984 0.013088765
-0.24501885 -0.38927242 0.46726936 0.94350004 -0.13778208 0.30136973 0.016511697
-0.26308 -0.35047072 0.53794938 -0.97763979 0.1415447 -0.15551716 0.011021692
-0.2441306 -0.27674675 0.47757733 -0.9819032 0.044474706 -0.18408725 0.0067883907
-0.24154845 -0.20011242 0.45685044 -0.97469544 -0.0038262582 -0.22350419 0.0047418163
-0.26338804 -0.36158276 0.51758009 -0.94992441 0.1611841 -0.26769984 0.013088765
-0.24597117 -0.25813031 0.46001235 -0.99540031 0.02682925 -0.091969348 0.0076191141
-0.26003504 -0.38196245 0.49789211 -0.94992441 0.1611841 -0.26769984 0.013088765
-0.24398501 -0.23750435 0.45841908 -0.995408 0.026843634 -0.091882795 0.0076149749
-0.21746372 -0.0068171211 0.38441727 0.92476231 0.10062604 -0.3670001 0.14726114
-0.26056021 -0.34877741 0.50763047 -0.96864855 0.076522775 -0.23635592 0.0056326073
-0.16293582 0.050180394 0.22235432 -0.94289303 -0.030761782 -0.33167222 0.0023294622
-0.16772714 0.040987406 0.2339599 0.96034896 0.01573416 0.27835658 0.011247726
-0.18721189 0.11029248 0.29151309 -0.9589386 0.012384719 -0.28334346 0.0020988709
-0.1660872 0.045850601 0.22890896 -0.94579381 -0.032176569 -0.32316992 0.0022466523
-0.19218692 0.15140282 0.30195078 -0.95804542 -0.0059553487 -0.28655455 0.00055294059
-0.18772487 0.040016286 0.29567459 -0.95581943 -0.0040487372 -0.29392669 0.011735607
-0.17492355 0.083260283 0.23963717 -0.94678217 -0.014739514 -0.32153749 0.001626974
-0.18356858 0.085153684 0.2716361 -0.95410675 -0.023123067 -0.29857275 0.0068218885
-0.17787194 0.082499437 0.24856013 -0.95227945 -0.016465046 -0.30478311 0.0015671125
-0.16202956 0.15107577 0.21508695 -0.94986731 0.0044543557 -0.31262153 0.0015032241
-0.18207303 0.098991029 0.26519585 -0.95325625 -0.013880822 -0.30184394 0.0014888364
-0.1872322 0.064185604 0.29301876 -0.95902056 -0.010748502 -0.28313237 0.0070932694
-0.18401729 0.20126387 0.27147758 -0.95572436 -0.010934254 -0.29406023 0.00094600045
-0.16311416 0.18004692 0.20178469 -0.95094293 -0.020938972 -0.30865699 0.0019980837
-0.17640588 0.024158929 0.25212321 -0.95836413 -0.0044069854 -0.28551492 0.009460099
-0.1736176 0.10139155 0.23988864 -0.94656682 -0.0053421441 -0.32246345 0.0014769945
-0.17195347 0.10190967 0.23507126 -0.94647634 -0.0055366359 -0.32272574 0.0015445872
-0.1635316 0.07817965 0.21932033 -0.93288201 -0.019006649 -0.35968032 0.0012135367
-0.18968508 0.13138574 0.30168572 -0.9612065 -0.011205064 -0.27560213 0.00063752505
-0.17361677 0.12256419 0.24174315 -0.94672692 -0.0020540901 -0.32203102 0.0017565234
-0.19625035 0.016827943 0.3073734 -0.94816095 0.025977708 -0.31672689 0.014646655
-0.16154248 0.15241364 0.21383095 -0.94861126 0.0040769223 -0.31641772 0.0015432123
-0.18757653 0.14611283 0.29064435 -0.95762616 -0.0032066724 -0.28799629 0.00068139599
-0.19980171 0.093826823 0.33858275 0.95872092 0.047354829 0.28037763 0.014815963
-0.17502089 -0.15034625 0.24131143 -0.96668822 -0.023150928 -0.25490773 0.002170858
-0.18480359 -0.14973196 0.26849693 -0.96183443 -0.002360868 -0.27362189 0.0014990884
-0.18580708 -0.053492863 0.27594945 -0.94650352 0.024403602 -0.32176942 0.0018079826
-0.18397385 -0.038036365 0.27608335 -0.94194502 0.022997141 -0.3349787 0.0018884424
-0.18804468 -0.0072643599 0.28965691 -0.94191897 0.029880157 -0.33450827 0.011367759
-0.18357874 -0.0056739245 0.27210072 -0.94775897 0.025658095 -0.31795391 0.010460192
-0.17713554 0.014304855 0.25532377 -0.95841825 0.01456902 -0.28499517 0.0088590505
-0.19558372 -0.076909117 0.30516011 -0.94937623 0.028609566 -0.3128359 0.001660169
-0.19206069 -0.097818948 0.29404625 -0.94897562 0.035716049 -0.3133204 0.0017950308
-0.2677041 0.15311159 0.54923022 -0.94472587 0.01341218 -0.32758668 0.05361471
-0.30726701 0.18340732 0.66230702 -0.96813726 0.24762286 -0.037323695 0.05305884
-0.22708565 0.042312775 0.42050204 0.71001291 0.41650334 -0.56780869 0.14981851
-0.24102904 -0.29772404 0.47032386 -0.98217088 0.047772042 -0.18181895 0.012799239
-0.25026122 -0.2801339 0.44457224 -0.99342316 0.001994893 -0.1144838 0.017220892
-0.27645689 -0.195078 0.54056281 nan nan nan nan
-0.18510668 0.20083588 0.28156242 -0.95184028 0.0031907661 -0.30657774 0.00079966069
-0.20671721 0.13548572 0.35603845 0.95748281 0.052722376 0.28363177 0.0016297705
-0.18611929 -0.071897499 0.27870068 -0.94699091 0.037390325 -0.31907713 0.0016924302
-0.16944166 0.018421033 0.238986 -0.95895839 0.00577639 -0.28348792 0.0098359641
-0.17623359 0.17885545 0.25352204 -0.95290357 -0.008918263 -0.30314231 0.00085324654
-0.25895178 0.11471334 0.50581276 -0.9501785 0.098672181 -0.29567638 0.044087674
-0.24061497 -0.19935426 0.46144068 -0.97469544 -0.0038262582 -0.22350419 0.0047418163
-0.1635246 0.2199299 0.2003267 0.95835412 0.062842734 0.27858236 0.0015803146
-0.16289261 0.2183354 0.20174135 0.95835412 0.062842734 0.27858236 0.0015803146
-0.16135137 0.13493006 0.20993283 -0.93162596 0.0023137676 -0.36341131 0.0023318115
-0.18435667 0.17067757 0.27805096 -0.94997865 0.0079477914 -0.31221369 0.0007004689
-0.2894316 0.21669985 0.61792332 -0.95234585 0.12951334 -0.27615896 0.034398235
-0.23073038 0.1898106 0.43533778 0.94087708 0.087458804 0.32726347 0.020174906
-0.28928936 0.21976347 0.61673057 -0.96568274 0.10019954 -0.23961811 0.028755773
-0.2062422 -0.10912514 0.34663454 -0.95041597 -0.064865343 -0.3041414 0.00068337686
-0.20114532 0.21663946 0.33411962 -0.94708341 0.03904213 -0.31860432 0.087839499
-0.27997145 0.17963853 0.5810076 -0.91570437 0.080917813 -0.39362133 0.036470704
-0.2892482 0.16540949 0.60016882 -0.93141973 0.11537035 -0.34517655 0.011534003
-0.27310684 0.20768289 0.56096536 0.94137067 0.056376349 0.33263028 0.032378022
-0.25982052 0.18086258 0.52285582 -0.95502836 -0.012430312 -0.29625383 0.035409927
-0.21965159 0.10049374 0.39080596 -0.96861953 0.066304594 -0.23954117 0.041611612
-0.19665679 0.22687113 0.32318503 -0.95401841 0.019074023 -0.29914054 0.091202818
-0.22608286 0.032742828 0.40698332 0.61889666 0.49308011 -0.61142379 0.1722814
-0.30622134 0.17414288 0.65479952 -0.9651711 0.19086966 -0.17892337 0.049153913
-0.17349577 0.20309386 0.25062078 -0.95350593 -0.017147437 -0.30088601 0.00093309244
-0.29875973 0.19871959 0.63096583 -0.93075567 0.24510907 -0.27132162 0.03465749
-0.3034015 0.18447724 0.6659776 -0.96813726 0.24762286 -0.037323695 0.05305884
-0.22984214 0.16688526 0.43376434 0.95264119 0.027919859 0.30281231 0.018338894
-0.17311209 0.17905013 0.2488721 -0.95268059 -0.0080118878 -0.30386758 0.00088263577
-0.22276434 0.23189127 0.41244 -0.97992527 0.057454437 -0.19090697 0.0047944975
-0.17734827 0.11936729 0.25265157 -0.94990295 0.005457609 -0.31249729 0.0013281947
-0.21558441 0.12609087 0.39154184 0.95943809 0.021798437 0.28107554 0.01822871
-0.20627469 0.23749246 0.35054773 -0.95259225 0.020540696 -0.30355558 0.0021159837
-0.27612418 0.19395621 0.5679177 -0.93903798 0.0054172003 -0.3437708 0.034182351
-0.22081567 0.24883232 0.39279523 -0.96125126 0.028231231 -0.27422428 0.0052116266
-0.29694027 0.20208725 0.65205479 -0.93259197 0.26505002 -0.24499145 0.04556616
-0.16630982 0.028304398 0.23079078 -0.94434154 -0.022995528 -0.32816213 0.0024766861
-0.18105151 0.12043899 0.26519167 -0.95353884 0.012922437 -0.30099267 0.0013211158
-0.19847442 0.211742 0.32326788 -0.95767778 0.033063214 -0.28593725 0.091999866
-0.211998 -0.04322302 0.34271681 -0.96146917 0.042598579 -0.27159226 0.0074161673
-0.16943878 0.14430827 0.23418252 -0.94847941 0.019572848 -0.31623343 0.00095178193
-0.18184657 0.082435556 0.26414019 -0.95370317 -0.022155371 -0.29993221 0.0065762778
-0.30016366 0.24022968 0.64932591 -0.96115756 0.22275187 -0.16296561 0.079133287
-0.24336217 0.13198926 0.46474817 -0.92438805 0.060383335 -0.37664372 0.01828772
-0.22092625 0.23731825 0.37286794 -0.96021134 0.025006639 -0.27815267 0.0028870753
-0.2784974 0.13597296 0.58162856 -0.87328696 0.12455024 -0.47101712 0.057305656
-0.31445524 0.13967711 0.65924585 -0.94162697 0.33620682 0.017428592 0.067689858
-0.2026905 0.1218539 0.34609517 0.96144652 0.032129619 0.27310824 0.0013694793
-0.2031932 0.099779293 0.35079414 -0.96129787 0.010980411 -0.2752924 0.0047522769
-0.17974257 0.13376182 0.26116589 -0.94967782 0.01334828 -0.31294373 0.00088410446
-0.40879932 0.13598666 0.95843446 -0.97219777 0.18502156 -0.14352201 2.4273362e-07
-0.24491093 0.14258322 0.47378522 -0.9274354 0.029758791 -0.37279743 0.016646037
-0.2363912 -0.1067361 0.4374221 0.94181985 0.081263945 0.32614642 0.00067037379
-0.18043536 -0.14958754 0.25613546 -0.96668822 -0.023150928 -0.25490773 0.002170858
-0.1668029 -0.20707449 0.2139989 0.98256814 0.046086885 0.18009943 0.0069397795
-0.17534199 -0.1918859 0.2158687 -0.96631801 -0.019540951 -0.25660798 0.0045218267
-0.26194337 0.11885718 0.52068484 -0.94991612 0.133874 -0.28237742 0.048214052
-0.20964421 0.17228648 0.35703808 -0.95495677 -0.017639425 -0.29622012 0.0011069456
-0.17217422 -0.068347447 0.25613004 -0.94928271 0.042284433 -0.31156775 0.0013799986
-0.26677781 0.2251367 0.52758759 -0.95434499 0.021208422 -0.29795271 0.0050299484
-0.23682469 0.095006578 0.44519633 -0.93274325 -0.015465402 -0.36020935 0.045952469
-0.15241288 0.056863762 0.20591767 -0.92148322 -0.03922262 -0.38643262 0.0012708689
-0.26981279 0.12649718 0.54472041 -0.94105059 0.094177864 -0.324891 0.054687835
-0.27745315 0.16574806 0.57412106 -0.91720295 0.080174372 -0.39027011 0.036220957
-0.21677057 -0.10063563 0.37680322 0.9457742 0.077654384 0.31540588 0.00038297771
-0.24147631 -0.18670376 0.44310662 -0.95859897 0.010255933 -0.28457481 0.0015313412
-0.1934555 0.2281407 0.30843052 -0.9578824 0.030557463 -0.28553027 0.088919282
-0.17230831 0.031297714 0.24336846 -0.95825756 -0.0042134365 -0.28587526 0.0088414652
-0.19412872 0.013420492 0.30131555 -0.94747776 0.0265106 -0.31872106 0.012114315
-0.17329454 0.14091156 0.2407576 -0.9481892 0.017962057 -0.31719801 0.00090538472
-0.27024615 0.1298472 0.54687846 -0.94261277 0.072648227 -0.32588857 0.051525608
-0.16270447 0.099881522 0.21171103 -0.92333537 -0.011996238 -0.38380715 0.0012491329
-0.3088809 0.12572567 0.69208044 -0.87718356 0.3706626 0.30521846 0.080158085
-0.19704118 0.24586573 0.33133873 0.95145839 0.059679847 0.30193594 0.12889718
-0.18880117 0.16348594 0.29204708 -0.95392042 -0.00025789571 -0.30005944 0.00056251761
-0.29384851 0.18464689 0.61826009 -0.93203229 0.17143472 -0.31925848 0.034483112
-0.26499602 -0.35929486 0.54781961 -0.97763979 0.1415447 -0.15551716 0.011021692
-0.17624499 0.13060555 0.24850768 -0.94847941 0.019572848 -0.31623343 0.00095178193
-0.17301682 -0.14240198 0.23200287 -0.95016319 0.030474717 -0.31026003 0.0037868943
-0.2175048 -0.073409669 0.3693378 -0.9521873 0.090198152 -0.29189661 0.011640723
-0.23916459 0.25766784 0.49089989 -0.9137854 0.032376043 -0.40490502 0.011365097
-0.19578896 0.080819175 0.32533103 0.9598192 0.018772 0.27999058 0.012179172
-0.20156129 -0.09838856 0.32595268 -0.95301139 0.0051358514 -0.30289075 0.0013637331
-0.22910024 0.13595226 0.44057351 -0.94019753 0.012499398 -0.34040025 0.02241068
-0.29751864 0.20011228 0.62764585 -0.9370209 0.22492771 -0.26720658 0.037319165
-0.29781288 0.16728042 0.66043836 -0.96813351 0.24764368 -0.037285313 0.053058464
-0.27997833 0.13132407 0.58362043 -0.85760629 0.15707925 -0.48973212 0.057931207
-0.25577319 0.23783503 0.51132244 -0.93781322 -0.0020556925 -0.34713429 0.0068975813
-0.32667041 0.13497436 0.66556859 -0.90071571 0.39122751 0.18881795 0.063736588
-0.24143106 0.17014338 0.46490416 0.93605262 0.016811443 0.3514581 0.01807948
-0.19854611 -0.084806427 0.31534734 -0.94816732 0.02864518 -0.31647792 0.0019715873
-0.40661618 0.16124365 0.9761852 -0.97219777 0.18502156 -0.14352201 2.4273362e-07
-0.24440664 -0.39581326 0.45241943 0.89836013 -0.20352411 0.38926476 0.018465521
-0.24531952 -0.29013509 0.47340477 -0.97993433 0.034358066 -0.19633673 0.010229731
-0.23938981 -0.1041877 0.43634939 -0.94181985 -0.081263945 -0.32614642 0.00067037379
-0.24401189 -0.21561207 0.46004096 -0.99341261 0.044363152 -0.10565569 0.0068067103
-0.26629448 -0.39074877 0.48435327 -0.94992441 0.1611841 -0.26769984 0.013088765
-0.18476 0.059657484 0.29462886 -0.95912713 -0.011288949 -0.28275025 0.0085780108
-0.19372433 0.22056027 0.30649793 -0.9577266 0.033199321 -0.28575802 0.079705253
-0.1672159 -0.2069961 0.22205681 -0.96666718 -0.015568269 -0.25556237 0.0060898112
-0.18267433 -0.019567093 0.27300307 -0.95311373 0.051533837 -0.29819205 0.0094585288
-0.17816432 -0.044413682 0.2620866 -0.94925368 0.027186394 -0.31333438 0.0015779601
-0.17723978 -0.055769973 0.26195341 -0.95227957 0.03973626 -0.30262956 0.0013270953
-0.19005959 -0.061708372 0.29125732 -0.94732904 0.020675268 -0.31959394 0.0021356442
-0.30971837 0.15520458 0.64804578 -0.95672733 0.13116133 -0.25974885 0.048625875
-0.22642654 0.19997869 0.42009342 0.96908432 0.019874901 0.24592777 0.0032217794
-0.27426261 0.2371337 0.59315473 -0.95529056 0.063954659 -0.28866881 0.004595757
-0.26448518 -0.38116401 0.51627719 -0.94992441 0.1611841 -0.26769984 0.013088765
-0.15977998 0.15055022 0.20799974 -0.95021117 0.0019944212 -0.31160036 0.0017659139
-0.19358222 -0.037682351 0.31281602 -0.945548 0.057787295 -0.32031175 0.0083668809
-0.23562947 -0.25159895 0.43430424 -0.015683746 0.1511683 0.98838359 0.063508213
-0.25135756 0.25432408 0.4952898 -0.91713762 0.0001991028 -0.3985706 0.0095512792
-0.19532207 0.20963204 0.30865514 -0.95833659 0.027776681 -0.28428757 0.074431092
-0.17910016 0.030398 0.26637176 -0.95090097 -0.011034151 -0.30929843 0.010037984
-0.19850303 0.17853889 0.32206896 -0.96548617 0.034930773 -0.25810128 0.057398193
-0.20287149 -0.10288376 0.33013064 -0.95301205 0.0051366976 -0.30288884 0.0013593382
-0.24298324 0.12006088 0.463779 -0.93429351 -0.0010552076 -0.3565031 0.026645167
-0.22652914 0.11145259 0.42096531 0.9541136 0.037543993 0.29708192 0.029034033
-0.27959597 0.18040599 0.57984829 -0.91569734 0.080927476 -0.39363566 0.036469467
-0.22597165 0.18114035 0.40044051 0.96381569 0.030409299 0.26482934 0.0029079611
-0.16463065 0.12136365 0.2180233 -0.93913239 -0.0032083718 -0.34354043 0.0020757574
-0.18196374 0.23254648 0.2675893 -0.95986682 -0.00045753521 -0.28045601 0.0008351084
-0.22609042 0.20011154 0.41464648 -0.96706045 -0.015560284 -0.25407064 0.0030474789
-0.21203762 0.23605926 0.36520392 -0.95910734 0.024391105 -0.2819896 0.0030729529
-0.24195744 0.061120655 0.43351948 -0.88509578 -0.026488526 -0.46465462 0.12606487
-0.22354631 0.22346932 0.42970362 -0.97172499 0.017880686 -0.23543759 0.0044632149
-0.16427952 0.12166602 0.21708573 -0.93913239 -0.0032083718 -0.34354043 0.0020757574
-0.1661247 0.15366919 0.2272208 -0.95094573 0.0025569943 -0.30934712 0.0011336837
-0.16770791 0.23265021 0.2214867 0.95699549 0.062981784 0.28318375 0.0016609147
-0.16052583 0.16800596 0.21353976 -0.95108873 -0.0065537812 -0.30884838 0.0014914613
-0.18598756 0.15139243 0.28452167 -0.95119715 0.012210272 -0.30834216 0.00063415588
-0.21692643 0.12047234 0.41863933 0.95154458 0.05587098 0.30239284 0.030428698
-0.20978653 0.17345335 0.35678101 -0.95556402 -0.021692734 -0.29398435 0.0011536514
