# .PCD v0.7 - Point Cloud Data file format
VERSION 0.7
FIELDS x y z
SIZE 4 4 4
TYPE F F F
COUNT 1 1 1
WIDTH 1040
HEIGHT 1
VIEWPOINT 0 0 0 1 0 0 0
POINTS 1040
DATA ascii
-0.001505524 -0.1519872 0.27870101
0.0062499791 -0.25501931 0.27778941
-0.01633193 -0.17951509 0.28851289
-0.0208687 -0.1557567 0.29742059
-0.01376753 -0.1692813 0.2871033
0.0058022742 -0.1148426 0.29022789
-0.0081288517 -0.1306442 0.2880331
0.0090198517 -0.18307979 0.2776334
-0.017824041 -0.15430591 0.29140919
-0.0098151118 -0.1740609 0.28247789
-0.0099159181 -0.18078551 0.28470361
-0.0027493089 -0.18935131 0.27941161
-0.01177824 -0.25150731 0.28521299
0.01263002 -0.1773341 0.2797778
-0.008115828 -0.1161877 0.30705449
-0.017655911 -0.1322961 0.30192921
-0.020673141 -0.1882737 0.2970278
-0.022618391 -0.1779024 0.30529249
-0.01978666 -0.1337259 0.3053934
-0.01108371 -0.1167616 0.30410409
-0.0233295 -0.1826065 0.31040329
-0.023755539 -0.1882499 0.31253031
-0.02237762 -0.20402621 0.30068001
-0.02373096 -0.2492909 0.31331131
-0.023916669 -0.1980861 0.306822
-0.02296311 -0.233107 0.3212482
-0.023090109 -0.19154 0.3085925
-0.02394237 -0.18161041 0.31131119
-0.0217744 -0.1818469 0.3142916
-0.021490499 -0.15196881 0.2990936
-0.01113723 -0.1178293 0.3008911
-0.0080411658 -0.111592 0.3140707
-0.02316408 -0.19405919 0.31323051
-0.02301299 -0.20376609 0.3143529
-0.021778559 -0.2123079 0.3043187
-0.0187166 -0.20103361 0.32943639
-0.017887371 -0.2020293 0.33113259
-0.0095413551 -0.1294779 0.3304711
-0.023539649 -0.2207973 0.30410299
-0.02106953 -0.183075 0.32182431
-0.01498746 -0.27300391 0.3350186
-0.0074203499 -0.1325908 0.3329356
-0.02181275 -0.1896373 0.29987121
-0.0084358826 -0.13016731 0.33369541
-0.016978459 -0.2692723 0.33544129
-0.02013088 -0.1903065 0.31790921
-0.02333409 -0.20468929 0.31723869
-0.0121884 -0.25136781 0.33658469
-0.01041331 -0.2255483 0.3377102
-0.0092587024 -0.25485429 0.33898821
0.0174948 -0.1578815 0.33946049
0.0054726899 -0.2451379 0.3438184
0.018716389 -0.2495404 0.344282
0.01532218 -0.24531589 0.3445836
-0.001432277 -0.2178162 0.3435145
-0.0047149882 -0.2090127 0.34117109
0.016515691 -0.239608 0.3435756
-0.000915654 -0.1117351 0.318822
-0.0112215 -0.25086391 0.338027
-0.01370233 -0.27323931 0.33264059
-0.01273903 -0.27478561 0.33492959
-0.0096774399 -0.2248103 0.3388609
-0.021028319 -0.23520871 0.32143381
0.01024047 -0.070567861 0.3136012
-0.022291381 -0.2132834 0.30968171
-0.02177852 -0.2033428 0.31917179
-0.02172254 -0.19848371 0.32226959
-0.02170467 -0.2511307 0.31884539
-0.02209088 -0.178912 0.30998909
-0.023339471 -0.1891412 0.31367999
-0.021892739 -0.1830883 0.3167451
-0.019978371 -0.18317831 0.32592511
-0.01516254 -0.13267399 0.30530769
-0.0072236061 -0.1119279 0.31913239
-0.017659189 -0.18197601 0.32789531
-0.022379469 -0.1817625 0.31530699
-0.02234596 -0.2221159 0.30850399
-0.0079174787 -0.129464 0.33246821
-0.019411471 -0.26600939 0.3094357
0.0050087268 -0.1118575 0.29865691
-0.0067039728 -0.1303543 0.3342914
-0.019833339 -0.1982616 0.32411829
-0.0062621241 -0.1699135 0.34019271
-0.021603679 -0.2052134 0.3064822
-0.02240607 -0.17432509 0.3148616
-0.02328169 -0.19836611 0.31232479
-0.0053773969 -0.1781987 0.3404296
-0.022494361 -0.1903372 0.3181735
-0.02192894 -0.19439121 0.31802571
-0.02057807 -0.1911874 0.30323511
-0.01962137 -0.17760921 0.30481449
-0.023059931 -0.27197641 0.3081696
-0.017648 -0.2267088 0.29500359
-0.019385049 -0.1882707 0.30112609
-0.01083919 -0.1170585 0.30660361
-0.022176741 -0.19037829 0.31358039
-0.022812869 -0.2115927 0.3149623
-0.01053549 -0.116936 0.31062531
-0.020962611 -0.2244273 0.32033911
-0.022732111 -0.27142519 0.3141605
-0.021422761 -0.2346637 0.32020161
-0.0075768381 -0.1303789 0.3339684
-0.020273849 -0.1561785 0.30231741
-0.022308189 -0.15237311 0.3053889
-0.02095094 -0.17824151 0.31797799
-0.02211459 -0.1804149 0.3196561
-0.01759927 -0.20122939 0.33000889
-0.02257487 -0.2254812 0.31692141
-0.020829661 -0.225182 0.3188448
-0.01601531 -0.1798384 0.29177359
-0.01831156 -0.1318153 0.3100023
-0.0211831 -0.13234881 0.3102935
-0.022575339 -0.19279151 0.307147
-0.02246901 -0.25026199 0.30962071
-0.0065592229 -0.088006578 0.31781399
-0.020699071 -0.23073851 0.32028949
-0.01911585 -0.18665791 0.3274667
-0.02048564 -0.1894494 0.32187691
-0.01481357 -0.1915863 0.29357561
-0.02288967 -0.17862099 0.3157061
-0.01319296 -0.1295367 0.29626721
0.0048142672 -0.12876479 0.2859706
-0.017049881 -0.1974747 0.2945447
-0.022961419 -0.15731619 0.30752799
-0.018861249 -0.2736952 0.29794729
-0.007421792 -0.1138684 0.30400991
-0.02240506 -0.22536629 0.31068611
-0.019087911 -0.1709684 0.2986359
0.0058141649 -0.127169 0.28876239
-0.01927286 -0.135764 0.3226991
0.006482258 -0.074274503 0.31140611
-0.01962423 -0.2496658 0.32172909
-0.01084174 -0.22382431 0.33533171
-0.0063188369 -0.1129272 0.31826451
-0.015862171 -0.1481923 0.2954714
-0.018900851 -0.25412011 0.29808381
-0.017423971 -0.2225199 0.29599541
-0.02229975 -0.1984545 0.30116141
-0.019812521 -0.1349597 0.3074657
-0.022332581 -0.26666901 0.30703071
-0.02336688 -0.25699651 0.30373499
-0.01691963 -0.19929869 0.33152461
-0.01530147 -0.1880282 0.33296779
-0.015800649 -0.1700504 0.2922872
-0.01015092 -0.1300256 0.29228091
-0.01204886 -0.2264764 0.2899099
-0.01218177 -0.1715427 0.28801629
-0.01452048 -0.15515929 0.29111201
-0.01278076 -0.25032461 0.28824881
-0.01117197 -0.1795231 0.28674251
-0.0025861859 -0.128886 0.28671199
-0.0097722299 -0.1165336 0.30620971
-0.0044960789 -0.1574071 0.28331161
0.0027289391 -0.1126263 0.29392189
0.001782089 -0.1885782 0.28202271
-0.0097079799 -0.15576389 0.28512281
-0.001487046 -0.15158761 0.2822614
-0.003321663 -0.18859489 0.28266579
-0.0093719363 -0.1736384 0.28631809
-0.005420431 -0.2638045 0.28350341
-0.016761979 -0.1794185 0.29253009
-0.00028921661 -0.1575516 0.2817665
0.0088962764 -0.18133239 0.2797451
-0.01986598 -0.1797777 0.2992399
0.0052680369 -0.1867324 0.28077161
-0.01706416 -0.1539796 0.2976788
0.00193873 -0.2472859 0.28019509
0.01225217 -0.1963571 0.28038651
0.0084443633 -0.19948 0.280911
0.01476876 -0.1895707 0.28128311
-0.0065845619 -0.1690021 0.28475499
0.01105574 -0.1290172 0.285061
0.01214798 -0.1732882 0.28130981
0.0047606081 -0.1767817 0.280503
0.01302075 -0.115966 0.29127279
0.0073869149 -0.25182351 0.28074941
0.00091683859 -0.17112979 0.28049341
0.00063197309 -0.1879463 0.28281239
0.0001012459 -0.193398 0.28181079
-0.002376437 -0.16294029 0.28260961
-0.001414821 -0.2572439 0.2816703
-0.01423285 -0.27040929 0.29199409
0.0001563281 -0.1789923 0.28657731
0.0092346221 -0.24720889 0.2805275
0.01136145 -0.2184456 0.27939159
0.01074721 -0.2438565 0.28117609
0.01953657 -0.1823781 0.2822755
0.01194923 -0.1147004 0.2935378
-0.006882038 -0.14735299 0.28497821
-0.01247933 -0.18704399 0.289033
0.015717691 -0.1873524 0.28146651
0.0053764428 -0.16006801 0.27992049
-0.015939919 -0.2739276 0.29335421
0.0043555871 -0.1772818 0.28076941
-0.005920216 -0.1862901 0.2839922
-0.01951338 -0.1941184 0.29699531
-0.019451071 -0.2432428 0.29615089
-0.01776398 -0.21503679 0.29186651
0.003064841 -0.27062169 0.2820873
0.0089641958 -0.1742029 0.27939469
-0.01977263 -0.27382329 0.30131099
0.01573154 -0.1774492 0.2795791
0.028862709 -0.129205 0.28932971
0.0108553 -0.2111863 0.28096509
0.02708222 -0.18723559 0.28473911
-0.01055562 -0.1900738 0.28714859
0.0089694597 -0.1813782 0.28037441
-0.00201682 -0.1104128 0.30396131
0.0059895851 -0.2161793 0.2804223
0.01764857 -0.1308293 0.28687671
0.032457691 -0.1277701 0.30195409
0.02551529 -0.1976577 0.28370559
-0.0001439974 -0.26764271 0.2829397
0.01134455 -0.1287954 0.2840831
-0.0032114389 -0.1114395 0.29905999
0.01215976 -0.1101707 0.32657161
0.0083954036 -0.082009777 0.31093079
0.0054845209 -0.081795029 0.30964181
0.0012447831 -0.1069262 0.29731989
0.01264024 -0.1072889 0.32826611
0.02656066 -0.1293665 0.29675299
0.01329538 -0.1139441 0.29220459
0.0067664678 -0.2215739 0.28147051
0.0066010361 -0.1826337 0.2804493
0.02464637 -0.18412051 0.28302529
0.003595084 -0.1867236 0.2788769
0.0134238 -0.1886677 0.28152409
0.01164049 -0.25384149 0.28103149
0.029922221 -0.1802443 0.2880536
0.024164321 -0.17807131 0.2856763
0.045783009 -0.1890088 0.31631759
0.027235329 -0.08715371 0.3071754
0.033365991 -0.2472133 0.29375389
-0.0023880899 -0.1121948 0.29696819
0.037250031 -0.12944999 0.316264
0.035873849 -0.1332141 0.29598999
0.02350435 -0.086796239 0.29879251
0.035339389 -0.15322369 0.2939823
0.018860331 -0.1078349 0.30392751
0.037959341 -0.137251 0.30258831
0.03706855 -0.15491091 0.29541209
0.033693161 -0.1622671 0.33186889
0.037152201 -0.1887635 0.3229185
0.02705553 -0.2693803 0.2897844
0.03912181 -0.2313673 0.3096545
0.036263179 -0.23841929 0.30127341
0.041147169 -0.2001102 0.32678199
0.035767701 -0.1823933 0.33247909
0.036251809 -0.1510786 0.33348411
0.03598386 -0.27269799 0.3344965
0.037035469 -0.14944381 0.33481371
0.034633439 -0.2724092 0.33304289
0.022964541 -0.1300841 0.3369242
0.0304676 -0.13016529 0.33216789
0.022057701 -0.12856451 0.33753911
0.024172381 -0.1155306 0.32346731
0.021932989 -0.1149111 0.32945001
0.02696453 -0.1146988 0.31494629
0.02639875 -0.1140625 0.3152957
0.041730572 -0.2250967 0.31933159
0.02241388 -0.1177521 0.32960591
0.023542451 -0.1154388 0.32589871
0.037785251 -0.1388181 0.3038418
0.0085898638 -0.08089295 0.3119449
-0.035714999 -0.2676824 0.2504212
0.002265736 -0.1081707 0.29954499
0.039472219 -0.13022619 0.3148191
0.01469615 -0.1181453 0.2947118
0.022237759 -0.086998947 0.30023649
0.02578247 -0.08835049 0.30984151
0.0148629 -0.088950522 0.2969532
0.02273057 -0.25676069 0.2857053
0.022858201 -0.2042269 0.28573951
0.020438511 -0.086599983 0.3076373
0.0054772571 -0.088884741 0.29681
0.0125037 -0.19641601 0.28128779
0.02740285 -0.1323368 0.29331341
0.029343329 -0.1299808 0.30382189
0.0118408 -0.1181627 0.2934494
0.01472634 -0.1949234 0.28293991
0.0049318019 -0.19888879 0.2818208
-0.0018567221 -0.1299843 0.28613621
-0.01027998 -0.1795084 0.28840461
-0.01375193 -0.25593951 0.2899361
0.0082964711 -0.062027279 0.31458181
0.025943009 -0.2051827 0.2866815
0.01012897 -0.089315698 0.29976839
-0.001488883 -0.1631508 0.2846165
0.001554374 -0.1960784 0.28387019
-0.00370596 -0.2186497 0.28380099
-0.01265232 -0.21776471 0.2879014
0.01223485 -0.25858909 0.2809875
0.01284778 -0.13092799 0.28460911
-0.0089027658 -0.1300772 0.28967711
-0.0131953 -0.12826981 0.2942737
-0.01147988 -0.1134562 0.30880591
-0.0189579 -0.1308129 0.3053498
-0.02023698 -0.1289442 0.30674589
-0.021435579 -0.1886331 0.30017859
-0.0092346892 -0.1139512 0.30288529
-0.02347916 -0.1897445 0.31182849
-0.022528891 -0.1932525 0.32220361
-0.024731349 -0.1323325 0.31417429
-0.0093511622 -0.1105519 0.31786251
-0.023846099 -0.1721666 0.30447531
-0.02458849 -0.1911851 0.30942169
-0.0065611228 -0.084487014 0.3079724
-0.01781569 -0.1266349 0.30701199
-0.01110476 -0.1153975 0.2999146
-0.0082660541 -0.1092342 0.31305689
-0.0054116319 -0.109241 0.3224377
-0.0038238729 -0.1248126 0.33441481
0.0026359691 -0.1235775 0.33741009
0.01249438 -0.1103851 0.3325316
0.0136048 -0.086130209 0.32988521
0.01791597 -0.25030309 0.3434408
0.03103685 -0.12780041 0.33061391
0.025563801 -0.1284219 0.33513299
0.01239774 -0.2357794 0.3410511
0.00058539212 -0.1133261 0.3296845
0.01115922 -0.082079127 0.32480589
0.0097156763 -0.1262877 0.3406342
0.0024967189 -0.1004123 0.32925469
0.033586081 -0.27356839 0.3333042
0.018346339 -0.2425333 0.34410349
0.01264702 -0.26679641 0.34560639
0.0090062618 -0.1274938 0.34083289
0.02699988 -0.130024 0.3351827
0.01454654 -0.2452503 0.3445918
0.01906519 -0.1540682 0.34424391
0.019009581 -0.1579468 0.34450409
0.0005197525 -0.1013325 0.3261767
0.015926961 -0.1560867 0.3448576
-0.00413239 -0.1621173 0.3443583
-0.0030286009 -0.2186321 0.3440094
0.01344873 -0.1115588 0.3313444
0.00268662 -0.129628 0.3414568
-0.007691205 -0.1308419 0.33685181
-0.017033471 -0.15492021 0.33266419
-0.0074657202 -0.129934 0.332757
-0.01657458 -0.1920706 0.33426449
-0.01669817 -0.1872855 0.3333407
-0.01457854 -0.19463331 0.33491531
-0.0095278015 -0.1286861 0.3321301
-0.01778111 -0.201359 0.33057591
-0.023067821 -0.2037373 0.31935591
-0.015710101 -0.1626568 0.3334294
-0.01723991 -0.19977839 0.3312017
-0.02018261 -0.1984608 0.32327029
-0.021698499 -0.1986907 0.32341871
0.00020267069 -0.1679721 0.34496859
-0.024613841 -0.181307 0.31483999
-0.02114859 -0.2025146 0.3302629
0.0035974679 -0.2119478 0.34487119
-0.022796899 -0.18823209 0.31332001
-0.01948902 -0.18180899 0.32855019
0.028160259 -0.1276335 0.33057609
0.0030808151 -0.2336183 0.34508461
-0.0119203 -0.2242474 0.3393169
-0.0055449312 -0.1855545 0.34165961
-0.02495116 -0.1649828 0.31731379
0.01509032 -0.067948252 0.3164174
-0.02076024 -0.1831302 0.326251
-0.02424678 -0.1821392 0.31617841
-0.025178449 -0.19771931 0.31156719
-0.023606781 -0.2068672 0.30865541
-0.02396268 -0.19600239 0.30810151
-0.02232324 -0.1877265 0.32224381
-0.023693079 -0.1903799 0.31344679
-0.0099788308 -0.2454344 0.3394846
-0.023989361 -0.1569376 0.3059518
-0.01351336 -0.2259519 0.3374545
-0.02388561 -0.27173331 0.31403431
-0.02419132 -0.2299908 0.30796701
-0.02186352 -0.25898191 0.32531199
-0.02307771 -0.22854529 0.30436701
0.02646363 -0.1289396 0.33769161
-0.00098568201 -0.1096203 0.32515669
-0.019528929 -0.13110439 0.30759051
-0.02374173 -0.2020373 0.30190471
-0.02163925 -0.18730099 0.30189419
-0.022851819 -0.1738776 0.29936391
-0.02314274 -0.1552159 0.30304661
-0.02507326 -0.165345 0.30503169
-0.02456543 -0.2710042 0.30749869
-0.020254269 -0.27105409 0.2989625
-0.01281795 -0.1167905 0.3053171
-0.01233107 -0.1157375 0.3095949
-0.02234867 -0.1518195 0.30509549
-0.019443659 -0.1753173 0.29479009
-0.01630977 -0.1708357 0.2943452
-0.016981989 -0.1799946 0.2934157
-0.021024439 -0.1983512 0.29564321
-0.01429506 -0.1289483 0.2945196
-0.0156962 -0.1560286 0.29342991
-0.01312971 -0.17138369 0.28798309
-0.02220409 -0.2698912 0.30400601
0.0073997192 -0.17766429 0.285386
-0.001110062 -0.1520444 0.2810573
-0.01301219 -0.2431547 0.28824121
-0.0082018375 -0.1105619 0.30220261
-0.0140496 -0.17512371 0.28783861
-0.01059705 -0.12953299 0.29056531
-0.02481824 -0.17322449 0.31850451
-0.015778109 -0.1609749 0.28752029
-0.01160122 -0.1592201 0.2910544
-0.023939131 -0.1879532 0.3121767
0.001256041 -0.1130666 0.29441181
0.00251776 -0.2553933 0.28275591
0.0012873861 -0.1669334 0.27957761
-0.01174349 -0.25616309 0.28798959
-0.023875359 -0.18952809 0.30952531
-0.023477631 -0.19806281 0.30135229
-0.0125498 -0.1789289 0.28709379
-0.019009519 -0.1698442 0.29335979
-0.021341899 -0.1886849 0.29807329
-0.01161674 -0.1893781 0.28610739
-0.018480141 -0.1985672 0.29133859
-0.024164289 -0.24512599 0.31358331
-0.01893793 -0.19103239 0.29405069
0.00095908338 -0.1785892 0.2825999
0.00438711 -0.18651851 0.2763868
-0.0090224147 -0.1823677 0.28372371
-0.01257873 -0.2265112 0.2899456
-0.0060632299 -0.1575359 0.28406939
-0.0227481 -0.17766359 0.29635239
-0.01020268 -0.1739081 0.28545201
-0.0041309888 -0.16148961 0.2818245
0.019937981 -0.1549122 0.28484991
0.0059579611 -0.1831679 0.28198031
-0.0091813495 -0.08762151 0.30884501
-0.01495817 -0.15775231 0.28757551
-0.003650367 -0.12946901 0.28796089
-0.01228705 -0.25122169 0.28862599
-0.0052946061 -0.1306892 0.2870678
-0.0235557 -0.19610409 0.3040556
-0.01719987 -0.19445349 0.29288051
-0.02324255 -0.1877187 0.32057369
-0.02342427 -0.1717815 0.30708429
0.0090080798 -0.18996809 0.28040469
-0.020402459 -0.1819199 0.29477319
-0.02044481 -0.25846499 0.29827979
-8.7797642e-05 -0.1710591 0.27992639
-0.003402859 -0.18825831 0.28105241
0.0031664369 -0.2447428 0.27753711
-0.0083988607 -0.1973051 0.28454211
-0.006948397 -0.18605471 0.28297019
0.0032091141 -0.1873329 0.28193089
0.0095051229 -0.2471614 0.28163451
0.007761091 -0.19898251 0.2814343
-0.01503825 -0.2172596 0.28970769
-0.0068255658 -0.1474764 0.28508341
-0.00024008749 -0.24168929 0.2800796
9.3445182e-05 -0.2193165 0.2812115
0.01450917 -0.1932504 0.28114709
-0.0041401982 -0.26021311 0.27878919
-0.0043302481 -0.2712875 0.28324419
0.0051615089 -0.1141929 0.29230669
0.0072538848 -0.2163008 0.28115201
0.00086511672 -0.2551499 0.27865961
0.020623591 -0.1083313 0.30328271
-0.01307666 -0.16045 0.2955218
0.01307164 -0.19286869 0.27672821
0.031134401 -0.26468199 0.29002401
0.01026124 -0.2193855 0.28200659
0.01930609 -0.1331162 0.34671369
0.036102831 -0.1358293 0.2991071
0.03521746 -0.1352447 0.29605979
0.01847863 -0.1093152 0.32500079
0.04139927 -0.2288167 0.30980751
0.016095759 -0.1247811 0.3344692
0.02722198 -0.1229201 0.2984345
0.0061895251 -0.083238557 0.31115511
0.02390823 -0.1066923 0.30379969
0.037710428 -0.1375922 0.30276141
0.035293099 -0.242808 0.29880479
0.02710858 -0.1136486 0.3153455
0.01274055 -0.08654736 0.3066062
0.018970281 -0.12517869 0.29279539
0.039289441 -0.1375391 0.3020719
0.037102312 -0.1304729 0.31682289
0.028696161 -0.1312611 0.33263859
0.03301182 -0.15521351 0.33229229
0.02028415 -0.088762961 0.32599011
0.02001025 -0.1103493 0.31463689
0.0079493821 -0.083663881 0.3178775
0.033165399 -0.1645665 0.33116931
0.032379478 -0.1539209 0.33416
0.037016392 -0.1332054 0.31537539
0.01184718 -0.067942493 0.31791979
0.00072499359 -0.068058006 0.306301
-2.4564561e-05 -0.18897191 0.28379679
-0.0022003909 -0.2128607 0.28238949
0.01414166 -0.1896721 0.28085011
-0.01222441 -0.1726429 0.28839439
-0.0095814094 -0.17520081 0.2874037
-0.0074062161 -0.1912664 0.28307471
-0.0019846151 -0.1517227 0.2807512
-0.01155608 -0.17932419 0.28640211
0.01252741 -0.1171919 0.29314011
0.01291984 -0.1161175 0.29413971
-0.015710561 -0.12804841 0.29559791
0.01183477 -0.091561601 0.2977877
-0.0032809081 -0.1109811 0.30335659
0.026842879 -0.12882569 0.29556811
0.01027372 -0.24958269 0.28270879
0.0089276284 -0.1997263 0.28165889
0.0097374618 -0.19070411 0.28167039
0.010261 -0.2213608 0.28179619
0.01222664 -0.24557041 0.28307101
0.01163401 -0.1852254 0.28368959
0.0074045211 -0.25316599 0.28303301
0.0088936836 -0.2119253 0.2831814
0.007007062 -0.2150993 0.28156471
0.003095075 -0.1143254 0.29547459
-0.0021047289 -0.1305643 0.28798121
0.007540077 -0.083284251 0.31240061
-0.0092847794 -0.1140886 0.31177089
-0.002696946 -0.1913234 0.2841773
-0.0099674175 -0.181587 0.28934979
-0.01438481 -0.1975773 0.29228711
-0.023699019 -0.1510995 0.30556509
-0.01661058 -0.1952897 0.29423401
-0.0065106452 -0.19227961 0.28608659
-0.001584142 -0.15173811 0.2813068
0.0028727199 -0.1913961 0.283434
-0.01342776 -0.1708 0.2880097
-0.018621121 -0.1774985 0.29307169
-0.01304898 -0.1995974 0.28929359
-0.01770201 -0.1715095 0.2952731
-0.02252719 -0.1970821 0.30572799
-0.024811091 -0.196481 0.30224419
-0.02326563 -0.18611699 0.30385479
-0.022572789 -0.19669069 0.2963765
-0.01675573 -0.2002821 0.29393649
-0.0031665559 -0.1552543 0.28154331
-0.024866549 -0.1867016 0.31398359
-0.019915489 -0.1906338 0.30028641
-0.018333441 -0.2179555 0.29501581
-0.001331508 -0.21418311 0.28362811
-0.01070431 -0.2161276 0.28872901
-0.01351792 -0.24949519 0.28904861
-0.01775666 -0.1925533 0.29591271
-0.016150299 -0.22080959 0.29441261
-0.023910221 -0.1544928 0.3029657
-0.01100104 -0.21244951 0.28847799
0.00084735447 -0.24188229 0.28109911
-0.02518585 -0.1641922 0.30562109
-0.0092454106 -0.1753549 0.28701389
-0.01874353 -0.18382619 0.29776901
-0.0053284019 -0.1867152 0.28892431
-0.02273709 -0.2416026 0.2985844
0.00026103851 -0.1671547 0.2817874
-0.01346265 -0.22515599 0.2892749
-0.01941457 -0.22745921 0.29676181
-0.0047197938 -0.26604161 0.28518111
-0.0201481 -0.1532658 0.28946939
-0.0036611559 -0.17305809 0.2802951
-0.0032875091 -0.15950359 0.2857469
0.0057011838 -0.1609588 0.28118771
-0.017009711 -0.1673006 0.2919201
-0.02436888 -0.1711705 0.30701751
0.0057647531 -0.080933683 0.31789801
-0.009523809 -0.26977989 0.28589201
-0.01542667 -0.27209729 0.2924253
-0.01896083 -0.17323691 0.29617491
-0.01021692 -0.25740391 0.28964829
0.001472458 -0.17314909 0.28303331
-0.019638309 -0.2594412 0.29992881
-0.01127447 -0.1662996 0.29367441
-0.0066094398 -0.16908941 0.28467211
-0.016095251 -0.15390339 0.29098329
0.00019752979 -0.2598016 0.2848953
0.0047017629 -0.079620004 0.31238869
-0.0099546909 -0.1301634 0.29207999
-0.0090790242 -0.1573047 0.2869021
-0.01532832 -0.164854 0.2937555
-0.007411465 -0.089604966 0.31161991
-0.0124733 -0.1604193 0.29059511
-0.002110586 -0.17378239 0.2847887
0.0063167359 -0.1158401 0.294193
-0.01395392 -0.1161978 0.30634919
-0.0033676331 -0.089058489 0.30305561
-0.0072198361 -0.1119998 0.3040337
0.0043198471 -0.088647962 0.2973173
-0.02042909 -0.13046969 0.3092474
-0.0040519829 -0.27113849 0.28392011
0.005656153 -0.082266167 0.31071141
-0.0073074098 -0.17666011 0.28339839
-0.0089640617 -0.085949361 0.3122628
-0.02565378 -0.20100769 0.30688769
-0.01661204 -0.2423934 0.29489061
-0.01829624 -0.22722159 0.29696229
-0.01324427 -0.24243809 0.28849861
-0.02039418 -0.26857659 0.30016029
-0.02553457 -0.2686545 0.30788711
0.0285632 -0.25201899 0.29037639
-0.02007753 -0.1706347 0.3025282
-0.006543532 -0.1040113 0.31507131
-0.001047745 -0.086134963 0.30191699
-0.00085990131 -0.08908163 0.29826969
-0.022149369 -0.18766139 0.3220737
-0.02466473 -0.18086369 0.31683749
-0.023504021 -0.23213629 0.32237399
-0.024289271 -0.2485107 0.31861189
-0.02288408 -0.2470699 0.30988771
-0.0097362474 -0.1107322 0.3198466
-0.01622479 -0.1922106 0.335163
-0.016636061 -0.26933309 0.33829349
-0.024212491 -0.1940963 0.32198459
-0.023381861 -0.17384151 0.3195338
-0.01126884 -0.1670361 0.3412205
-0.0090198964 -0.1304393 0.33788961
-0.01275084 -0.2492262 0.33900401
-0.01736765 -0.26878619 0.33495411
-0.0116278 -0.1283107 0.33312121
-0.0076464638 -0.18290649 0.3436549
-0.01787447 -0.132166 0.304346
-0.022452241 -0.1981179 0.32287771
-0.01137231 -0.1118623 0.31041509
-0.0218728 -0.1825368 0.32622001
-0.0033447 -0.19426879 0.3434158
-0.01502214 -0.15483619 0.3331143
-0.0214194 -0.1347232 0.32273641
-0.01072473 -0.2453126 0.34048381
0.001147255 -0.229709 0.34689531
0.002805406 -0.1304605 0.3416627
-0.02471384 -0.24169309 0.31646329
-0.016802499 -0.20294879 0.3343206
-0.02195308 -0.2614457 0.30536789
-0.0081306994 -0.17651799 0.3418918
-0.0047791 -0.1941828 0.3432233
0.0035031701 -0.078786351 0.31264269
-0.01867534 -0.19155391 0.33294359
-0.0090462118 -0.20644329 0.34121421
-0.01791203 -0.159646 0.33192289
-0.0046115001 -0.20103291 0.34402499
-0.0094213113 -0.12994909 0.33397511
0.0099037681 -0.1132587 0.33646041
-0.02365585 -0.20343921 0.31939161
-0.0230757 -0.1798901 0.3225933
-0.01431078 -0.27052811 0.34526509
-0.004147545 -0.1089089 0.32037219
-0.006137989 -0.1031252 0.3192752
0.004346929 -0.087286003 0.33203551
-0.01157174 -0.1536866 0.33768639
-2.2493299e-05 -0.088953458 0.3275646
0.0095633939 -0.1273732 0.34232521
0.01342849 -0.1111207 0.3345679
0.02217944 -0.1311506 0.3324787
0.016223609 -0.2505835 0.3442477
0.016976841 -0.2420083 0.3443827
0.036040042 -0.2033463 0.3329483
0.01925802 -0.2155468 0.34125939
0.035973851 -0.27297819 0.33127159
0.035946339 -0.15013079 0.3371692
0.043060251 -0.26464641 0.29842699
0.03645486 -0.22349919 0.3371062
0.039817352 -0.17775659 0.33488911
-0.00100553 -0.1019089 0.32149959
-0.016664511 -0.13499901 0.32857591
0.01371695 -0.1096016 0.3350026
-0.02368141 -0.212905 0.31558001
-0.01322396 -0.2366077 0.31876019
0.0096232742 -0.1242744 0.34655651
-0.01474006 -0.1922719 0.33832151
0.036917262 -0.2034598 0.33051431
0.035749901 -0.1898564 0.33223239
-0.016048269 -0.2571516 0.32813641
0.025421049 -0.1457075 0.29797041
0.018373881 -0.1123335 0.2978532
0.01801555 -0.1350119 0.3169713
0.031204339 -0.1583896 0.31535771
0.02993721 -0.2358766 0.31114689
0.01472077 -0.24082831 0.3411971
0.01198331 -0.25235611 0.3401961
-0.003040791 -0.26825619 0.33840629
0.018099351 -0.2424618 0.34212521
0.025703819 -0.27369741 0.3350237
0.03413019 -0.2723701 0.3319492
0.03490926 -0.22201741 0.32913011
-0.0040758699 -0.1090561 0.3211728
0.029997811 -0.12785821 0.32917881
0.033791151 -0.1507708 0.3318994
0.036433831 -0.15191489 0.3316592
0.03615129 -0.12956759 0.31431019
-0.0098989606 -0.12671959 0.3259252
0.020721899 -0.27025571 0.34238979
0.01138407 -0.099990919 0.3134512
0.031752478 -0.1222659 0.3099066
0.01141884 -0.080840357 0.31210509
0.0041529541 -0.077075377 0.3133868
0.032768112 -0.1815649 0.33069369
-0.0086638629 -0.091133177 0.3101618
0.03464241 -0.25308481 0.3279669
0.01537383 -0.26778999 0.34197709
0.038824681 -0.2372636 0.3178052
0.032955199 -0.22500481 0.3301881
0.02451006 -0.12745769 0.33635539
0.0226945 -0.12987711 0.33112341
0.038285479 -0.1594187 0.32729
0.038860809 -0.21035901 0.32046601
0.036682941 -0.2075128 0.3277519
0.0420934 -0.2471216 0.3158924
0.007594883 -0.12744939 0.33733499
0.015731189 -0.24890231 0.3455995
0.0056780581 -0.2513662 0.3428964
0.01664714 -0.15522879 0.3435961
0.027657481 -0.1290734 0.32917181
0.032896429 -0.2038013 0.3301743
0.0042908038 -0.1722381 0.34272769
0.038065959 -0.1687326 0.32149571
0.0027671901 -0.068352982 0.31110939
0.01623024 -0.23934691 0.34614271
0.016377941 -0.22077291 0.3431952
0.037372161 -0.1790591 0.32775021
0.033726029 -0.1795346 0.32777399
-0.005165197 -0.1062329 0.32982129
-0.0137516 -0.25164691 0.3399902
-0.0023493769 -0.22741251 0.34641901
-0.01389849 -0.1558874 0.33575779
-0.01533955 -0.2196503 0.33997071
-0.0039375569 -0.1092065 0.32443249
-0.01483512 -0.248345 0.33900309
-0.0062118471 -0.18956169 0.34474409
-0.0052998662 -0.12506209 0.34089229
0.005989105 -0.060222879 0.3165175
-0.017374489 -0.26939121 0.33517379
-0.0115023 -0.1075474 0.32042959
-0.01726946 -0.1722707 0.33166349
-0.02167544 -0.249184 0.31005719
-0.024700429 -0.2043726 0.3092891
-0.022944629 -0.233123 0.3205792
-0.02204233 -0.1882143 0.3222138
-0.02188717 -0.1969737 0.3243959
-0.016464589 -0.1918996 0.3353034
-0.0076050758 -0.18190511 0.34234601
-0.023057999 -0.1377559 0.30970439
-0.01327433 -0.1614341 0.34327209
0.0041052098 -0.070713282 0.31642169
0.01558493 -0.081184283 0.3225413
0.001455307 -0.1218407 0.3354243
0.01861256 -0.24116039 0.3349829
-0.01411507 -0.17690019 0.33071449
-0.02366275 -0.26134601 0.3076379
-0.0247328 -0.1716745 0.31920341
-0.01982424 -0.1293292 0.30547541
-0.006001174 -0.2115594 0.34701359
-0.0097126355 -0.12779041 0.3339794
0.007558018 -0.069295093 0.3192808
-0.023243381 -0.1807157 0.3155283
0.0060445671 -0.080382429 0.307311
-0.02018553 -0.24659041 0.32249081
-0.0089052543 -0.1516239 0.28310871
-0.0060600038 -0.1084 0.31190461
-0.02709287 -0.15877379 0.30414301
-0.02150451 -0.1582301 0.29962069
-0.023347231 -0.17003579 0.30611861
-0.017127899 -0.17552841 0.2951754
-0.023852469 -0.15553971 0.3022477
-0.0091136396 -0.1103447 0.31838661
-0.01746461 -0.1253597 0.30693129
-0.00058583921 -0.1569103 0.28164491
-0.01203728 -0.1153486 0.30481279
-0.021584081 -0.150933 0.30449679
-0.01236197 -0.1141214 0.30853701
-0.018105449 -0.1554351 0.2984933
0.0067893858 -0.065508492 0.311663
-0.0084089339 -0.1288154 0.28988299
-0.022753701 -0.1323467 0.30534649
-0.01413426 -0.1239555 0.31293419
0.0091572404 -0.1572261 0.28197029
0.01249355 -0.046298292 0.31445071
-0.0151943 -0.16844749 0.29048651
-0.001382947 -0.1143521 0.29507911
-0.0075633531 -0.087638028 0.3094559
-0.020326819 -0.1966794 0.29518399
-0.02109595 -0.12841851 0.30607989
-0.01039726 -0.1277436 0.28966391
-0.0084575117 -0.1145772 0.30162001
-0.01247963 -0.128866 0.294678
-0.02233569 -0.2117033 0.30975571
-0.018368781 -0.1683602 0.31853431
0.005200028 -0.081229553 0.3092415
-0.0091989636 -0.1187814 0.29931691
-0.022817159 -0.2408234 0.30816439
0.007802248 -0.049951591 0.31511199
-0.025746349 -0.1851192 0.31013891
-0.0091940761 -0.1104389 0.3169252
0.025532721 -0.1191496 0.2939263
-0.0097001642 -0.1735961 0.28886199
-0.0064296871 -0.27405211 0.28594959
-0.00060637301 -0.27487171 0.28383449
0.0088964999 -0.24738289 0.2810452
0.0070405449 -0.21177121 0.2818529
0.020856859 -0.25167641 0.28565311
-0.008462429 -0.1898189 0.28705251
0.02203247 -0.1077354 0.30098569
0.00992015 -0.2180088 0.2803933
0.038241681 -0.23984361 0.29819971
0.0032913829 -0.25201339 0.2814998
-0.0099737644 -0.15979689 0.29153189
-0.0074518318 -0.1089905 0.30214861
-0.0067729349 -0.1132109 0.30314621
0.004185528 -0.1014937 0.29861951
0.019935699 -0.1230435 0.3014724
0.01516163 -0.1075472 0.32736129
-0.0058561559 -0.1380686 0.28702959
-0.0037769079 -0.1266527 0.2939586
-0.01039425 -0.13713109 0.28874129
-0.007450908 -0.1557947 0.28726739
0.03061467 -0.1310433 0.32143921
0.01960725 -0.1391042 0.3395077
0.01919383 -0.2330447 0.33401349
0.024268949 -0.2438767 0.32821661
0.032182898 -0.2344806 0.311019
-0.002010077 -0.26454079 0.28675291
0.0081789196 -0.089365117 0.3291156
0.030639591 -0.15374731 0.33241969
0.03107366 -0.2762236 0.33326921
0.030903829 -0.22954351 0.32806861
0.036731049 -0.13715351 0.3023583
0.035140809 -0.13118219 0.3171967
0.037340332 -0.1331348 0.3152037
0.02800921 -0.113591 0.31387669
0.02883305 -0.25800091 0.32691711
0.034991499 -0.12919229 0.31400621
0.037656751 -0.1370357 0.30518201
0.034737408 -0.156609 0.29535449
0.032344669 -0.1942357 0.33167109
0.0096717766 -0.082405843 0.31623411
0.003584594 -0.083616003 0.31535131
0.02937964 -0.13696609 0.30080289
0.019026609 -0.1103756 0.32237259
0.0062249899 -0.2215931 0.28190941
0.02127713 -0.1796674 0.28757349
0.029443029 -0.1282042 0.2951529
-0.0068626548 -0.1115041 0.306081
0.022515571 -0.20085379 0.28504151
0.004457965 -0.1836127 0.2817952
0.003237128 -0.19184721 0.2828514
0.0047613978 -0.1891644 0.2817724
0.0093838796 -0.1957577 0.28980801
0.020310819 -0.18691321 0.28597319
0.01041967 -0.18016981 0.28348261
-0.00093744701 -0.25517321 0.28394091
0.03014967 -0.26952001 0.29546711
0.034879569 -0.23863161 0.3033013
0.032465558 -0.1372218 0.302744
0.018661009 -0.1089569 0.32373229
0.02251735 -0.1259173 0.30513191
0.0073421001 -0.1171727 0.29953629
0.033335451 -0.1910557 0.29874641
0.027177241 -0.18257549 0.2900148
0.0302462 -0.2504043 0.2961517
0.0078971293 -0.2014278 0.28194451
-0.01760377 -0.1588186 0.29516599
0.0032698959 -0.18206879 0.28143379
0.0086403787 -0.2485311 0.2807003
0.0132703 -0.087375253 0.32002151
0.001889125 -0.1037706 0.30054289
0.0020522771 -0.247421 0.28458089
0.000119403 -0.24759351 0.28108609
-0.002615765 -0.1946364 0.28390279
0.0025013241 -0.082830109 0.31272319
0.036676649 -0.1556406 0.29905769
0.0031796319 -0.19755299 0.28621811
-0.01075997 -0.18612631 0.29698911
-0.01169628 -0.17964 0.28679261
-0.01347069 -0.2501592 0.288221
0.01310778 -0.189771 0.2802895
-0.01284252 -0.1722388 0.28729281
-0.0094645023 -0.13037109 0.29070231
-0.001848578 -0.1522997 0.28108829
-0.0112709 -0.1333531 0.2906982
0.003024936 -0.1136398 0.29389229
-0.01463008 -0.1291098 0.29448199
-0.01232113 -0.1640781 0.28818339
-0.0089896321 -0.111717 0.30259359
-0.0035107729 -0.154851 0.28090781
-0.01432753 -0.1755444 0.28830141
-0.02209373 -0.1563202 0.3011094
-0.01093255 -0.1741727 0.28539929
-0.0056095119 -0.1571774 0.28332311
-0.01543419 -0.1701972 0.29109281
-0.01226319 -0.117032 0.30535489
-0.01673989 -0.16290329 0.2912983
-0.001008764 -0.1666373 0.2808452
0.0048496132 -0.079479948 0.3116264
-0.01129316 -0.15549579 0.28480101
-0.01079908 -0.1184132 0.2974872
-0.0143868 -0.1556669 0.29020509
-0.023516711 -0.1659606 0.3038688
-0.009569779 -0.1914731 0.283786
-0.0053253919 -0.1892713 0.2821658
0.0037905721 -0.1140197 0.2921975
-0.01164249 -0.12954231 0.29054669
-0.0087400228 -0.1836592 0.2852079
-0.02210292 -0.1893146 0.2983813
-0.01176503 -0.1161852 0.30804729
0.0091910362 -0.082880281 0.30860129
-0.02077869 -0.2525785 0.29747641
-0.0097153783 -0.1168439 0.29935801
-0.021363029 -0.25723729 0.29829139
-0.01769997 -0.1792044 0.29198879
-0.0113609 -0.1187637 0.3005051
-0.01929675 -0.1702769 0.29364711
-0.019709861 -0.1745335 0.29501191
-0.0235481 -0.16641711 0.2977137
-0.024924841 -0.16499931 0.30410931
-0.02262971 -0.1597124 0.2990047
-0.024513319 -0.15129431 0.3040162
-0.01275714 -0.25472739 0.28709739
-0.019894321 -0.1906535 0.29374999
-0.014652 -0.2245708 0.28828791
-0.0092514008 -0.087921403 0.3090198
-0.0092985183 -0.089528061 0.30959639
0.0072948192 -0.083455831 0.31009749
-0.005254298 -0.1285013 0.2858068
-0.025610849 -0.193608 0.30244589
-0.025317639 -0.1919561 0.3060554
-0.02469507 -0.1972741 0.3010124
-0.024156909 -0.20356549 0.30470049
-0.022000739 -0.190263 0.29604301
-0.0130523 -0.1949366 0.28575659
-0.022504229 -0.1976039 0.29554969
-0.01404047 -0.1485924 0.28416601
-0.0050213188 -0.1950554 0.28176239
0.00058184558 -0.1884757 0.28124839
-0.01287355 -0.1890891 0.28610829
-0.020583579 -0.19590069 0.2941992
-0.007370919 -0.1987337 0.2829321
-0.026098309 -0.24703071 0.3090142
0.0072695911 -0.22085451 0.2808986
-0.025343509 -0.1900951 0.31883851
-0.02494335 -0.18668351 0.31273279
-0.022150289 -0.1305462 0.309012
-0.023891959 -0.21213681 0.308034
-0.027016271 -0.1962387 0.31150591
-0.02498257 -0.1696862 0.3103267
-0.0236747 -0.133791 0.3065725
-0.026423709 -0.1555617 0.30618921
-0.023611071 -0.1747693 0.32132441
-0.02594039 -0.17750371 0.3094199
-0.02309774 -0.26760691 0.29818019
-0.02109823 -0.1935284 0.29688641
-0.023333831 -0.27177849 0.30883819
-0.02362214 -0.26978159 0.29990429
-0.01451008 -0.1346336 0.29012191
-0.01277147 -0.1155107 0.30178419
-0.02205405 -0.1708634 0.29531381
-0.02161948 -0.25997001 0.29625171
-0.01451309 -0.1187099 0.30454901
-0.023607541 -0.25941551 0.30188921
-0.024956269 -0.26632831 0.30264509
-0.02030398 -0.240679 0.30477959
-0.02246107 -0.1795083 0.29685399
-0.023635941 -0.175951 0.30016989
-0.01046798 -0.2367233 0.3062557
-0.02080746 -0.1305604 0.3067033
-0.0082934201 -0.1095375 0.30905849
-0.0059106499 -0.1108172 0.32634991
0.021758839 -0.1085495 0.32006451
-0.0067093889 -0.1096595 0.3029027
0.0024370099 -0.087100737 0.33091959
0.0026538239 -0.068724021 0.31155959
-0.01012779 -0.1119818 0.31665039
0.01469888 -0.068410441 0.31493691
0.0041695829 -0.081115931 0.31635639
0.0087180212 -0.1146153 0.3325192
-0.001625717 -0.17123491 0.34479451
0.02185265 -0.1071042 0.3232303
0.0022361651 -0.069363788 0.30818999
0.01116042 -0.1128195 0.33022821
0.01890243 -0.2747848 0.3381063
0.01662682 -0.2481564 0.3440122
0.01312223 -0.2536706 0.33724609
0.03120432 -0.27602839 0.32804769
0.01552482 -0.2389674 0.34514409
0.0069049061 -0.1290801 0.33597279
0.0064979568 -0.2398065 0.34924471
0.0112958 -0.1594166 0.3411603
0.01269739 -0.24252629 0.34507331
0.018123681 -0.22240581 0.34108019
-0.003268722 -0.26790029 0.3446885
0.00041942301 -0.2381323 0.34850761
-0.00026507679 -0.2270533 0.3482579
-0.0062845219 -0.26559159 0.34096751
-0.0046349219 -0.21530449 0.34489629
-0.0096282084 -0.1295127 0.33739519
-0.0070713959 -0.20597389 0.34420419
-0.00057862891 -0.22892541 0.34376141
-0.01210257 -0.24940591 0.34208861
-0.018377829 -0.2650556 0.34059229
-0.019580871 -0.26287529 0.33724841
-0.023957429 -0.1732997 0.3187924
-0.029605949 -0.21903729 0.3047075
-0.02591732 -0.1794347 0.31517479
-0.02574062 -0.25851879 0.31263191
-0.0242096 -0.248037 0.3089394
-0.024452951 -0.2480786 0.31642881
-0.02520919 -0.18532179 0.3220503
-0.023526181 -0.23332471 0.32047889
-0.02314624 -0.1957444 0.3235063
0.003362536 -0.080761313 0.31724909
0.00092849141 -0.085396737 0.32351139
-0.015618 -0.2474905 0.3385796
-0.0059538782 -0.2079298 0.34199959
0.00087723142 -0.1249286 0.33786869
-0.0037275851 -0.26208919 0.344248
-0.001600876 -0.1096467 0.32043311
-0.01758327 -0.26691499 0.3329846
-0.01077089 -0.1288536 0.33406669
-0.01525652 -0.2501556 0.3400487
-0.025595279 -0.18658531 0.31309479
-0.017499579 -0.1911986 0.3343226
-0.0093545616 -0.1306047 0.3361735
-0.017057659 -0.15465701 0.33402061
-0.005746692 -0.108538 0.32777581
-0.024544841 -0.17739411 0.3094573
-0.025603089 -0.21050359 0.30921581
-0.022228179 -0.1288365 0.3062892
-0.02267912 -0.1333143 0.32220569
-0.02399132 -0.1734875 0.29936591
-0.02072726 -0.1305979 0.30616921
-0.01065195 -0.1133808 0.30512679
-0.009338975 -0.2490811 0.34091181
-0.009655714 -0.1071289 0.31299329
0.01308039 -0.08463601 0.32003689
-0.016324069 -0.17456891 0.3332051
-0.0075808759 -0.18250699 0.34174371
-0.021233261 -0.2474792 0.3217274
-0.023408459 -0.1927277 0.30562499
-0.01441532 -0.20641141 0.29017961
-0.02461946 -0.2316923 0.31876671
-0.0052033071 -0.12783919 0.28345239
-0.024098581 -0.15115979 0.30220211
-0.022573721 -0.2131068 0.3097153
-0.01006269 -0.18074501 0.2869021
-0.01414445 -0.15515719 0.2891905
