# .PCD v0.7 - Point Cloud Data file format
VERSION 0.7
FIELDS x y z normal_x normal_y normal_z curvature
SIZE 4 4 4 4 4 4 4
TYPE F F F F F F F
COUNT 1 1 1 1 1 1 1
WIDTH 581
HEIGHT 1
VIEWPOINT 0 0 0 1 0 0 0
POINTS 581
DATA ascii
-0.0045313751 -0.16880332 0.28720924 -0.9458043 0.16927852 -0.27712631 0.084542185
0.010826243 -0.13349909 0.29556426 -0.90027362 0.2333377 -0.36750633 0.090450175
0.012621963 -0.17337953 0.28361627 0.94626683 -0.15643412 0.28303263 0.090020835
0.0058450038 -0.1766839 0.28296137 0.94870675 -0.14607124 0.28039017 0.084885135
0.011119189 -0.12139711 0.30295813 -0.9005338 0.24968769 -0.35594246 0.10106596
0.0083145648 -0.25157735 0.28260958 -0.89147699 -0.16912779 -0.42031491 0.084598564
0.0027883637 -0.17115194 0.28409514 -0.94341409 0.16615254 -0.28698987 0.086729027
0.0018203739 -0.18775329 0.2846849 0.97965282 -0.11138871 0.16695204 0.082131378
0.0019941132 -0.19313809 0.28493011 0.983742 -0.10234538 0.14757042 0.086123385
-0.00046013008 -0.16302775 0.28602889 -0.95181489 0.1853999 -0.24428558 0.087826692
0.0017178332 -0.25649342 0.2862049 -0.90174389 -0.17265368 -0.39629349 0.086979136
-0.00066902221 -0.17912635 0.28549254 -0.96284461 0.1328364 -0.23512703 0.081900433
0.0096984617 -0.24717765 0.28157657 -0.89365155 -0.17168334 -0.41462246 0.078260981
0.01184389 -0.21844321 0.28088886 -0.93000513 -0.12028983 -0.347305 0.077806786
0.010863065 -0.24386382 0.28146619 -0.90029693 -0.17041373 -0.40053055 0.075076938
0.019609867 -0.18243346 0.28335464 0.96858031 -0.12660703 0.21406294 0.087618761
0.010243328 -0.1196441 0.30423561 -0.89990073 0.25424141 -0.35431635 0.10257616
-0.0035445576 -0.14861453 0.2903358 -0.90642446 0.21351717 -0.36442426 0.079892851
-0.008586932 -0.18656349 0.2927036 -0.98292732 0.11134708 -0.14647797 0.077038385
0.01566666 -0.18735635 0.28125542 0.97311121 -0.11870381 0.19739304 0.088911295
0.0070440322 -0.16061789 0.28543004 -0.9321754 0.20165306 -0.30064097 0.088791907
0.0054164534 -0.17718461 0.28313422 -0.9485656 0.14562739 -0.28109786 0.083308689
-0.0031634229 -0.18590352 0.28748357 -0.98082519 0.11433192 -0.15782951 0.078663588
-0.014222756 -0.19363211 0.3004002 -0.98385882 0.097843789 -0.14982793 0.08576265
-0.014598551 -0.24321154 0.29983205 -0.91921437 -0.1626505 -0.35859415 0.071667001
-0.012347577 -0.21477725 0.29615575 -0.96151423 -0.079770997 -0.26291996 0.082147181
0.010114985 -0.17426927 0.28365853 0.94906104 -0.15305339 0.27542308 0.088235095
0.016226972 -0.17765367 0.28351313 0.95908821 -0.13828894 0.24703462 0.088783935
0.022312004 -0.13418372 0.29948202 0.89879566 -0.23646629 0.3691206 0.09391129
0.011152954 -0.2111983 0.28200695 0.95762497 0.037389316 0.28558096 0.093937986
0.027071139 -0.18725045 0.28492334 0.97357881 -0.12262407 0.19263306 0.095341705
-0.0066743582 -0.18959323 0.29107586 -0.98441303 0.101574 -0.14357512 0.080878764
0.0095461505 -0.18131924 0.28193471 0.96528387 -0.13062106 0.22619739 0.083967753
0.0016523015 -0.11276324 0.30521327 -0.96001208 0.24610312 -0.13345458 0.11059944
0.0067556244 -0.21619092 0.2821787 -0.94877893 -0.099618956 -0.29982427 0.082927823
0.015141243 -0.13496342 0.29627728 0.89982343 -0.23272355 0.36899531 0.090421319
0.025951831 -0.1329672 0.30437839 0.90098053 -0.23696761 0.36342883 0.096275106
0.025505498 -0.19765231 0.28277156 0.9734087 -0.084743701 0.21282391 0.10502891
0.010799015 -0.13358001 0.29540217 -0.90027362 0.2333377 -0.36750633 0.090450175
0.0014471202 -0.11567312 0.30390885 -0.92238009 0.25422478 -0.2908344 0.10495119
0.012529221 -0.11507945 0.31863266 -0.97241092 0.23054625 0.035574049 0.11728259
0.0087122526 -0.082095288 0.31081492 0.614308 0.014667919 -0.78892994 0.1498311
0.012481716 -0.086302586 0.31214431 0.64994675 0.0075187124 -0.75994253 0.14400943
0.0032568893 -0.1119435 0.30562717 -0.96994746 0.23378053 -0.067443401 0.11427942
0.013034397 -0.1135541 0.31852442 -0.96673417 0.20328023 0.15524903 0.12294933
0.022472706 -0.13410984 0.30204189 0.90138638 -0.23724733 0.36223805 0.094058372
0.010865793 -0.11940195 0.30393511 -0.90379214 0.25439671 -0.3441543 0.10268509
0.0069071446 -0.22157428 0.28178462 -0.92789268 -0.12184949 -0.35237452 0.077610344
0.0073384452 -0.18253443 0.28222111 0.96522075 -0.1307629 0.22638473 0.082941271
0.024576029 -0.18424428 0.28471687 0.9687354 -0.12828325 0.21235615 0.091334589
0.0054956032 -0.186451 0.28308895 0.97497427 -0.11829685 0.1882313 0.083624676
0.013202855 -0.18869364 0.28087467 0.9726122 -0.11607192 0.20137736 0.089972727
0.012454783 -0.25320745 0.28515515 -0.89188218 -0.16656691 -0.42047787 0.089134507
0.028235214 -0.18087989 0.29252198 0.97680348 -0.12090421 0.17674001 0.091053993
0.023865188 -0.17830096 0.28775245 0.97022343 -0.12688965 0.20631403 0.090694703
0.0087891594 -0.096177258 0.31378824 -0.72506374 0.051633272 0.68674338 0.1312045
0.0011519606 -0.11641844 0.30355203 -0.92029285 0.25456432 -0.29708266 0.10355132
0.028133778 -0.13403486 0.31515458 0.91150659 -0.23275144 0.33909065 0.094724774
0.028607761 -0.13817769 0.30035543 0.89486289 -0.23507878 0.37941849 0.093491487
0.010117206 -0.096980914 0.31219062 0.73345321 -0.048530001 -0.67800522 0.12939423
0.026060702 -0.15339075 0.30151436 0.93597877 -0.19709441 0.29171482 0.086012773
0.013071219 -0.11307747 0.31202921 0.97658199 -0.20190993 -0.0742964 0.12339687
0.029496314 -0.14056996 0.30394611 0.90717024 -0.2307532 0.35184538 0.091130488
0.026605882 -0.15443908 0.30044621 0.93693918 -0.19442199 0.29042214 0.086118534
0.026172059 -0.16180974 0.32773739 0.9831773 -0.15496084 0.096692435 0.092208371
0.027334705 -0.1523533 0.32906955 0.96625465 -0.19586635 0.16729672 0.089205496
0.027916102 -0.1514653 0.33000776 0.96062797 -0.20207798 0.19067875 0.090530559
0.017971169 -0.13445532 0.32984689 0.95125926 -0.2271356 0.20860323 0.090955302
0.022801321 -0.13498209 0.32587492 0.93765855 -0.22424933 0.26553479 0.092299052
0.016817385 -0.13333246 0.33008391 0.95041138 -0.23014414 0.2091694 0.090614729
0.016942997 -0.12285866 0.31746209 0.94560003 -0.23733467 0.22251479 0.102571
0.014497159 -0.12269004 0.32187754 0.95121312 -0.23876083 0.19541457 0.10310031
0.018567115 -0.12212341 0.31524751 0.94877368 -0.23371486 0.21261659 0.10564819
0.017482122 -0.12132005 0.31573159 0.93974197 -0.2391683 0.2443022 0.10586832
0.015432913 -0.12503307 0.32342884 0.94743365 -0.23936862 0.21230215 0.10137459
0.015987003 -0.12315025 0.31956676 0.94605082 -0.23758657 0.22031896 0.10281401
0.030190878 -0.14173518 0.30498469 0.90911299 -0.22769888 0.34880772 0.089813128
0.0088780057 -0.080965869 0.31182295 0.59995389 0.015859602 -0.79987741 0.15068297
0.0040833438 -0.11225657 0.30595407 -0.96843112 0.23456632 -0.084378533 0.11385006
0.029206939 -0.13522054 0.3136892 0.91150653 -0.2327507 0.33909157 0.094724804
0.012663497 -0.1235514 0.30322251 -0.90086091 0.24524993 -0.35819283 0.097239695
0.012587644 -0.096114255 0.31484994 0.73241341 -0.043294024 -0.67948234 0.13782951
0.0075629759 -0.09599597 0.31469148 -0.72344249 0.053826865 0.68828315 0.13090955
0.016158717 -0.095608652 0.31127322 0.70356703 -0.016762983 -0.71043122 0.13631295
0.02264004 -0.20420524 0.28222743 0.9542495 -0.037619468 0.29663575 0.10009094
0.0044632615 -0.092213437 0.3143858 -0.69547743 0.043593068 0.71722442 0.13901348
0.011055092 -0.096550144 0.30940944 0.72002119 -0.034871232 -0.6930753 0.12886095
0.012600075 -0.19640569 0.28159702 0.97577375 -0.084393337 0.20184962 0.094490416
0.021913294 -0.13631815 0.30079898 0.90035641 -0.23322034 0.367378 0.091189139
0.024790946 -0.13351916 0.30533025 0.90201157 -0.23666105 0.36106315 0.094812378
0.010709434 -0.12342799 0.30213171 -0.90049285 0.24570455 -0.35880613 0.096757807
0.014220015 -0.19497946 0.28121656 0.9760378 -0.097115539 0.19472781 0.094457097
0.0058050449 -0.19877219 0.28365961 0.97123152 -0.069922321 0.22764045 0.092144534
0.0012713989 -0.13356663 0.29439211 -0.90341306 0.23114502 -0.36113262 0.089270219
-0.0078211259 -0.17921297 0.29087138 -0.97218448 0.12642403 -0.19716544 0.080567956
-0.0082697552 -0.25503656 0.29409388 -0.91850817 -0.17557192 -0.35428411 0.079554893
0.025730578 -0.20502801 0.2879149 0.96062636 -0.029951237 0.27622432 0.10371763
0.012634172 -0.095716096 0.31205213 0.71812564 -0.03194353 -0.69518 0.13703477
-0.0005457949 -0.16320477 0.2863515 -0.95181489 0.1853999 -0.24428558 0.087826692
0.0022972126 -0.19597186 0.28506419 0.97913492 -0.086546443 0.18386009 0.088110797
-0.0018141028 -0.21864133 0.28650498 -0.94132739 -0.10951089 -0.31923375 0.078280665
-0.0083199134 -0.217485 0.29235277 -0.95168662 -0.095478639 -0.29184997 0.081185944
0.011490876 -0.13543558 0.29555032 -0.90346479 0.23113424 -0.36101013 0.089272365
-0.0044714422 -0.13337053 0.29647103 -0.91143471 0.23331298 -0.33889791 0.089527018
-0.0069302069 -0.131651 0.29902723 -0.91978323 0.23560992 -0.31382605 0.089300051
-0.0039026046 -0.11728921 0.30839011 -0.93447906 0.25245592 -0.25102785 0.099779278
-0.01129573 -0.13366871 0.30751085 -0.92645174 0.23346952 -0.2952612 0.087051123
-0.011668378 -0.13231152 0.30884165 -0.92714775 0.23532335 -0.2915819 0.087947786
-0.016452942 -0.18821508 0.302986 -0.98508483 0.10501935 -0.13630435 0.077779569
-0.0027494095 -0.1175923 0.30428398 -0.92140609 0.25530061 -0.29297164 0.1004612
-0.018509673 -0.18957847 0.31261596 -0.98494387 0.10349363 -0.13847265 0.079432197
-0.017737687 -0.19329183 0.32154137 -0.98441863 0.098387554 -0.14573897 0.088349245
-0.013250104 -0.13579246 0.31415379 -0.93945831 0.22949609 -0.25445968 0.086523935
-0.001339542 -0.11454221 0.31601337 -0.96758801 0.24923709 -0.040672958 0.1043988
-0.018087367 -0.17223412 0.30667987 -0.9814986 0.15214479 -0.1162435 0.086166136
-0.018938135 -0.19113408 0.31071371 -0.98442376 0.100803 -0.14404392 0.082442239
0.0050100777 -0.093039431 0.31472695 -0.70529008 0.038099442 0.70789433 0.13841811
-0.010230379 -0.12980482 0.30874771 -0.93141925 0.23564531 -0.27736142 0.088647723
-0.0040743211 -0.11943015 0.30267468 -0.91490668 0.25417852 -0.31359074 0.096268147
-0.0012797491 -0.11273929 0.31202328 -0.96805614 0.24773072 -0.038689602 0.10715982
0.0018155419 -0.1130536 0.31837866 -0.96802348 0.24293154 0.062567554 0.11101423
0.0011021082 -0.12939686 0.32770818 -0.9549334 0.23651455 -0.17934071 0.089368694
0.0069610826 -0.12789822 0.33013767 0.95671254 -0.23718721 0.16865158 0.092698067
0.012869896 -0.11671903 0.32163048 -0.97168487 0.22790235 0.062361673 0.11584122
0.013173015 -0.094851203 0.31445417 0.70947874 -0.035685927 -0.70382279 0.13948305
0.022656232 -0.13299493 0.32460555 0.93490052 -0.23109975 0.26935828 0.092262305
0.019559706 -0.13355878 0.32776791 0.9468649 -0.22845751 0.22639355 0.091300711
0.012467803 -0.23506559 0.33802077 0.95818102 0.10775491 0.26510006 0.09564133
0.0063425065 -0.11695245 0.32342908 -0.96864152 0.24777748 0.018438037 0.10729398
0.013387326 -0.088212423 0.31211346 0.66815794 0.0018789093 -0.74401706 0.14138792
0.0088994466 -0.13093415 0.33062735 0.95616484 -0.23371199 0.1764297 0.090284713
0.0099446857 -0.10594793 0.32113248 -0.82726568 0.13736486 0.54475915 0.11981052
0.008356397 -0.13192953 0.33120731 0.95563048 -0.23408817 0.17881036 0.089654088
0.020808006 -0.13496788 0.3277235 0.94304371 -0.22695023 0.24323289 0.090889171
0.017254144 -0.15455914 0.33471227 0.97410548 -0.18634602 0.12803802 0.087355837
0.017297866 -0.15807924 0.33526146 0.97892922 -0.17387894 0.10706875 0.088911794
0.007956014 -0.10643817 0.31968844 -0.87327927 0.15962555 0.46032912 0.11639548
0.014794961 -0.15637502 0.33525485 0.97822028 -0.17705613 0.1083333 0.086941659
-0.0003703924 -0.16222936 0.33637378 0.98235965 -0.16306648 0.091535866 0.089474216
-0.0011002878 -0.21843442 0.3418614 0.97488314 0.079250038 0.20814013 0.093629181
0.014173323 -0.11739942 0.32169935 0.97282004 -0.23098709 0.016308313 0.11738095
0.0051158969 -0.13378473 0.33243129 0.95970571 -0.229582 0.16204025 0.088928789
-0.0020938609 -0.1351662 0.32921156 -0.95373243 0.22704364 -0.19709302 0.088340886
-0.010531957 -0.15598035 0.32900801 -0.97089076 0.18520814 -0.15188535 0.07903669
-0.0023090285 -0.1336616 0.32702339 -0.95039743 0.22898149 -0.2105049 0.088672131
-0.013845507 -0.19200487 0.3332389 -0.98755628 0.11114466 -0.11126266 0.090340212
-0.014382228 -0.1872537 0.33256105 -0.99039322 0.12655176 -0.055730104 0.081169799
-0.013054912 -0.19457804 0.33429977 -0.98704028 0.10343969 -0.12268542 0.093389511
-0.0036614025 -0.1328484 0.3264274 -0.95146662 0.22962467 -0.2048994 0.088950545
-0.015057839 -0.20127662 0.32966584 -0.99417436 0.046688493 -0.097147129 0.084938049
-0.018044492 -0.20347883 0.31889832 -0.99094385 0.015524341 -0.13337661 0.076024853
-0.011202664 -0.16326316 0.33120221 -0.9791925 0.16191307 -0.12233634 0.088947989
-0.014749994 -0.19973072 0.33033979 -0.99231517 0.065242827 -0.10513843 0.08797159
-0.017653618 -0.19839951 0.32287616 -0.98960632 0.077687606 -0.12101229 0.088863522
-0.01778763 -0.19858478 0.32278189 -0.98995638 0.075679272 -0.119411 0.088320941
0.0032702559 -0.16816162 0.33630237 0.98713535 -0.14716578 0.062499162 0.08949136
-0.018894315 -0.18158141 0.31523183 -0.98776108 0.12167829 -0.097582869 0.077917293
-0.01555901 -0.2022742 0.32848716 -0.99480259 0.034568142 -0.095774725 0.080792718
0.0043458948 -0.21185571 0.34372878 0.98419076 0.038446002 0.1728885 0.09082748
-0.018652674 -0.18812858 0.31389624 -0.98549819 0.10677001 -0.13188468 0.077296659
-0.016498076 -0.18192734 0.32788447 -0.9904837 0.13215387 -0.038437232 0.081650406
0.021532424 -0.13305035 0.3242847 0.93464237 -0.22861016 0.27236179 0.092476927
0.0046360111 -0.23329887 0.34235948 0.96372235 0.1097506 0.24329826 0.093398236
-0.0072542476 -0.22375636 0.33532092 -0.97085077 -0.094285466 -0.22036137 0.090692773
-0.0047009415 -0.18562107 0.34096885 -0.99016041 0.13719386 -0.027569836 0.087496884
-0.018536871 -0.16527517 0.31744808 -0.97336566 0.16964288 -0.15420912 0.086588241
-0.01712876 -0.18329658 0.32557493 -0.99004424 0.12623413 -0.06226908 0.079590917
-0.018754214 -0.18242474 0.31642377 -0.98863143 0.11971902 -0.090968333 0.078442857
-0.018846229 -0.19768068 0.31240818 -0.98642921 0.082341909 -0.14204666 0.085488982
-0.0183785 -0.20658669 0.30984139 -0.97797757 -0.027371498 -0.20690708 0.071689129
-0.019289076 -0.19589488 0.30963823 -0.98402447 0.091357298 -0.15280613 0.08910431
-0.017933844 -0.1879594 0.32182923 -0.98683107 0.11052219 -0.11810678 0.078328118
-0.018769994 -0.19032788 0.31405962 -0.98460448 0.10198534 -0.14196129 0.080741405
-0.0053880312 -0.24518126 0.33499357 -0.96376365 -0.1696547 -0.20585628 0.079868063
-0.018176734 -0.15742572 0.30798072 -0.95517719 0.18823051 -0.22848608 0.080462784
-0.0087167574 -0.22541882 0.33338293 -0.96399909 -0.10734911 -0.24327353 0.087326862
-0.01852902 -0.22962788 0.30859125 -0.93643141 -0.13997787 -0.32171795 0.06865909
-0.013416306 -0.25736821 0.32301676 -0.96536374 -0.20908925 -0.15605883 0.077744298
-0.01808439 -0.22831278 0.30577922 -0.93691969 -0.13696605 -0.32159266 0.068110362
0.019776924 -0.13412373 0.32842541 0.9468649 -0.22845751 0.22639355 0.091300711
0.0049010264 -0.11305949 0.31961745 -0.96779162 0.23717964 0.084411137 0.11354216
-0.011702331 -0.13387355 0.30942661 -0.93006921 0.23192701 -0.28492311 0.087089568
-0.017114 -0.20164016 0.30496001 -0.97751087 0.030249005 -0.20870444 0.079100803
-0.017236443 -0.18688114 0.30426064 -0.9854157 0.10785244 -0.13161984 0.077087142
-0.017199045 -0.17371874 0.3025386 -0.97927344 0.1462914 -0.14007963 0.084608749
-0.017455388 -0.15567188 0.30536562 -0.94942605 0.19156407 -0.24878386 0.07842546
-0.018916743 -0.16560921 0.30735952 -0.96630365 0.17605977 -0.1877775 0.084831469
-0.0056861052 -0.12061071 0.30628023 -0.92413682 0.25050229 -0.28847849 0.09364067
-0.0050794915 -0.11966333 0.30909985 -0.93275273 0.25214225 -0.25767532 0.094831273
-0.016219854 -0.15262994 0.30697072 -0.94519466 0.19440781 -0.26232189 0.078780778
-0.015008944 -0.17483297 0.29812646 -0.97197962 0.14353976 -0.18615031 0.084518664
-0.013610691 -0.17064492 0.29637334 -0.96214992 0.16496888 -0.21691665 0.083414353
-0.013138356 -0.17954136 0.29656103 -0.9774496 0.12129691 -0.17285623 0.078143537
-0.013906968 -0.19767 0.30031475 -0.98331726 0.083504669 -0.16159835 0.084752902
-0.00766843 -0.13216414 0.29897702 -0.91563243 0.23477583 -0.32633969 0.089308187
-0.012790253 -0.15621342 0.2956821 -0.94531065 0.19473098 -0.2616635 0.07915093
-0.0097483369 -0.17094579 0.29133213 -0.95468676 0.16212241 -0.24957873 0.084432662
0.0068523446 -0.17764615 0.28395253 0.95801228 -0.13819744 0.2512247 0.08446525
0.0018618513 -0.15315627 0.28754246 -0.91553247 0.20996614 -0.34309548 0.080644041
-0.008239381 -0.24338907 0.29228747 -0.91457784 -0.16540106 -0.36903915 0.072017394
-0.0012576543 -0.11471469 0.30393106 -0.92830163 0.2566433 -0.26905453 0.10428299
-0.0097733987 -0.17458603 0.29190308 -0.96014613 0.14895488 -0.23649924 0.083551168
-0.0056612631 -0.13292518 0.29697895 -0.91143471 0.23331298 -0.33889791 0.089527018
-0.017985983 -0.17379579 0.31844109 -0.98813611 0.14088655 -0.061139807 0.085797183
-0.010769724 -0.16108826 0.29200897 -0.95335948 0.18719353 -0.23677894 0.08664678
-0.010286139 -0.15925758 0.29230314 -0.94955772 0.19099753 -0.24871695 0.083735503
-0.018956453 -0.18786478 0.31303293 -0.98549819 0.10677001 -0.13188468 0.077296659
0.0033602435 -0.1173939 0.30221632 -0.91161263 0.25486231 -0.32250223 0.10322927
0.0038999012 -0.255088 0.28492218 -0.89518046 -0.16795543 -0.4128474 0.088484131
0.0035017463 -0.16705564 0.28427982 -0.94850194 0.17924856 -0.26117834 0.085332304
-0.0069743311 -0.25549471 0.292191 -0.91887128 -0.17468047 -0.35378289 0.081122786
-0.018748522 -0.18933976 0.31074634 -0.98493969 0.10330344 -0.13864462 0.079245798
-0.017063664 -0.19769669 0.30444965 -0.98517609 0.084788121 -0.14912786 0.085733369
-0.0085478844 -0.17845881 0.2909545 -0.96792006 0.13008298 -0.21496291 0.08084853
-0.014376114 -0.16959345 0.29674822 -0.96117598 0.17115061 -0.21644412 0.086084686
-0.01558345 -0.18817717 0.30152684 -0.98508513 0.10501921 -0.13630165 0.077779666
-0.0067870282 -0.18879622 0.29095781 -0.98477638 0.10418626 -0.13914357 0.079843462
-0.011637365 -0.197869 0.29664797 -0.98173928 0.07994739 -0.17261609 0.084844887
-0.01812789 -0.24490067 0.31361496 -0.93713278 -0.16807461 -0.30583167 0.071330212
-0.013285768 -0.19048177 0.29808426 -0.98440915 0.10109875 -0.14393595 0.081228688
0.00185573 -0.17844054 0.28408438 -0.95788616 0.13784094 -0.25190055 0.081905052
0.0069154971 -0.18620282 0.28263196 0.97535151 -0.11911909 0.18574168 0.084484555
-0.0048594973 -0.18185215 0.28861693 -0.97299397 0.12432559 -0.19448863 0.078778841
-0.0092648687 -0.22624046 0.29288545 -0.93457001 -0.13086762 -0.33083603 0.069709808
-0.0036323362 -0.15778936 0.28748068 -0.92707407 0.20649125 -0.31288174 0.083004251
-0.016420744 -0.1771974 0.3004818 -0.9782114 0.13254267 -0.15979666 0.082067214
-0.0068248934 -0.17349376 0.28914633 -0.95423007 0.15394965 -0.25640661 0.084708177
-0.0014857586 -0.16162594 0.28628096 -0.94598871 0.19302599 -0.26047316 0.087797299
0.019172763 -0.15595654 0.29043928 0.92775583 -0.19983564 0.31517419 0.083247557
0.0061977054 -0.18313248 0.28249606 0.96525663 -0.13075498 0.22623602 0.081541389
0.0040532947 -0.096563287 0.31355992 -0.73466617 0.069594562 0.67484981 0.12857832
-0.010242256 -0.15796192 0.29195932 -0.94565314 0.19524579 -0.26003674 0.080925852
-7.2750809e-05 -0.1327977 0.29503843 -0.90979391 0.23390937 -0.34287247 0.089983903
-0.0078420099 -0.25100377 0.29226947 -0.90817815 -0.16770038 -0.38352188 0.077920139
-0.0011489731 -0.13406444 0.29444325 -0.90518636 0.23052627 -0.35706475 0.088835634
-0.018208221 -0.19588339 0.30635855 -0.9836669 0.092488736 -0.15441905 0.088079751
-0.012012597 -0.19394484 0.2968863 -0.9836694 0.096741885 -0.15177469 0.085365415
-0.018214857 -0.18800162 0.32025722 -0.9865582 0.10974727 -0.12107171 0.078110173
-0.017988574 -0.17194915 0.30870497 -0.9819181 0.15203796 -0.11278862 0.085627452
0.009582377 -0.18989576 0.28189787 0.97583717 -0.11207276 0.18756729 0.087950729
-0.014728323 -0.18133277 0.29895839 -0.98139375 0.11649046 -0.15263084 0.076346524
-0.013428104 -0.25743461 0.30269974 -0.93546021 -0.18599437 -0.30053335 0.07585974
0.002009253 -0.17094676 0.28360948 -0.94027263 0.16799656 -0.29608193 0.087024003
-0.00029623302 -0.18781258 0.2855598 -0.98029482 0.11030851 -0.163872 0.081354417
0.0053187883 -0.24475892 0.28125751 -0.9012416 -0.17045413 -0.39838284 0.074266814
-0.0044338703 -0.19688298 0.28943828 -0.97963601 0.083541639 -0.18257633 0.086575501
-0.0033154001 -0.18551533 0.28761062 -0.9803791 0.11498415 -0.16011095 0.0785392
0.0040804371 -0.18719973 0.28359544 0.97591144 -0.1167025 0.18432926 0.08337687
0.0099557964 -0.24713996 0.28289542 -0.89528459 -0.17115039 -0.41130662 0.077925093
0.0083060358 -0.19891249 0.28273007 0.96780533 -0.065103196 0.24313465 0.093996644
-0.010198032 -0.21699663 0.29392591 -0.95770061 -0.08619196 -0.27455509 0.082490809
-0.0035612076 -0.14871031 0.29032362 -0.90642446 0.21351717 -0.36442426 0.079892851
0.0018943361 -0.2416646 0.28300247 -0.90358478 -0.1702638 -0.39312181 0.071433894
0.0018268719 -0.21931662 0.28411585 -0.93760318 -0.11327759 -0.32873762 0.077751331
0.014506628 -0.19325061 0.2811383 0.97520906 -0.11202919 0.19083174 0.093676522
0.0063836644 -0.11894822 0.30158377 -0.90331632 0.25475097 -0.3451398 0.10183606
0.0076111066 -0.21630767 0.28199726 -0.94877893 -0.099618956 -0.29982427 0.082927823
0.0040808329 -0.25470585 0.28356475 -0.89341092 -0.16951688 -0.41602996 0.088813454
0.014064807 -0.11422319 0.31201857 0.97464359 -0.21918041 0.045052037 0.12093319
-0.012788965 -0.16045672 0.29571351 -0.95380259 0.18636984 -0.23564163 0.085921586
0.014291235 -0.19278613 0.28143087 0.97349507 -0.11539094 0.19746478 0.092559353
0.010461275 -0.21936581 0.28281802 -0.9348644 -0.11504035 -0.3358486 0.079863094
0.015011511 -0.13739771 0.33390328 0.95886695 -0.22075073 0.17844713 0.090682425
0.027832801 -0.13950138 0.30143526 0.90431249 -0.23117127 0.35885763 0.091993779
0.02772964 -0.13966046 0.30011514 0.89706802 -0.23379411 0.37497902 0.092051648
0.014172986 -0.11613342 0.31590131 0.964719 -0.23653421 0.115624 0.11566435
0.013716482 -0.12950896 0.32926059 0.95347524 -0.23601353 0.18757044 0.092978142
0.021041824 -0.12921467 0.30432802 0.90068299 -0.23710583 0.36407542 0.096518032
0.0073282393 -0.083509684 0.31048042 0.63229525 0.011371826 -0.77464402 0.14539887
0.01585228 -0.11395126 0.31318796 0.97791666 -0.2031876 -0.04892515 0.12413438
0.029595409 -0.14077467 0.30406335 0.90784627 -0.22974136 0.35076198 0.090639815
0.017517217 -0.12111234 0.31547368 0.93991339 -0.23876272 0.24403939 0.10611811
0.0094236415 -0.089775667 0.31699008 -0.68605006 0.016382432 0.72736979 0.14316112
0.016160995 -0.130179 0.30031589 0.90152448 -0.23701677 0.36204505 0.094584785
0.030001607 -0.14122631 0.30362719 0.90485168 -0.22953674 0.35854745 0.090644501
0.028587913 -0.13473332 0.31561217 0.91152978 -0.23274811 0.33903068 0.094724901
0.022265833 -0.13595881 0.32627845 0.94071943 -0.2217285 0.25667742 0.091816485
0.026511956 -0.15575241 0.32853159 0.97256851 -0.17608368 0.1520035 0.088257134
0.018936884 -0.095563538 0.31292957 0.70160174 -0.016763756 -0.71237206 0.13971668
0.011657497 -0.11639111 0.31237686 -0.93731797 0.24818344 -0.24462214 0.10972811
0.010855831 -0.084485836 0.31520158 0.64114571 0.0075814147 -0.76738179 0.14559467
0.026269926 -0.16414469 0.32734635 0.98311514 -0.15502156 0.097226687 0.092394307
0.025083201 -0.15449047 0.32914719 0.97337061 -0.18059403 0.1411933 0.088283576
0.029204125 -0.13689026 0.3141785 0.91479683 -0.2311828 0.33121178 0.09398976
0.00091244053 -0.18883929 0.28518647 0.98145205 -0.10650551 0.15940082 0.082921274
-4.3033262e-05 -0.21276979 0.28576586 -0.95950454 -0.0590243 -0.2754398 0.089893714
0.014172857 -0.18966942 0.28095195 0.97333032 -0.11541988 0.19825818 0.090496853
-0.0093632396 -0.17227219 0.29123783 -0.95351714 0.16011296 -0.2552819 0.084495798
-0.0072282604 -0.17486821 0.28989941 -0.95929754 0.14797562 -0.2405234 0.083611645
-0.0034564408 -0.19077694 0.28813145 -0.9841488 0.101757 -0.14524688 0.083665535
0.0012698002 -0.15283543 0.2874369 -0.90607208 0.21433543 -0.36482021 0.079940401
-0.0075981501 -0.17885605 0.29048237 -0.96897858 0.12912403 -0.21073103 0.080642946
0.010969437 -0.12229615 0.30281448 -0.89626759 0.247566 -0.3679885 0.098674878
0.011346156 -0.12070839 0.30392259 -0.90052003 0.25067005 -0.35528594 0.10264663
-0.008287672 -0.13156988 0.30002663 -0.91978323 0.23560992 -0.31382605 0.089300051
0.014025692 -0.098684877 0.31051743 0.756531 -0.051251888 -0.65194637 0.12784728
0.001117455 -0.11383774 0.30499783 -0.94920021 0.25151783 -0.18909736 0.10691846
0.022125365 -0.13382792 0.30181116 0.90138638 -0.23724733 0.36223805 0.094058372
0.010697826 -0.24948558 0.28420308 -0.89446974 -0.16779897 -0.4144482 0.081858188
0.0092629837 -0.19968204 0.28251743 0.96359944 -0.059572354 0.26062858 0.096399933
0.0098389154 -0.19069459 0.28193897 0.9758063 -0.11248145 0.18748309 0.088755727
0.010529611 -0.22132485 0.28301498 -0.927908 -0.12184432 -0.35233605 0.077610977
0.011921366 -0.24559022 0.28222054 -0.8935591 -0.1705883 -0.41527298 0.076781139
0.010893921 -0.18529665 0.28162238 0.9692319 -0.1252242 0.21191582 0.085416302
0.008112506 -0.25291824 0.28461298 -0.89197987 -0.16805281 -0.41967863 0.086764999
0.0086964369 -0.21192476 0.28263599 0.95817167 0.039255954 0.28348905 0.093765788
0.0074799573 -0.21510471 0.28281885 -0.95449442 -0.086263217 -0.28548044 0.087396003
0.0039224434 -0.11810064 0.30304503 -0.91011089 0.25488988 -0.32669446 0.1026805
0.00087981747 -0.13359089 0.29465908 -0.90540195 0.23033875 -0.35663894 0.089107029
0.0082358979 -0.083449923 0.31198832 0.6438334 0.0033594954 -0.76515836 0.14695169
-0.0031932001 -0.11713953 0.31128681 -0.952259 0.25071838 -0.17419247 0.098959982
-0.00094339455 -0.19107895 0.28656441 -0.98413986 0.10094726 -0.14587104 0.084177203
-0.0077865473 -0.1812495 0.29143113 -0.97576314 0.12170412 -0.18186408 0.078761607
-0.010256099 -0.19715534 0.29559651 -0.98170722 0.082881831 -0.17141029 0.084004775
-0.016406059 -0.15210797 0.30758399 -0.94519466 0.19440781 -0.26232189 0.078780778
-0.012153798 -0.19483794 0.29755759 -0.9832505 0.095401198 -0.1552972 0.085851081
-0.0040390622 -0.19197717 0.28890786 -0.98406345 0.10146017 -0.14603037 0.084602199
0.0014380259 -0.15287036 0.28781953 -0.91077065 0.21257353 -0.35399067 0.079807915
0.0032391823 -0.19134156 0.28405365 0.98104352 -0.10581797 0.16234575 0.085183449
-0.0099482257 -0.17034939 0.29145595 -0.95468253 0.16217783 -0.24955882 0.083831303
-0.013826589 -0.17687063 0.29692608 -0.97487032 0.13368265 -0.1782044 0.081444532
-0.0086308448 -0.19910255 0.29361546 -0.97950596 0.074941166 -0.18695422 0.086365871
-0.014543444 -0.17125201 0.29753381 -0.96514863 0.16192539 -0.20559257 0.083095409
-0.018472729 -0.19691598 0.30741495 -0.98495024 0.087140933 -0.14926285 0.086722575
-0.017712003 -0.19616668 0.30529317 -0.98393542 0.090116188 -0.1541113 0.086738892
-0.018344898 -0.18587282 0.30610138 -0.98547852 0.10994645 -0.12939826 0.07664334
-0.014768455 -0.19605574 0.30108225 -0.98325151 0.092663519 -0.15693913 0.085633822
-0.011953388 -0.19979385 0.29754105 -0.98177719 0.07056623 -0.17644808 0.085481748
-0.00039069037 -0.15573879 0.2862688 -0.91642386 0.2096258 -0.34091705 0.079812944
-0.019037552 -0.18677619 0.31456062 -0.98546612 0.10728975 -0.1317018 0.077184476
-0.015946597 -0.19026315 0.30265459 -0.98449934 0.10138407 -0.14311637 0.081052944
-0.013780331 -0.21781597 0.29804629 -0.95402735 -0.091720439 -0.28534019 0.080448851
2.7420247e-05 -0.21415304 0.28575301 -0.96130782 -0.081465974 -0.2631551 0.085928001
-0.0075561083 -0.21592766 0.2920112 -0.95771575 -0.087432958 -0.2741096 0.083873503
-0.0086120684 -0.2494642 0.29294983 -0.90818691 -0.16843683 -0.38317823 0.075504787
-0.01328013 -0.19209322 0.29889488 -0.9840458 0.10059702 -0.14674528 0.083779477
-0.01273189 -0.22068097 0.29707852 -0.94667792 -0.10726443 -0.30380121 0.07990656
-0.017430756 -0.15503736 0.30556774 -0.94931632 0.19128089 -0.24941953 0.078069307
-0.0077293045 -0.21229367 0.29189989 -0.96599025 -0.066828951 -0.24979317 0.080392398
0.0020405988 -0.24188843 0.28271696 -0.90102082 -0.17112041 -0.39859664 0.071279019
-0.018760586 -0.1645257 0.30777055 -0.96397346 0.17890926 -0.19684167 0.085925244
-0.0068505751 -0.17502497 0.28954947 -0.95929754 0.14797562 -0.2405234 0.083611645
-0.014869807 -0.18336572 0.30032906 -0.98319727 0.11285606 -0.14348011 0.076465957
-0.004911914 -0.18665157 0.28935176 -0.98232055 0.11208731 -0.14994249 0.078331813
-0.016626488 -0.24110702 0.3029663 -0.92533576 -0.15698537 -0.34512219 0.074808694
0.0018577502 -0.16721968 0.28494817 -0.94849616 0.17896448 -0.26139393 0.085025884
-0.0095082447 -0.22490914 0.29299027 -0.93296611 -0.12705582 -0.33679512 0.071617857
-0.015131652 -0.22713448 0.3000308 -0.93360335 -0.13492444 -0.33193398 0.067338333
-0.013043147 -0.15387493 0.29493025 -0.92996401 0.20313857 -0.30643371 0.07970465
-0.00065901177 -0.17278604 0.2849668 -0.94746369 0.15930094 -0.27737311 0.085595436
-0.0021965606 -0.15961662 0.28757247 -0.93854165 0.19756953 -0.28302982 0.087624758
0.006997698 -0.16133103 0.28513274 -0.93658137 0.19880348 -0.2886045 0.090349033
-0.013072573 -0.1671726 0.29512098 -0.96284753 0.17482613 -0.2058166 0.085414521
-0.018339112 -0.17135404 0.30884933 -0.98149872 0.15326683 -0.11475839 0.085761406
0.0099482303 -0.083113343 0.31185672 0.63216341 0.011503507 -0.77474976 0.14845803
-0.015188651 -0.17293099 0.29870477 -0.97020847 0.15184514 -0.18878216 0.084680147
-0.0065903496 -0.25659171 0.29267415 -0.91749746 -0.17610009 -0.35663316 0.082485616
0.0022572579 -0.1731075 0.28446105 -0.94751948 0.15922676 -0.27722505 0.086359583
-0.013520393 -0.25852993 0.30360106 -0.93692243 -0.1908735 -0.29282025 0.078392662
-0.011230792 -0.16629761 0.29371157 -0.96014428 0.17765239 -0.21578351 0.084758274
-0.0045019505 -0.16888537 0.28719127 -0.9458043 0.16927852 -0.27712631 0.084542185
-0.011980614 -0.15425594 0.29449522 -0.93372208 0.20133637 -0.29601809 0.079840027
0.0021969958 -0.25893813 0.28777292 -0.90728486 -0.17917414 -0.38043508 0.087773733
0.010490517 -0.082167007 0.31131649 0.6147176 0.0047393874 -0.78873301 0.15018085
-0.0058382237 -0.13311547 0.29778948 -0.91143668 0.23331627 -0.33889049 0.089526549
-0.006735723 -0.15745419 0.28957638 -0.93377364 0.20263423 -0.29496819 0.08165285
-0.012987165 -0.16482566 0.29550377 -0.96018702 0.17814718 -0.2151846 0.084476642
0.0049191327 -0.096733712 0.3132467 -0.74735051 0.065072984 0.66123581 0.12780428
-0.010520303 -0.16047306 0.29241541 -0.95335948 0.18719353 -0.23677894 0.08664678
-0.0016366387 -0.17371444 0.28540695 -0.94980299 0.15559621 -0.27141148 0.085983865
0.006152451 -0.12014946 0.30281276 -0.8977074 0.25364706 -0.36025625 0.097979948
-0.0058871806 -0.12052508 0.3074027 -0.92562515 0.25080982 -0.28339466 0.094026133
0.006781111 -0.096301042 0.30876806 0.71856821 -0.040130291 -0.69429767 0.12686795
-0.0016050418 -0.11516357 0.30478632 -0.93237066 0.25567967 -0.25556362 0.10310601
0.0099398438 -0.096371308 0.31001195 0.72002119 -0.034871232 -0.6930753 0.12886095
-0.011720101 -0.13364395 0.31018934 -0.93333781 0.23283696 -0.27325341 0.086771838
0.01171279 -0.085528009 0.31119537 0.6447649 0.011899894 -0.76428831 0.14277306
-0.0040070056 -0.17622711 0.28738162 -0.95562494 0.14233784 -0.25791651 0.081543013
0.005299469 -0.093511976 0.3096076 0.70434946 -0.021375377 -0.70953161 0.13368085
-0.018896148 -0.20074309 0.30901873 -0.98468953 0.050438348 -0.16686057 0.081595235
-0.012809297 -0.24244697 0.29796705 -0.91921198 -0.16289972 -0.3584871 0.071477734
-0.014759715 -0.22697432 0.29967457 -0.93524265 -0.1326727 -0.32820582 0.068816863
-0.0084835449 -0.24270362 0.2925314 -0.91737705 -0.16388623 -0.36271298 0.071636729
-0.017226661 -0.17061974 0.30395493 -0.97287107 0.16455252 -0.16261728 0.085247763
0.0013927582 -0.10831933 0.31369367 -0.93276536 0.19436024 0.30359989 0.11723653
0.0083970353 -0.093614928 0.30958787 0.7048977 -0.021092122 -0.70899528 0.13599709
0.0085299267 -0.096797734 0.30718899 0.72447479 -0.03587728 -0.68836701 0.12685867
-0.017947119 -0.18788964 0.32169649 -0.98683107 0.11052219 -0.11810678 0.078328118
-0.018326085 -0.1812817 0.31691721 -0.98811156 0.12275571 -0.092556342 0.078011349
-0.016792646 -0.23174404 0.32067132 -0.94346964 -0.13910462 -0.30085692 0.073952325
-0.016986681 -0.24811676 0.31774813 -0.94349009 -0.17721054 -0.28004089 0.072288856
-0.01686129 -0.2466246 0.31072608 -0.93326449 -0.17032292 -0.31623963 0.071382947
-0.0010376517 -0.11497562 0.31729901 -0.96751708 0.24939124 -0.041408557 0.10325074
-0.013441631 -0.19214572 0.33406827 -0.98822391 0.11240919 -0.10381617 0.090787821
-0.018189568 -0.19410588 0.32111001 -0.98507845 0.095989041 -0.14285161 0.089240737
-0.018040925 -0.17427798 0.31947112 -0.98812956 0.14096221 -0.061071072 0.085401557
-0.0068379682 -0.16751343 0.33808079 -0.98600703 0.14934513 -0.074067548 0.089987583
-0.0024456871 -0.13516377 0.32920587 -0.95373243 0.22704364 -0.19709302 0.088340886
-0.0067210188 -0.24881808 0.33348206 -0.96503949 -0.18031618 -0.19022305 0.080648072
-0.0045432034 -0.13292977 0.32682416 -0.95146126 0.22962539 -0.20492372 0.088951543
-0.0045169387 -0.18332389 0.34111139 -0.99034953 0.13611381 -0.026094506 0.08757519
-0.01114105 -0.13468435 0.30648699 -0.92996061 0.23171873 -0.28544658 0.086822093
-0.017895091 -0.1980129 0.32219058 -0.98836386 0.078588732 -0.13023283 0.087582633
-0.0031596217 -0.11591692 0.30948544 -0.94723272 0.25500876 -0.19421813 0.1019178
-0.017165937 -0.18274313 0.32534304 -0.9903456 0.12838376 -0.052278604 0.079780631
-0.0025244232 -0.19425297 0.3426787 0.9903121 -0.12621966 0.057884045 0.098471411
-0.0096622733 -0.15575306 0.32998997 -0.97089076 0.18520814 -0.15188535 0.07903669
-0.011957812 -0.13754904 0.32073933 -0.94980329 0.22650491 -0.21579912 0.086606763
-0.0055085924 -0.24516982 0.33521038 -0.96490246 -0.17012197 -0.20005447 0.080213554
0.0038200996 -0.22926997 0.34235299 0.96799433 0.098557405 0.23081031 0.094877847
0.0050095799 -0.13446669 0.33255348 0.95835578 -0.22896059 0.17067911 0.089072503
-0.018133264 -0.24125348 0.31610858 -0.93687636 -0.15195405 -0.31491694 0.077206731
-0.012660553 -0.20273851 0.33234316 -0.99555355 0.032241844 -0.088507868 0.082028992
-0.013446041 -0.25984478 0.30746272 -0.94448185 -0.19504574 -0.26440722 0.078989916
-0.0050928616 -0.17704396 0.33955774 -0.99028331 0.1367979 -0.025003985 0.08793357
-0.0033862672 -0.19415769 0.34202036 0.99031323 -0.12381081 0.062853679 0.097666897
0.010555672 -0.08217258 0.31074938 0.60315406 0.010814318 -0.79755133 0.15067433
-0.014684333 -0.19146976 0.33161277 -0.9873144 0.11059754 -0.11392308 0.088245347
-0.0062606549 -0.20620066 0.33920664 -0.99572867 0.01429068 -0.091214918 0.08431834
-0.01172075 -0.16048095 0.32901689 -0.97339123 0.17015529 -0.1534819 0.087171964
-0.0026099707 -0.20093349 0.34219632 0.99429917 -0.062786527 0.086179972 0.095620282
-0.002920808 -0.13402632 0.32711625 -0.95387191 0.22684973 -0.19664082 0.088627368
0.011484927 -0.11968175 0.32534784 -0.97103029 0.23763877 -0.025060294 0.10703232
-0.018074488 -0.2031453 0.31881332 -0.98946947 0.027058754 -0.14219031 0.078464545
-0.017706444 -0.18024342 0.32218412 -0.99032241 0.1295778 -0.049710847 0.081054233
0.0021780017 -0.11207312 0.31744757 -0.96630931 0.23462208 0.10582411 0.11274372
0.0020590653 -0.10799342 0.31651917 -0.91868687 0.19607683 0.34288251 0.11472964
0.010867371 -0.095801219 0.31664178 -0.72240198 0.049914431 0.68966937 0.13933612
-0.0065486394 -0.15459132 0.33416164 -0.97297925 0.18840615 -0.13347137 0.082873508
0.0096530793 -0.095076419 0.31661159 -0.72417444 0.046690054 0.68803442 0.13948533
0.0085278805 -0.132231 0.33152565 0.95563048 -0.23408817 0.17881036 0.089654088
0.014445307 -0.11706547 0.32352874 0.96974355 -0.22341478 -0.098403834 0.11680856
0.018446419 -0.13446772 0.32852238 0.94520587 -0.22864233 0.23304196 0.090553872
0.01660973 -0.21597503 0.33475599 0.96919721 0.074359141 0.23479258 0.093029566
0.0053313253 -0.10589436 0.31742901 -0.87342477 0.1612958 0.45947012 0.11626807
-0.0087073362 -0.1376335 0.32495674 -0.95261174 0.22463691 -0.20510708 0.086607769
0.013903989 -0.11584369 0.32303813 -0.96735775 0.21741123 0.13019766 0.11982777
-0.018887395 -0.21270169 0.31540069 -0.9706772 -0.058708657 -0.23310731 0.08098416
-0.013388463 -0.23663358 0.31882137 -0.93692857 -0.14630462 -0.31742683 0.075973772
0.008612426 -0.13018237 0.33306304 0.9601047 -0.23483168 0.15183258 0.091419384
-0.011630235 -0.19214091 0.33682948 -0.98944068 0.11822089 -0.083851084 0.09292496
-0.010710306 -0.25614128 0.3251656 -0.96517628 -0.20190273 -0.16634314 0.079966977
0.021021757 -0.14643997 0.30259591 0.92213953 -0.20654425 0.32710582 0.084846899
0.013836634 -0.11772826 0.30789867 -0.92561084 0.2483158 -0.28562903 0.1079165
0.019878468 -0.13136302 0.31731871 0.92133605 -0.23111583 0.31261048 0.093056202
0.030040337 -0.15838337 0.31521669 0.96304715 -0.17725089 0.20278648 0.087211043
0.016542943 -0.23276722 0.31210887 0.95041698 0.099224128 0.29472369 0.091848098
0.013353816 -0.23967054 0.33535981 0.94804835 0.12853242 0.29100466 0.092216261
0.0024394393 -0.11229258 0.31775159 -0.96853691 0.23690893 0.076225422 0.11298052
0.022780731 -0.13324898 0.32357496 0.9315834 -0.23022145 0.28133667 0.092574589
0.026758041 -0.15181038 0.32800058 0.96122342 -0.1997285 0.19015273 0.089579642
0.028121978 -0.15316227 0.32779422 0.96518618 -0.19452165 0.1748625 0.088889979
0.02774615 -0.13412121 0.31388766 0.91149771 -0.23275425 0.3391127 0.094723895
-0.0043218168 -0.13021882 0.3227714 -0.94582474 0.23321043 -0.22589466 0.088993013
0.008284363 -0.1005451 0.31660256 -0.78669405 0.099244669 0.60931355 0.12431391
0.02353646 -0.1277813 0.31016326 0.91578043 -0.23437071 0.32621565 0.09839306
0.0083360625 -0.080406606 0.31397349 0.56747472 0.0039235749 -0.82338154 0.15964313
0.010428201 -0.080712199 0.30938941 0.58853084 0.05293192 -0.80674011 0.14865433
0.029837148 -0.18049638 0.32651061 0.99061531 -0.13414402 0.026202941 0.093804456
0.0039312164 -0.098732993 0.31215644 -0.77837282 0.085196473 0.62199455 0.12201574
0.018302822 -0.1329096 0.32840684 0.94774157 -0.22895849 0.22218001 0.091407426
0.018917214 -0.13359433 0.32732376 0.9457323 -0.22789636 0.23163258 0.091233894
0.030102788 -0.15967497 0.32428375 0.97252738 -0.16953859 0.15952168 0.091171116
0.0082396129 -0.13210495 0.33000225 0.95261884 -0.23279481 0.19576475 0.089371197
0.0068601025 -0.25078511 0.33908755 -0.97385943 -0.19230503 -0.12089957 0.089120179
0.015648825 -0.15548307 0.33512741 0.97764081 -0.17916746 0.11008016 0.086490341
0.022172302 -0.13379595 0.32417253 0.93769336 -0.22717339 0.26291335 0.092242964
0.0067545245 -0.17360772 0.33569086 0.99050254 -0.13488455 0.02666522 0.091755934
0.02897335 -0.16760124 0.31992355 0.98564827 -0.14981459 0.077801898 0.092937768
0.013747263 -0.22100908 0.33617327 0.96837592 0.07280229 0.23863757 0.097886741
0.024653386 -0.17512402 0.32284054 0.98901957 -0.14021763 0.046682518 0.097885869
0.0038847767 -0.11182396 0.3214255 -0.94843507 0.23023064 0.21786411 0.1121951
-0.0067339307 -0.25100809 0.33364496 -0.97079349 -0.19215438 -0.14365473 0.080687247
0.0008588995 -0.22681198 0.3409813 0.96916789 0.090186521 0.22930354 0.096636593
-0.0084694931 -0.1568225 0.33226302 -0.97080725 0.18579611 -0.15170074 0.079710007
-0.0088222371 -0.21910919 0.33474705 -0.97191042 -0.083304286 -0.22011477 0.089219525
0.0030906091 -0.11313761 0.31934413 -0.9683513 0.23926856 0.071038157 0.11235332
-0.0078766113 -0.24791688 0.33298528 -0.96450013 -0.17942381 -0.19376953 0.07999821
-0.0041778567 -0.18956646 0.3431581 0.9898178 -0.13700558 0.038602054 0.094968498
0.0021182976 -0.13059874 0.33008885 -0.95698202 0.23511471 -0.17001899 0.089039199
-0.0010614567 -0.11300649 0.31733298 -0.96644753 0.24608965 0.073615246 0.10888142
-0.012950125 -0.17288481 0.33007392 -0.9883467 0.14261784 -0.053206969 0.085959822
-0.016468992 -0.24871172 0.31088623 -0.93758649 -0.17255569 -0.30192065 0.071892224
-0.018662034 -0.2040593 0.31048423 -0.97970092 0.0017714454 -0.20045675 0.075228743
-0.016894385 -0.23269892 0.31915736 -0.94228572 -0.14006209 -0.30410567 0.074400924
-0.017887229 -0.18842441 0.32181153 -0.9865582 0.10974728 -0.1210722 0.078110173
-0.017646395 -0.19693947 0.32350686 -0.98726541 0.084122695 -0.1350197 0.0885019
-0.013432331 -0.19182892 0.33411068 -0.98835182 0.11423253 -0.10055599 0.091010809
-0.0051106531 -0.18225449 0.34039029 -0.99040669 0.13570726 -0.02603958 0.087348856
-0.014289452 -0.14012772 0.3111189 -0.93118519 0.22235927 -0.2888782 0.08550036
-0.0060005561 -0.16220625 0.33693075 -0.98349452 0.16571273 -0.072647773 0.089790434
0.014477158 -0.087930664 0.30986726 0.6563763 0.011054988 -0.75435263 0.14055564
0.0060202484 -0.12633975 0.32850477 -0.95299691 0.2409472 -0.18368816 0.093560472
0.018134303 -0.24067445 0.33326039 0.9456858 0.12760179 0.29899189 0.093873158
-0.013266449 -0.17701317 0.33042559 -0.98990059 0.13787095 -0.032988988 0.086813785
-0.014479955 -0.25947356 0.30879697 -0.9481346 -0.19833222 -0.2484051 0.077720463
-0.018146385 -0.17206052 0.3191123 -0.98686558 0.14573984 -0.069687247 0.086514972
-0.011430939 -0.13261524 0.30795538 -0.92700028 0.23550305 -0.29190549 0.087661579
-0.0015538689 -0.21118633 0.34210017 0.98425937 0.033508211 0.17352411 0.08592432
-0.0030410241 -0.13264154 0.32714954 -0.95146686 0.22962467 -0.20489869 0.088950612
-0.018274488 -0.18101168 0.31567654 -0.98811156 0.12275571 -0.092556342 0.078011349
0.012439176 -0.084539838 0.31144208 0.64125878 0.0074967276 -0.76728803 0.1466431
-0.014789164 -0.24640422 0.32098937 -0.94873196 -0.1674242 -0.26809856 0.075381793
-0.0048664897 -0.15241095 0.28863481 -0.91190583 0.21174662 -0.35155529 0.078963146
-0.00024838984 -0.11154681 0.3114031 -0.9681862 0.23578216 0.083799213 0.1123658
-0.018977758 -0.15927784 0.30725607 -0.96022409 0.18567543 -0.20855291 0.084139407
-0.016490813 -0.15852405 0.30196977 -0.952838 0.18981051 -0.23679484 0.082161993
-0.018245151 -0.17013323 0.30785698 -0.97482204 0.16211219 -0.15310608 0.085255876
-0.014169592 -0.17512611 0.29749623 -0.97219026 0.14119411 -0.18684289 0.084149793
-0.017471928 -0.1559986 0.30492669 -0.94942635 0.19156399 -0.24878283 0.078425482
-0.0011036255 -0.11426559 0.31652319 -0.96831393 0.24952035 0.010377947 0.10507954
-0.0098326746 -0.12854527 0.30840629 -0.92758328 0.23729949 -0.28857964 0.088573307
0.0015492406 -0.15732326 0.28624615 -0.9236294 0.20727053 -0.32240939 0.08111836
-0.0047830562 -0.11921719 0.30585527 -0.92777443 0.25174174 -0.27542809 0.09570723
-0.015831228 -0.15174466 0.30630699 -0.94507921 0.19453423 -0.26264384 0.079091273
-0.0045852191 -0.11804248 0.30843842 -0.93332803 0.2507112 -0.25698757 0.098396748
-0.015124925 -0.15563861 0.30001134 -0.9460938 0.19375087 -0.25955221 0.077875398
-0.0040547275 -0.13222818 0.29664388 -0.91174269 0.23330459 -0.33807436 0.090102769
-0.012822807 -0.13543667 0.30779326 -0.93328106 0.23017031 -0.27569574 0.086843044
-0.008060988 -0.12711263 0.31281003 -0.93603247 0.23717771 -0.25998056 0.089331001
0.0098680146 -0.15801936 0.28731129 0.93349409 -0.19812392 0.29889074 0.082815818
-0.011707435 -0.16822785 0.29355898 -0.96096772 0.17223516 -0.21650887 0.084802434
0.0012807088 -0.11847324 0.30216676 -0.90851045 0.25597551 -0.33028072 0.10070813
0.0052401894 -0.095695615 0.31294373 -0.72476161 0.055223159 0.68678313 0.12872113
-0.013675532 -0.19605632 0.29969832 -0.98324245 0.092713229 -0.1569664 0.085409231
-0.011787281 -0.13208538 0.3084816 -0.92721105 0.23522724 -0.29145837 0.088235475
-0.0050684079 -0.13160278 0.29693174 -0.91583133 0.23458561 -0.32591808 0.089591637
-0.0026389952 -0.11793879 0.30325371 -0.91681147 0.25599915 -0.3064658 0.099380396
-0.0067798328 -0.13201796 0.29908389 -0.91582215 0.23459075 -0.32594001 0.089591257
-0.018840468 -0.21158978 0.31021124 -0.97051054 -0.059306737 -0.2336494 0.079857878
-0.017959213 -0.16838133 0.31854686 -0.98203224 0.15619148 -0.10591014 0.084449515
0.0123454 -0.085722595 0.3118639 0.64922661 0.013959422 -0.76046693 0.14293116
-0.0034901483 -0.12262564 0.30267286 -0.91236675 0.24786019 -0.32581019 0.091922142
-0.016784592 -0.24004738 0.30903384 -0.93226993 -0.14978576 -0.32929778 0.077019125
-0.019110855 -0.18509425 0.3114922 -0.98569542 0.1104742 -0.12727936 0.076509602
-0.0013490665 -0.11428268 0.31521031 -0.96665454 0.2509965 -0.050791744 0.10509124
0.020045809 -0.12566516 0.30391625 0.88623405 -0.24573392 0.39268827 0.099427678
-0.008164688 -0.17337595 0.29044357 -0.95545316 0.15463522 -0.25139064 0.083887197
0.0092261806 -0.24736068 0.28179082 -0.89364779 -0.1716873 -0.4146288 0.078260295
0.0074809529 -0.21177422 0.28301528 -0.95792729 -0.039744917 -0.28424579 0.093527824
-0.0055090999 -0.18941869 0.2901296 -0.9844473 0.10215261 -0.14292789 0.080753393
0.015247872 -0.1144895 0.31115335 0.97760099 -0.20961334 0.018936755 0.12178788
0.010233082 -0.21800929 0.28132296 -0.93478638 -0.11459507 -0.3362177 0.079597488
0.0046012565 -0.25177911 0.28346846 -0.89267057 -0.16958898 -0.41758695 0.082944453
-0.009519144 -0.1598099 0.29198766 -0.94933623 0.1919044 -0.24886444 0.084452361
-0.00055890274 -0.11316051 0.30385721 -0.95662415 0.24889249 -0.1514031 0.10847725
-0.0015947787 -0.11610941 0.3040086 -0.92166781 0.25493437 -0.29246697 0.10410535
0.0059044245 -0.10744201 0.30794224 -0.90258491 0.13953318 0.40727276 0.12166146
0.017515739 -0.12731548 0.30464587 0.90588439 -0.23778854 0.35047123 0.096298479
0.014409797 -0.11401673 0.31769979 0.96940356 -0.20084448 -0.14113158 0.12290348
-0.0025912414 -0.1400805 0.292979 -0.90026641 0.2247292 -0.37285 0.084113181
-0.0010859546 -0.12944673 0.29863632 -0.91610068 0.23733242 -0.32316074 0.089928322
-0.0061059734 -0.13927747 0.29447109 -0.90319723 0.22607629 -0.36486202 0.084510259
-0.0059265802 -0.15594392 0.2891362 -0.92775422 0.20472084 -0.31202799 0.080179937
0.02513255 -0.13430658 0.31930956 0.91863734 -0.22932173 0.32174045 0.093281277
0.016475091 -0.14118256 0.33197165 0.95971757 -0.20896576 0.18781744 0.091577835
0.019445499 -0.23318122 0.33503959 0.96380144 0.086589299 0.25216877 0.10052811
0.025503028 -0.2443594 0.33171943 0.94535619 0.13081008 0.29864782 0.098182708
0.017164523 -0.23173228 0.31198487 0.95607072 0.087205082 0.27986419 0.094951786
0.015055322 -0.094767928 0.32026187 -0.70027578 0.036478914 0.71293968 0.14140576
0.02506748 -0.15420912 0.32881165 0.97336733 -0.18059777 0.14121023 0.088543408
0.028533595 -0.1401161 0.30397299 0.90850973 -0.23017816 0.34875223 0.090918772
0.027801162 -0.13492364 0.31588197 0.91254121 -0.23225859 0.33663699 0.094477825
0.02943513 -0.13695863 0.31410643 0.91479701 -0.23118274 0.33121127 0.093989693
0.018213902 -0.12128428 0.31429926 0.9370774 -0.24032465 0.25323901 0.10670932
0.027520077 -0.13354881 0.31376836 0.91014892 -0.23335992 0.34230402 0.094956629
0.029748807 -0.14024948 0.30619493 0.91164738 -0.22865215 0.3414928 0.090974003
0.025608126 -0.15616871 0.30224994 0.94538015 -0.18993135 0.26491979 0.084865153
0.029280629 -0.19416267 0.3273288 0.98750848 -0.10950749 0.11329232 0.097661346
0.01098721 -0.082762055 0.31495345 0.61133188 -0.0090008061 -0.79132313 0.14793599
0.0078867562 -0.084858835 0.31172854 0.63800883 0.0064782584 -0.77000183 0.14171593
0.023357954 -0.13932551 0.30431756 0.91035652 -0.22877204 0.34483969 0.089534506
0.011657869 -0.11707301 0.31516761 -0.95387459 0.24550001 -0.1727802 0.10924527
0.0062941993 -0.22159278 0.28206018 -0.92789268 -0.12184949 -0.35237452 0.077610344
0.021345476 -0.17951652 0.28623107 0.96966612 -0.1263383 0.20925114 0.089764453
0.023635153 -0.13351461 0.30086485 0.90090495 -0.23731135 0.36339161 0.095067628
-0.0014615302 -0.11448088 0.3066856 -0.95124096 0.25350374 -0.17571737 0.10452599
0.022252593 -0.20084508 0.28196138 0.96504563 -0.063473724 0.25427961 0.10137805
0.0050146324 -0.18353724 0.28290835 0.96745408 -0.12919158 0.2175827 0.081046559
0.0038111934 -0.19177158 0.28392717 0.98285782 -0.1036183 0.15249155 0.085248724
0.005448916 -0.18904823 0.28318229 0.97719705 -0.11081973 0.18112138 0.086166129
