# .PCD v0.7 - Point Cloud Data file format
VERSION 0.7
FIELDS x y z
SIZE 4 4 4
TYPE F F F
COUNT 1 1 1
WIDTH 428
HEIGHT 1
VIEWPOINT 0 0 0 1 0 0 0
POINTS 428
DATA ascii
0.02714959 -0.096194834 0.18541311
0.0084849596 -0.097412832 0.17507771
0.008176282 -0.082734063 0.17519671
0.007965222 -0.094623752 0.1753938
-0.01400804 -0.083085626 0.17480209
-0.01370085 -0.095829137 0.17513891
0.0068444461 -0.095089033 0.1751857
0.02513784 -0.098342218 0.1840772
0.01463844 -0.097838201 0.17760479
0.0069880928 -0.08165507 0.17487121
-0.01265904 -0.095407464 0.1753709
-0.01288101 -0.082399018 0.1751879
0.0093440115 -0.09562102 0.1770937
-0.01391284 -0.096349627 0.1774368
-0.01346197 -0.096831717 0.17750099
-0.0134431 -0.084808484 0.1772171
0.0099579617 -0.098514743 0.17659371
0.0097704679 -0.083860151 0.1764891
-0.01215602 -0.083750457 0.1775856
-0.01239223 -0.051983848 0.2238117
0.0082029998 -0.095373437 0.175927
0.0099825785 -0.1445905 0.17699081
0.0084064156 -0.1477955 0.1768401
0.020162869 -0.1242941 0.18161809
0.01240067 -0.13885771 0.18117779
0.01895852 -0.1220896 0.1810496
0.0067813252 -0.14184991 0.17849299
0.025623349 -0.1187795 0.18193249
0.01548912 -0.098411366 0.17791881
0.015466 -0.1046044 0.17891359
0.01274554 -0.1343707 0.1805037
0.025050521 -0.1193006 0.1860005
0.042447422 -0.13321801 0.2355856
0.01314067 -0.137196 0.1799347
0.018679719 -0.1295123 0.18392789
0.022193329 -0.1047283 0.18821231
0.037993159 -0.1300122 0.2001365
0.01220976 -0.094836228 0.1742413
-0.019968349 -0.092171364 0.18155029
0.01642748 -0.1407145 0.18129291
0.02173695 -0.1274914 0.1793464
0.02056174 -0.1257973 0.1794482
0.016160371 -0.1047805 0.1785603
0.017895071 -0.1008048 0.18097889
0.02447599 -0.1196133 0.1827525
0.02671922 -0.1227548 0.1854672
0.016345659 -0.12907889 0.1802346
0.02959536 -0.1028971 0.1824905
0.0090116709 -0.1517306 0.1773483
-0.0095333904 -0.15319259 0.1785958
-0.01295939 -0.14850371 0.1790137
0.0089083016 -0.1428716 0.1770034
-0.01185881 -0.1006786 0.1788854
-0.0032712221 -0.15155821 0.1769577
0.01077638 -0.1002403 0.17478161
0.01050254 -0.085940532 0.1740308
0.0090231486 -0.085334279 0.1753549
-0.044660792 -0.1563361 0.2144274
-0.01304551 -0.05472238 0.2109158
0.01489693 -0.1370682 0.1786795
-0.01023716 -0.095312878 0.1797087
-0.01293731 -0.099982798 0.17677429
-0.01143271 -0.15163919 0.1787665
-0.02981114 -0.1073974 0.18998221
-0.01376402 -0.05453831 0.2202844
-0.002848953 -0.0547948 0.2205321
-0.044890761 -0.14486399 0.2100247
-0.026702311 -0.092719764 0.2493511
-0.0074391072 -0.1524744 0.26592731
-0.03709447 -0.1044472 0.2116871
-0.037546519 -0.12636369 0.20222349
-0.041262541 -0.1230243 0.2061944
-0.043403208 -0.107191 0.214224
0.01910403 -0.056829441 0.21404921
0.0059594209 -0.055115439 0.2293593
-0.01740359 -0.056305341 0.2357291
-0.037990779 -0.1248626 0.2016068
-0.017269161 -0.1375511 0.18532109
-0.0332762 -0.1281496 0.2050603
-0.01385792 -0.058683049 0.21587349
-0.04026781 -0.13759179 0.2271549
-0.040220801 -0.1496007 0.2116932
0.0066201389 -0.05691646 0.2303749
-0.040953711 -0.1322007 0.2140225
-0.007989496 -0.05536766 0.2124705
0.016630931 -0.056337591 0.1945627
-0.03909849 -0.1030162 0.212401
-0.03809442 -0.12509251 0.207137
-0.0072345729 -0.1060746 0.1810616
0.0162508 -0.056456339 0.2142463
-0.001602307 -0.055325031 0.20487811
-0.01312143 -0.057158899 0.22809079
-0.00080227852 -0.055880029 0.22137541
-0.017291579 -0.14155 0.25615919
-0.019691911 -0.1106409 0.18442149
-0.01016475 -0.05801199 0.2052758
0.01201585 -0.05561585 0.2230787
-0.035879519 -0.1232876 0.19691829
-0.033610761 -0.1038416 0.1887669
0.00087250769 -0.054232541 0.2207424
0.017005561 -0.052511621 0.21881939
-0.034724489 -0.065873057 0.2271509
-0.01236287 -0.1472182 0.1849672
0.01492864 -0.052311938 0.21241771
-0.041938718 -0.13083971 0.21138769
0.002505153 -0.051199239 0.2048914
-0.040521231 -0.14922009 0.2072732
-0.04115054 -0.101732 0.2096974
-0.01848403 -0.05331384 0.2260592
-0.00097808242 -0.090558298 0.1758265
0.01458609 -0.05323517 0.22124571
0.01393905 -0.050018359 0.2183239
-0.044506669 -0.096140593 0.20842201
-0.097585417 -0.15795711 0.225674
-0.016256601 -0.055851329 0.21330141
-0.03344455 -0.1584941 0.2838538
-0.007615238 -0.15784299 0.2617242
-0.042204499 -0.1065405 0.2120067
-0.042559769 -0.099121183 0.21125241
-0.024001431 -0.099529013 0.25493839
0.01381075 -0.052978318 0.2339126
0.021675941 -0.15421 0.25826949
-0.041100401 -0.1276484 0.2340124
-0.00268507 -0.1397448 0.1825503
-0.038582951 -0.1243936 0.2273823
-0.034109291 -0.1054702 0.2440756
-0.029076871 -0.074305877 0.1906798
-0.037823781 -0.1554618 0.18899859
-0.04683527 -0.15841711 0.20272391
-0.044255201 -0.1401035 0.2333461
0.02009647 -0.091064803 0.25491801
-0.015902231 -0.1004953 0.2582525
0.0094170785 -0.1003767 0.26012781
0.001292294 -0.1580738 0.30117419
0.02334171 -0.05122051 0.22275659
-0.042842578 -0.1288154 0.2305191
0.032075051 -0.1496323 0.22774839
-0.040443871 -0.13561431 0.24951421
0.01391755 -0.1021356 0.25492731
-0.01406741 -0.056977391 0.2047575
0.02495064 -0.090931363 0.2494256
-0.016992539 -0.055999231 0.2136967
0.02412108 -0.092009977 0.25025621
0.028106591 -0.111687 0.2480976
0.03045572 -0.1010033 0.2464595
0.039736271 -0.1138776 0.1902298
0.028270621 -0.1090523 0.24730229
0.039086848 -0.1424229 0.1912774
0.01241644 -0.05834521 0.2268883
0.0201091 -0.090049706 0.2563059
0.0033453261 -0.1026628 0.2569719
0.015805179 -0.1523239 0.256423
0.01093754 -0.056173701 0.20448489
0.01363486 -0.055327792 0.22025371
0.032930139 -0.1018957 0.2464364
0.03839748 -0.15391611 0.1905535
-0.00080621243 -0.056103401 0.22366381
0.035441339 -0.103123 0.2372739
0.005337134 -0.057650719 0.2194656
0.040087551 -0.069137037 0.2253609
0.02548158 -0.1529658 0.2499008
0.039695431 -0.1443201 0.1896098
-0.003132194 -0.050106902 0.20900489
0.041363869 -0.1467707 0.23416691
0.03137004 -0.1578072 0.25590739
-0.047847591 -0.15629239 0.28422481
-0.020060381 -0.1582081 0.2718755
0.00069861859 -0.053932589 0.2114308
-0.027668159 -0.096511327 0.25592431
-0.061102331 -0.1499377 0.38231599
0.005637385 -0.05038178 0.2188192
0.0027422761 -0.104457 0.2650474
-0.01462243 -0.049996469 0.2235951
0.0024656579 -0.098015793 0.2615065
-0.078885213 -0.15762819 0.37090471
-0.0097095966 -0.052957099 0.2012527
0.003607363 -0.051839288 0.2112622
-0.032367151 -0.15825941 0.28455251
-0.05942497 -0.1586818 0.2718001
-0.017185399 -0.05066948 0.2116262
0.002775013 -0.05053192 0.2239265
-0.02655898 -0.098605983 0.2576265
0.028041439 -0.1573284 0.25597641
-0.01082058 -0.15650401 0.28666371
-0.025003141 -0.05162723 0.2090821
-0.004363656 -0.157437 0.28460479
-0.044537399 -0.1493278 0.2037712
-0.048491981 -0.1577266 0.28438789
-0.06460306 -0.155826 0.2581774
-0.03519718 -0.1569161 0.29148069
-0.03439619 -0.15842 0.259267
-0.073020346 -0.1545395 0.2600587
-0.069868043 -0.1508676 0.32108769
-0.072391041 -0.1497817 0.32458699
-0.058198702 -0.1562508 0.30748111
-0.041342542 -0.15524741 0.3335509
-0.06151427 -0.1564175 0.30458519
-0.042282101 -0.1586208 0.2799103
-0.069875903 -0.1586732 0.24640711
0.001250356 -0.15768141 0.28413251
-0.035191178 -0.1159514 0.21748631
-0.04931495 -0.1399312 0.2162808
-0.075030319 -0.1585546 0.31682089
-0.01914889 -0.1009492 0.25871161
0.00041460991 -0.1077514 0.26333791
-0.049828261 -0.1200758 0.2184713
-0.04745879 -0.1230091 0.2155745
-0.02616244 -0.052212331 0.2166633
-0.047598351 -0.1513411 0.21589801
0.04201467 -0.1162795 0.2386784
0.0020721001 -0.096171454 0.26322111
-0.088321313 -0.15844759 0.30211481
-0.01655497 -0.14711221 0.26171821
0.040716521 -0.15218911 0.2355092
0.02230294 -0.084848583 0.25699389
0.0075371149 -0.1004101 0.26214889
-0.018578419 -0.1005604 0.26004019
0.024134999 -0.1075745 0.25357589
0.01065422 -0.1043161 0.26124209
-0.0169835 -0.052408028 0.2101481
0.0024558899 -0.069329724 0.2639164
0.007096089 -0.099572822 0.2630471
-0.047601301 -0.1372439 0.23535509
-0.045725212 -0.13777369 0.2354002
0.0060328539 -0.1086139 0.2626192
0.01311643 -0.1010094 0.2605232
0.01718701 -0.1082451 0.25904509
0.016111391 -0.089033499 0.257752
0.01523922 -0.088047899 0.25985989
0.021890299 -0.086919807 0.25490311
-0.033217739 -0.112928 0.2405622
0.0098537058 -0.1107994 0.26424581
0.041761018 -0.1355982 0.20925809
0.01164348 -0.096843697 0.26032189
0.0076511581 -0.1086257 0.262402
0.01313885 -0.1010884 0.2593953
0.0046564708 -0.052117299 0.2329471
0.0131714 -0.14570861 0.2628653
0.0099015608 -0.1096708 0.26061681
-0.0078071882 -0.1490548 0.2628167
0.0064480598 -0.097739182 0.26082671
-0.01949702 -0.098834023 0.26160759
-0.051414751 -0.1131823 0.2309442
-0.048339851 -0.1286896 0.23164129
-0.01999834 -0.051860008 0.2201108
-0.01846914 -0.1032077 0.26250711
-0.01625615 -0.051758949 0.22165319
-0.048142519 -0.1363923 0.2389348
-0.04538317 -0.1331315 0.24189501
0.041681599 -0.1373962 0.2056835
0.01472384 -0.090597659 0.25786641
-0.043445911 -0.089335732 0.2435281
0.01092222 -0.1018104 0.26416051
-0.00097286701 -0.1074105 0.26535809
0.01380655 -0.1003429 0.26113749
0.0095138354 -0.097135812 0.26132151
0.02817132 -0.094749987 0.2536701
-0.0091713667 -0.1491068 0.26243269
-0.0042972709 -0.1012171 0.263028
0.02684444 -0.102119 0.2552259
0.02416664 -0.1072812 0.2549881
0.019634221 -0.089936458 0.25372919
0.01467389 -0.08956331 0.25954279
0.01328495 -0.1470909 0.26198351
0.044038471 -0.1528006 0.2181453
0.01067045 -0.1033302 0.26156211
0.0083142351 -0.1083176 0.26222679
0.01337717 -0.14924151 0.2593073
0.01516977 -0.088889293 0.25844321
0.042065948 -0.118961 0.21902069
0.039582219 -0.1546554 0.2288713
-0.05219448 -0.15409151 0.21214829
-0.03478644 -0.10292 0.24705119
0.02741625 -0.098165661 0.2480897
-0.05626953 -0.1493621 0.2148255
-0.049259849 -0.15371069 0.2358806
0.05175643 -0.15573069 0.1859708
0.01040868 -0.1030776 0.26174441
-0.020581329 -0.098781407 0.2630474
-0.028426411 -0.097812757 0.25743309
0.007351696 -0.1079426 0.26310319
0.016306641 -0.1492815 0.2570529
-0.001291573 -0.1078051 0.26279879
0.034097571 -0.1027276 0.23621289
0.02809603 -0.095657133 0.2434936
-0.0046229879 -0.092409126 0.25583139
-0.026328331 -0.1362 0.1884089
-0.04445171 -0.1187257 0.2100368
-0.044580039 -0.13330901 0.2285385
-0.04716238 -0.12546089 0.2400375
-0.026510751 -0.098921157 0.2570087
-0.03592607 -0.1376964 0.21483649
-0.033829749 -0.1249751 0.22887
-0.047095269 -0.1164036 0.2245453
-0.041229099 -0.1225864 0.23241331
-0.037698951 -0.1048083 0.2479642
-0.038449019 -0.1094441 0.2438931
0.0107283 -0.1487668 0.25889999
-0.02496508 -0.1023789 0.1882643
0.0133751 -0.1466127 0.2543731
-0.03099346 -0.1034821 0.25278309
-0.045084059 -0.1105299 0.2121464
0.007336617 -0.113651 0.25626621
-0.01342312 -0.090357199 0.25904751
-0.04688397 -0.1032931 0.21504989
0.0055310731 -0.089714073 0.26056319
-0.083679967 -0.15338869 0.22325779
-0.044854909 -0.1283908 0.21284249
-0.043672949 -0.1202534 0.20147599
-0.0424833 -0.1498868 0.2115404
-0.01379308 -0.1097268 0.18633761
-0.046559099 -0.1197467 0.2146458
-0.043067571 -0.1153604 0.20726921
-0.046032071 -0.1329539 0.22654299
0.0087423623 -0.1551187 0.1749585
-0.035693049 -0.13872389 0.1924058
-0.04566893 -0.13327751 0.21127141
-0.044477131 -0.13470159 0.2160524
-0.061652388 -0.155394 0.253187
-0.022019001 -0.1142625 0.25443679
-0.033115279 -0.1024028 0.18701909
-0.040983289 -0.12961119 0.2367738
-0.045157131 -0.1103199 0.2107269
-0.01640589 -0.1029816 0.1808687
-0.04317702 -0.096147247 0.2075496
-0.01557742 -0.099918969 0.1794789
0.00720267 -0.1512309 0.17805029
0.01052853 -0.14835989 0.1806481
-0.0092039108 -0.1563289 0.1800223
-0.01465675 -0.1521921 0.1795909
0.01406828 -0.1025554 0.1805595
0.007675529 -0.099295683 0.17611951
0.01275155 -0.13544521 0.1788072
0.007374004 -0.1428061 0.17754941
0.020096211 -0.1275624 0.1811786
-0.015846949 -0.1479546 0.17924801
0.01479696 -0.13743401 0.1781566
0.01843393 -0.1252244 0.18046901
-0.02093889 -0.1402532 0.1824574
0.024078291 -0.1189855 0.1827912
0.01304325 -0.1039929 0.17722391
0.02200928 -0.1100212 0.18202581
0.01004408 -0.137628 0.17744289
0.017378001 -0.099114999 0.1814016
0.02558627 -0.1202811 0.18334401
0.023867071 -0.1198658 0.1829299
0.01369711 -0.1035252 0.1754033
0.030469351 -0.1033396 0.1864416
0.00040728599 -0.1511807 0.1762768
0.01520735 -0.13609479 0.1773916
0.02005573 -0.1282957 0.1795598
0.01270567 -0.104168 0.1759654
-0.01290855 -0.1042751 0.1773984
0.01372118 -0.1375498 0.1799185
-0.0086582601 -0.121376 0.181133
-0.036923259 -0.1235731 0.192974
2.717972e-05 -0.1518409 0.31488979
-0.01190355 -0.093599573 0.1777074
-0.017851559 -0.1203808 0.18735179
-0.043815549 -0.1056145 0.2138222
0.025370959 -0.15639859 0.3224861
-0.0389865 -0.1043552 0.2099013
-0.04284111 -0.14691921 0.2103848
0.006892323 -0.1025132 0.2550725
-0.0025858879 -0.1200247 0.24723829
-0.02743696 -0.091434173 0.26201111
-0.020037061 -0.1365758 0.18375079
0.03014341 -0.1478312 0.27099979
0.025557909 -0.1014728 0.2482284
0.003629386 -0.098924503 0.2660743
-0.03989001 -0.1533847 0.19173411
-0.031466089 -0.1272558 0.21660329
0.01926765 -0.12971979 0.2489551
-0.02480004 -0.094140962 0.25866911
-0.04068017 -0.1040952 0.2089095
-0.06154735 -0.15276121 0.25800961
-0.080606744 -0.15055311 0.30082521
-0.048419449 -0.1197971 0.23120099
0.016859241 -0.089852482 0.2569381
-0.036659431 -0.1145061 0.25346249
0.01936199 -0.15480649 0.287857
0.043654319 -0.1547827 0.2295001
0.033137649 -0.1120498 0.2307609
-0.059281871 -0.15384801 0.25912511
0.04239798 -0.1305332 0.2062881
0.01151221 -0.098389611 0.26505169
0.01307075 -0.14196751 0.26453999
0.0018204449 -0.1014341 0.26881859
0.04134253 -0.112609 0.2077785
0.01240301 -0.09298946 0.26345891
0.01494296 -0.1074406 0.2634578
0.02904384 -0.092160732 0.25547811
-0.081111804 -0.15586831 0.40171751
0.04173249 -0.1132472 0.2039101
0.094400637 -0.15465879 0.27960539
0.044759899 -0.1536584 0.2135812
0.068853892 -0.15262081 0.29802179
0.025551099 -0.15626539 0.3181738
0.084316999 -0.1561268 0.28136581
-0.050680071 -0.1562425 0.26589239
0.009981513 -0.1026108 0.26550409
-0.064780161 -0.1479298 0.2371401
0.02482599 -0.1015558 0.25768551
0.029500719 -0.092977233 0.25318861
-0.066353098 -0.1553901 0.2306319
-0.019310949 -0.092113383 0.26159349
0.01167548 -0.090644807 0.26432481
0.01029912 -0.097697861 0.26503989
0.01338142 -0.094509527 0.26378399
0.01804146 -0.1017354 0.26282811
0.001668572 -0.090650141 0.2664223
0.04674178 -0.154734 0.237909
-0.0135459 -0.097845659 0.26711029
0.0086374581 -0.093150027 0.26724091
-0.002497494 -0.094220906 0.26738951
0.026797149 -0.091079786 0.25475529
0.030553341 -0.094093792 0.1985348
-0.01789555 -0.1357605 0.2547498
0.02540946 -0.1381074 0.2496414
-0.0082013914 -0.1425067 0.26592341
0.039761279 -0.1195544 0.21006291
0.03497133 -0.090409487 0.24860311
-0.01639715 -0.090214357 0.26372111
0.038748041 -0.099937387 0.2126659
-0.0080698729 -0.1433575 0.26922199
-0.021540551 -0.1535286 0.26340729
0.054077402 -0.1545942 0.2129281
-0.0100086 -0.1055989 0.26034999
