# .PCD v0.7 - Point Cloud Data file format
VERSION 0.7
FIELDS x y z normal_x normal_y normal_z curvature
SIZE 4 4 4 4 4 4 4
TYPE F F F F F F F
COUNT 1 1 1 1 1 1 1
WIDTH 498
HEIGHT 1
VIEWPOINT 0 0 0 1 0 0 0
POINTS 498
DATA ascii
-0.011408092 -0.16115251 0.1822544 -0.27249023 -0.70668656 -0.65294969 0.13378641
-0.004141862 -0.16142866 0.18031165 -0.24875629 -0.67095202 -0.69852966 0.13589559
0.0074115261 -0.16041818 0.18216476 -0.10512714 -0.76278764 -0.63804638 0.14734101
0.011885864 -0.16053574 0.18267384 -0.029144816 -0.77850461 -0.62696189 0.1479467
0.017685711 -0.16180372 0.18468161 0.032978401 -0.78593457 -0.61742949 0.14892727
-0.030440463 -0.15778869 0.1920307 -0.37685856 -0.65118879 -0.65873426 0.12555657
-0.024159733 -0.16151845 0.18706745 -0.33529821 -0.67886764 -0.65323335 0.12304965
-0.017068602 -0.16157456 0.18370581 -0.2737056 -0.70580614 -0.65339333 0.13080344
-0.0070784655 -0.16146627 0.18122359 -0.26194432 -0.69696903 -0.66754729 0.13502321
0.014823718 -0.16116086 0.18325168 0.015937086 -0.7672314 -0.64117247 0.14939138
0.022785747 -0.16050194 0.18705766 0.16165392 -0.79134017 -0.58961743 0.16186836
0.033699185 -0.15756816 0.19015661 0.46465403 -0.6718877 -0.57676989 0.1727832
0.051493268 -0.15851714 0.18615803 0.72631627 -0.43246046 -0.53426832 0.12678352
-0.032535933 -0.1566339 0.19483793 -0.35092229 -0.70529729 -0.61596203 0.13208731
-0.028252032 -0.15790375 0.19117466 -0.35248294 -0.68301511 -0.63972348 0.13090284
0.016594958 -0.16064622 0.19460273 -0.0040884642 -0.86194706 -0.50698173 0.16756353
0.035359822 -0.15725558 0.1940968 0.53183174 -0.68148589 -0.50272453 0.17711712
-0.03867339 -0.154567 0.20677185 -0.4523243 -0.75931555 -0.46780625 0.17025724
-0.034670927 -0.15746178 0.20547333 -0.35100308 -0.82326156 -0.44613588 0.15765853
-0.024622938 -0.15980996 0.20886457 -0.22334999 -0.88677967 -0.40464371 0.17193016
-0.012106131 -0.16118003 0.20501906 -0.12498437 -0.89532685 -0.42751449 0.18076029
-0.0048146993 -0.1614984 0.20504522 -0.11083364 -0.90418535 -0.4125104 0.18150747
0.002505153 -0.1614984 0.2048914 -0.08180587 -0.9251098 -0.37078252 0.19966085
0.01093754 -0.1614984 0.20448489 -0.0015390711 -0.93988699 -0.34148228 0.20807394
0.037101097 -0.15903133 0.20030858 0.65083432 -0.67319328 -0.35103509 0.17581619
0.039639127 -0.15827957 0.20730714 0.80820978 -0.56347692 -0.17114539 0.17716558
-0.043871105 -0.15511036 0.21955945 -0.4999496 -0.81982577 -0.27917045 0.20030305
-0.041393001 -0.15520866 0.21657705 -0.47713274 -0.82852125 -0.29308164 0.19731787
-0.034427762 -0.15831581 0.21613805 -0.32363042 -0.90688664 -0.26985192 0.18615907
-0.02591032 -0.15983832 0.21677539 -0.1519755 -0.96143275 -0.22923881 0.2018787
-0.015704652 -0.16107336 0.21259663 -0.08822801 -0.94873786 -0.30350003 0.19816086
-0.0079850424 -0.16134138 0.21247077 0.071571901 -0.97834945 -0.19419026 0.21728696
0.003820125 -0.1614984 0.21524446 0.15386698 -0.98282665 -0.10186622 0.2265268
0.016239326 -0.16123815 0.21557121 0.33487779 -0.94214422 -0.014869847 0.22436178
0.038540728 -0.15834574 0.21103413 0.83643198 -0.5400247 -0.093567729 0.17542826
0.043298494 -0.15705535 0.21642821 0.90691531 -0.4213118 0.00099595368 0.15666451
0.052052949 -0.15600707 0.21239215 0.93869334 -0.32948089 -0.10147537 0.1418183
-0.083679967 -0.1614984 0.22325779 -0.97259277 -0.1197335 -0.19931696 0.13572457
-0.043407943 -0.15707363 0.2277008 -0.41294935 -0.90705198 -0.082033724 0.22240135
-0.035238255 -0.15892324 0.2281256 -0.22202703 -0.97491485 0.015652748 0.2229964
-0.015512289 -0.16125117 0.22337447 0.10111851 -0.99486035 0.0052763247 0.2231839
-0.0014858147 -0.1614984 0.22185712 0.20260678 -0.97826558 -0.044124678 0.22222719
0.0032023138 -0.1614984 0.22467607 0.37948543 -0.91898483 0.10704097 0.22170705
0.01315855 -0.16131106 0.22286615 0.3890399 -0.91379482 0.11673466 0.22299431
0.023218535 -0.16040035 0.22262494 0.43601421 -0.88413626 0.16791272 0.21226148
0.034062173 -0.15847985 0.2279485 0.77006924 -0.61682194 0.162862 0.16514994
0.040396776 -0.1556267 0.22592244 0.91759425 -0.37380156 0.13525198 0.14193796
-0.062996238 -0.1576131 0.23846355 -0.94337887 -0.33171153 -0.0019525462 0.21088442
-0.050809197 -0.15720528 0.23162676 -0.6341306 -0.76901335 -0.080603555 0.22678882
-0.044669807 -0.15843695 0.23426506 -0.47067195 -0.88202715 0.02227439 0.23412113
-0.017393256 -0.16119683 0.23572406 0.14789353 -0.96946114 0.19563395 0.22133076
0.0056359204 -0.1613889 0.23166008 0.39975277 -0.88176441 0.25037828 0.21475808
0.013745422 -0.16067456 0.23388389 0.44796723 -0.85117245 0.27355206 0.20457312
0.032566331 -0.1569445 0.2342235 0.76979184 -0.60500282 0.20345047 0.17193152
0.036135457 -0.15622695 0.23381445 0.8819629 -0.43901649 0.17148155 0.14765
-0.070980825 -0.15923735 0.24660651 -0.99017644 -0.028702632 0.13684578 0.19388582
-0.043294191 -0.15793875 0.24317126 -0.75039035 -0.51327097 0.41649395 0.26481435
-0.035065182 -0.15904267 0.24443011 -0.19429518 -0.92452705 0.32787055 0.2586166
-0.026627896 -0.15944833 0.24901552 -0.051652148 -0.91948313 0.38972124 0.24369918
-0.0024661364 -0.16047804 0.24704176 0.33648932 -0.87413174 0.35024083 0.20730099
0.01931984 -0.15891774 0.24774316 0.40653166 -0.82232738 0.3981328 0.19208622
0.02653625 -0.15661106 0.24685077 0.51090896 -0.77040327 0.38138029 0.18472062
0.030784324 -0.15670599 0.24604601 0.74379361 -0.56993932 0.34919935 0.16702908
-0.062783554 -0.15854381 0.25672653 -0.91762298 0.053404655 0.39384767 0.21521854
-0.059506681 -0.15817389 0.25940618 -0.8414371 0.17909685 0.50981164 0.21603733
-0.033896752 -0.15868968 0.25488713 -0.61830473 -0.26783976 0.73889172 0.25680447
-0.026611237 -0.15769032 0.25684792 -0.40925378 -0.52196735 0.7483725 0.25801376
-0.016887063 -0.15933861 0.25580087 0.093168274 -0.82616538 0.55567122 0.23828539
-0.0047134804 -0.1619973 0.25614706 0.24301626 -0.82600003 0.50859314 0.20899692
0.0056083924 -0.16063967 0.25464976 0.32842246 -0.8350448 0.44140556 0.19508132
0.014521744 -0.15901121 0.25345191 0.39632228 -0.81239361 0.42772093 0.18756719
0.026471647 -0.15771115 0.25500298 0.6282565 -0.58296508 0.51521403 0.17954205
0.031591572 -0.15852177 0.25462186 0.78000063 -0.3752712 0.50076997 0.13864878
-0.073184416 -0.16079184 0.26016146 -0.88239729 0.29372725 0.36755869 0.17906819
-0.050399423 -0.15866826 0.26598421 -0.69618106 0.23106149 0.67966354 0.21449836
-0.023022696 -0.15732907 0.25885001 -0.36201862 -0.42949662 0.82733011 0.2534335
-0.016891539 -0.15618315 0.2587921 -0.022528069 -0.69056195 0.72292238 0.2461039
-0.0068067219 -0.15928419 0.25853243 0.19641595 -0.80767041 0.55595815 0.22264789
0.0044015427 -0.15818061 0.2563386 0.3170985 -0.8350051 0.44968316 0.19747986
0.012009936 -0.15842697 0.2550436 0.35288697 -0.81995934 0.45070776 0.19206432
-0.059449159 -0.15937555 0.27203745 -0.71578139 0.3312045 0.61478502 0.20861091
-0.042251967 -0.1590142 0.27986091 -0.53396118 0.14696862 0.83263773 0.1910034
-0.020790657 -0.157626 0.27213949 -0.38073415 -0.057798639 0.92287636 0.21062396
0.029262897 -0.15269053 0.26694632 0.62510526 -0.23574825 0.7440874 0.12785491
-0.048138976 -0.15902665 0.2842496 -0.61449486 0.29632193 0.73115617 0.19573617
-0.032867569 -0.15886214 0.28414226 -0.50743318 0.13939564 0.85034138 0.17871626
-0.010803442 -0.15909328 0.28667182 -0.057823323 -0.11838549 0.99128264 0.16836022
-0.004237128 -0.15906602 0.28463125 -0.0049443957 -0.13021809 0.99147308 0.15988965
0.0011381272 -0.15877286 0.28425151 0.10732672 -0.14865379 0.98304778 0.1530294
0.019362029 -0.1614984 0.28785679 0.51578641 -0.12600708 0.84739989 0.095499858
-0.034980677 -0.15878363 0.29109684 -0.36594084 0.14391667 0.91944295 0.16151021
0.0014007672 -0.15981115 0.30118141 0.22991323 -0.016695894 0.97306794 0.11349715
0.024832385 -0.09722396 0.18839242 0.84723777 0.35906965 -0.39148074 0.1801132
0.0082343724 -0.096881621 0.1779085 0.12793732 0.32031232 -0.93863308 0.19386074
0.0081726713 -0.082715929 0.17527476 0.083380148 0.43402305 -0.89703494 0.1602501
0.0078748651 -0.09425085 0.1774745 0.085846275 0.34535706 -0.9345367 0.17940199
-0.013623087 -0.082878724 0.17657158 -0.52006388 0.29948527 -0.79990137 0.084143385
-0.012260432 -0.09488754 0.17891306 -0.57299292 0.27812007 -0.77092695 0.14295708
0.0068756044 -0.094637185 0.17761214 0.064168371 0.35037246 -0.93440974 0.18350287
0.023329388 -0.099196523 0.18649857 0.83813947 0.34030595 -0.42627952 0.18412636
0.013859519 -0.097844258 0.17915604 0.45909104 0.35495329 -0.81439769 0.1977028
0.0069998163 -0.081629999 0.17524792 0.061376542 0.43446279 -0.89859617 0.15960872
-0.011757359 -0.094485641 0.17882374 -0.56807196 0.28740874 -0.77116174 0.14190166
-0.012725684 -0.082263663 0.17648983 -0.50907886 0.30353826 -0.80542123 0.089234978
0.0092197089 -0.095553987 0.17760178 0.15483899 0.35278851 -0.92280275 0.18894459
-0.013202563 -0.095901906 0.17925875 -0.5917998 0.28157967 -0.75530511 0.14413814
-0.012786795 -0.096402444 0.17925277 -0.5842793 0.27239099 -0.76447427 0.14547604
-0.013526863 -0.084824577 0.17692383 -0.53707427 0.3050034 -0.78646308 0.09675663
0.0095257824 -0.09829098 0.17803955 0.14628923 0.31509602 -0.93771738 0.19203556
0.010013142 -0.083906122 0.1758377 0.21179682 0.43357244 -0.87587506 0.15984622
-0.012275134 -0.083849594 0.17665978 -0.50403625 0.30916223 -0.80645281 0.10109474
-0.012435817 -0.054341484 0.22383498 -0.58739793 0.79191029 0.1668586 0.18659201
0.0081103528 -0.095099241 0.17747675 0.0838769 0.34735867 -0.93397361 0.18193777
0.0098143658 -0.1447418 0.17934714 -0.15785059 -0.67442673 -0.72127086 0.16714646
0.0083835926 -0.1478631 0.17940523 -0.15570502 -0.68942636 -0.70742291 0.16399042
0.020151878 -0.12431734 0.1817372 0.29003641 -0.075012483 -0.95407128 0.25914249
0.012179363 -0.13849336 0.17960899 -0.11433534 -0.66985548 -0.73363554 0.1930131
0.018923778 -0.1220874 0.18112834 0.26346946 0.0077973278 -0.96463621 0.24681589
0.0068175723 -0.14197387 0.17947441 -0.17752947 -0.66103423 -0.72905213 0.16400625
0.024227241 -0.11882427 0.18451013 0.78175288 0.19173136 -0.5933814 0.23196501
0.014662644 -0.098417349 0.17956695 0.53930712 0.33971301 -0.77054709 0.19656035
0.015183034 -0.10465971 0.17939134 0.45274255 0.26002842 -0.85288298 0.20414253
0.012728495 -0.13431714 0.18024032 -0.080228694 -0.64338052 -0.7613309 0.21255353
0.025193432 -0.11928423 0.18509632 0.82406223 0.16555637 -0.5417679 0.22922499
0.04179398 -0.13322784 0.2348576 0.98627096 -0.05433201 0.15594134 0.14631404
0.01308047 -0.1371198 0.17974927 -0.099205911 -0.66578883 -0.73951572 0.20211178
0.019709658 -0.12964875 0.18155907 0.13921592 -0.57869887 -0.80357111 0.25838304
0.023757949 -0.10448108 0.18586694 0.8357088 0.31689397 -0.44851875 0.19143176
0.039961696 -0.1298001 0.19949433 0.97021925 0.086476207 -0.22626647 0.16121447
0.010508516 -0.094865769 0.17744564 0.20721453 0.37131569 -0.90508932 0.18292925
-0.02015949 -0.092299469 0.18111505 -0.66261148 0.29098508 -0.69012588 0.11178564
0.016114369 -0.1402221 0.17931671 -0.072652929 -0.66804165 -0.74056864 0.18404502
0.020465327 -0.12726346 0.18184827 0.29268733 -0.30025452 -0.90784431 0.26896119
0.019549903 -0.12563451 0.18150848 0.2561143 -0.16753551 -0.95201743 0.26620802
0.015551628 -0.10485765 0.17964178 0.4893662 0.26913774 -0.82950926 0.20578912
0.017798336 -0.1008385 0.18109384 0.74618429 0.32230172 -0.58252084 0.19046089
0.02365016 -0.11959474 0.18416509 0.74565071 0.19307171 -0.63775253 0.23865885
0.026179984 -0.1226907 0.18618868 0.85533726 0.10409854 -0.50750542 0.23658732
0.01627245 -0.12909997 0.18057871 -0.0023479068 -0.49992257 -0.86606693 0.24085602
0.025761597 -0.10381802 0.187604 0.84982222 0.31251886 -0.42442212 0.18579821
0.0088937609 -0.15166579 0.17986712 -0.14314552 -0.69621652 -0.70341438 0.15588295
-0.00898486 -0.15338583 0.18114871 -0.26764795 -0.68919426 -0.67333192 0.137061
-0.012047764 -0.1486946 0.18191025 -0.26912811 -0.69792384 -0.66368097 0.14626215
0.0088576069 -0.14313346 0.1793547 -0.17346188 -0.65820837 -0.73257947 0.16765141
-0.011564619 -0.10031809 0.18021546 -0.6068458 0.3076182 -0.73287737 0.17316198
-0.0028539742 -0.15170506 0.18002856 -0.23823564 -0.67678398 -0.69656825 0.14722608
0.0097300541 -0.09967687 0.17830083 0.19165413 0.30728602 -0.932118 0.19824888
0.0098235123 -0.085852534 0.17618778 0.22741155 0.4480916 -0.86457962 0.17353243
0.00887655 -0.085290402 0.17596969 0.18599762 0.43699548 -0.88002259 0.16699737
-0.042087987 -0.15406537 0.21595921 -0.50697011 -0.80643916 -0.30436358 0.20144086
-0.013013534 -0.053864576 0.21092629 -0.56464481 0.81686366 0.11794031 0.1993008
0.014908094 -0.13727522 0.17996109 -0.064791813 -0.70153618 -0.70968229 0.2097196
-0.010399527 -0.095547304 0.17896248 -0.55974478 0.28891039 -0.77667022 0.15586667
-0.011810772 -0.09917888 0.17997205 -0.59586191 0.29185486 -0.74817735 0.16652387
-0.010737095 -0.15184195 0.18154864 -0.28080872 -0.6878407 -0.66934419 0.13956773
-0.030035172 -0.10760961 0.18922447 -0.75414765 0.28282058 -0.59268355 0.15021816
-0.013755355 -0.054153226 0.22027536 -0.5978837 0.78402233 0.16686554 0.18456922
-0.0028531188 -0.054054022 0.22054642 -0.39252794 0.91393536 0.10316974 0.21625449
-0.042621449 -0.1455339 0.21309668 -0.72093743 -0.50757498 -0.47182289 0.22293586
-0.0294903 -0.093263976 0.25299093 -0.69109303 0.48819178 0.53297204 0.10436273
-0.0090487376 -0.15408519 0.25945869 0.13013467 -0.79018497 0.59889287 0.23514095
-0.042704534 -0.10446501 0.21275698 -0.85180461 0.4772068 -0.21610789 0.16428588
-0.037664376 -0.12651154 0.20225982 -0.86209583 0.31930289 -0.39349267 0.21318667
-0.039686736 -0.12292859 0.2068751 -0.88169277 0.35826397 -0.30702552 0.19605654
-0.042860921 -0.10711004 0.21426536 -0.85620844 0.47146767 -0.21124725 0.16653298
0.019222766 -0.054350678 0.21401425 0.78778881 0.61561233 -0.020253818 0.16925991
0.0059372527 -0.054304 0.22940396 -0.059436519 0.98416889 0.16696988 0.21190041
-0.017486207 -0.056070231 0.23571403 -0.63253522 0.73027766 0.25805753 0.1614702
-0.03758036 -0.1249437 0.20181742 -0.86388099 0.33665401 -0.37466484 0.20111416
-0.017432749 -0.13740534 0.18474402 -0.29185432 -0.70113802 -0.65055865 0.15551215
-0.037504956 -0.12929541 0.20348394 -0.81879175 0.46209061 -0.34066451 0.21756981
-0.013453465 -0.05389154 0.21585992 -0.57735044 0.80041999 0.16122757 0.18991016
-0.044572469 -0.13673384 0.22644433 -0.71514314 0.69454062 -0.078636773 0.2257573
-0.04084501 -0.14992191 0.21257582 -0.45137289 -0.80787027 -0.37895659 0.21226935
0.0063865054 -0.05432215 0.23042318 0.0077751027 0.98661178 0.16290116 0.21157299
-0.041849904 -0.13217649 0.21386594 -0.71680164 0.68228453 -0.1438164 0.19767244
-0.0079775667 -0.053948496 0.21245037 -0.5182274 0.8509981 0.085103415 0.20889822
0.01642691 -0.056799695 0.19459093 0.79537165 0.55714178 -0.23869839 0.15199281
-0.042363971 -0.10316449 0.21091816 -0.85943937 0.45894575 -0.22523922 0.16340438
-0.039429277 -0.12536368 0.20659932 -0.87374461 0.37246928 -0.31278887 0.20560409
-0.0073057832 -0.10618781 0.18070737 -0.54736662 0.30300334 -0.78011459 0.20666634
0.016277188 -0.054400261 0.21431732 0.72082973 0.69309884 -0.0042949598 0.1912002
-0.0017132531 -0.054091223 0.20499659 -0.19808239 0.98017341 0.0048523 0.22828217
-0.012942826 -0.054724224 0.22802359 -0.60046136 0.77771086 0.1860432 0.17821476
-0.00080338848 -0.054088358 0.22141859 -0.24363436 0.965545 0.091461919 0.22004829
-0.018141381 -0.14139877 0.25773844 0.20144224 -0.86457092 0.4603675 0.25874782
-0.019551083 -0.11052264 0.18466739 -0.70829332 0.2638998 -0.65473455 0.19062994
-0.010171583 -0.053843517 0.20523176 -0.50689489 0.85793674 0.08367873 0.2110676
0.011967584 -0.054158174 0.22307476 0.47810623 0.87643462 0.057242434 0.20790851
-0.034655292 -0.12317012 0.19760801 -0.84715009 0.25428647 -0.4665567 0.19727503
-0.033343777 -0.10371195 0.1893895 -0.7400319 0.27824074 -0.61231923 0.12367915
0.00087547745 -0.054152604 0.22074454 -0.14492282 0.98583764 0.08438956 0.22069468
0.017049387 -0.054019131 0.21882161 0.69460768 0.71915674 0.018270213 0.19046174
-0.013257689 -0.14701307 0.18249838 -0.28113341 -0.70191401 -0.65443164 0.14983174
0.014871078 -0.05443716 0.21239699 0.71969384 0.6940335 -0.018927572 0.19498409
-0.041155688 -0.1308663 0.21154606 -0.78400922 0.59542608 -0.17549162 0.19861171
0.0025559082 -0.054533884 0.20506054 0.36916995 0.92830753 -0.04425839 0.22736396
-0.040536892 -0.14916556 0.20713583 -0.55196697 -0.65331072 -0.51818675 0.18430714
-0.042352963 -0.10157513 0.21061967 -0.85562527 0.46575508 -0.2257822 0.16200283
-0.018506972 -0.054605618 0.22597468 -0.62046659 0.75981295 0.19417885 0.17136212
-0.00089316361 -0.090383656 0.1770224 -0.27115065 0.35368997 -0.89519876 0.17228147
0.014612764 -0.054087121 0.22124656 0.61471832 0.78779119 0.038812298 0.19936684
0.013866888 -0.054089114 0.21807529 0.60455793 0.79642868 0.014524916 0.20322919
-0.042461377 -0.096033782 0.21125877 -0.83778256 0.51499516 -0.18138492 0.16077428
-0.016055569 -0.053822808 0.21325432 -0.62649381 0.76128465 0.16718611 0.17914045
-0.033484008 -0.15887879 0.28388956 -0.50718009 0.1406806 0.85028076 0.17986794
-0.0084322738 -0.15737869 0.25880155 0.15631491 -0.8039037 0.57385051 0.23028207
-0.042367645 -0.10648273 0.21186037 -0.85750329 0.45650733 -0.23725328 0.16480811
-0.04239355 -0.099214144 0.21046159 -0.84608364 0.48496053 -0.22125955 0.16151327
-0.02432839 -0.099462613 0.25525764 -0.64841902 0.44629395 0.616745 0.13156109
0.013974337 -0.054455929 0.2337672 0.46002731 0.87600535 0.1448777 0.2023579
0.021392675 -0.15378186 0.25703165 0.4678534 -0.69235337 0.54932678 0.20014201
-0.043176927 -0.12756015 0.23393057 -0.85118669 0.51698583 0.090591438 0.21538712
-0.0028404619 -0.13950166 0.18114837 -0.23823659 -0.71751046 -0.65453959 0.17084119
-0.043394133 -0.1242699 0.22704139 -0.87749082 0.4741793 -0.071860433 0.20559852
-0.035864219 -0.10571841 0.24598877 -0.75397742 0.44483304 0.48336503 0.13263553
-0.03260215 -0.15458244 0.19250739 -0.42280576 -0.60276669 -0.67668867 0.12507129
-0.039394617 -0.15445337 0.20576723 -0.47243702 -0.74184233 -0.47589207 0.17215049
-0.046006434 -0.13939561 0.23336893 -0.77575308 0.63006634 0.03498077 0.23503049
0.020189425 -0.091032594 0.25505504 0.72567791 0.42500508 0.54107517 0.20098953
-0.015895613 -0.10050838 0.25826263 -0.60715646 0.41901973 0.67511743 0.14567049
0.0093619265 -0.10028163 0.2598891 -0.14461178 0.37641177 0.91509652 0.20882574
0.0011830251 -0.15981704 0.30116522 0.2293178 -0.017360406 0.97319669 0.11442483
0.023615353 -0.053614873 0.22271219 0.84140748 0.53864175 0.043572962 0.13756405
-0.043828834 -0.12895216 0.23034349 -0.81935591 0.57323408 0.0076556751 0.21675663
0.035586733 -0.15750346 0.22834854 0.82625896 -0.54333907 0.1485893 0.16014421
-0.043055028 -0.13510914 0.24995288 -0.76619226 0.42193836 0.48468283 0.2123269
0.014997232 -0.10233838 0.2567569 0.68937105 0.34989727 0.63430232 0.2442901
-0.014099916 -0.053761639 0.20460309 -0.57183772 0.81876308 0.051270548 0.20249806
0.0262863 -0.09106113 0.25101936 0.87927127 0.35503179 0.31754455 0.13876563
-0.016770842 -0.053820018 0.21364379 -0.63496298 0.7526018 0.17439167 0.17587072
0.025158085 -0.092069745 0.25175741 0.8573941 0.38348666 0.34323949 0.1675045
0.026603226 -0.11138364 0.24665283 0.95435548 0.196897 0.22458215 0.2306361
0.029525861 -0.10082116 0.24572274 0.92622703 0.31245881 0.21088588 0.1736699
0.033120088 -0.11367976 0.19552884 0.91710442 0.22258517 -0.33071953 0.18379129
0.027361721 -0.10885994 0.24647009 0.94278008 0.24163942 0.22973049 0.21610184
0.043656163 -0.14469078 0.19485115 0.90148503 -0.21800777 -0.37389496 0.15972026
0.012280894 -0.054225571 0.22706142 0.47916555 0.87523669 0.066038936 0.20877309
0.019527748 -0.090006001 0.25534809 0.72769386 0.42883009 0.53531897 0.20436963
0.0036344402 -0.10252187 0.26107404 -0.29636797 0.35341316 0.88727969 0.17420454
0.016400829 -0.15266888 0.25815541 0.39201397 -0.70083958 0.59594381 0.20081733
0.011122819 -0.055020586 0.20443213 0.74774331 0.6619013 -0.052598469 0.19279349
0.013619008 -0.054107312 0.22030149 0.54230142 0.83922797 0.04006831 0.20507516
0.030418986 -0.10182884 0.24479465 0.93729949 0.2813361 0.20571728 0.16097692
0.039152768 -0.15586255 0.1896203 0.65622419 -0.54741824 -0.51932949 0.1618399
-0.0008219005 -0.054115612 0.22374175 -0.32828322 0.93445396 0.13793437 0.21352202
0.035748862 -0.10315154 0.23751593 0.9573096 0.2602798 0.1257491 0.11840294
0.0052365777 -0.054157253 0.21956179 0.18310957 0.98188293 0.04875299 0.22067471
0.024740417 -0.1535116 0.24946003 0.4661065 -0.78237647 0.41307595 0.19292679
0.043544885 -0.1463598 0.1941866 0.86741519 -0.27100843 -0.41730729 0.1632482
-0.002934329 -0.054029547 0.20930551 -0.26214612 0.96441084 0.034511942 0.22597796
0.04098716 -0.14656241 0.23394206 0.94956475 -0.26294917 0.1708345 0.1360613
0.030902481 -0.15785997 0.25599906 0.72085434 -0.35741064 0.59382373 0.13312864
-0.047882814 -0.1590295 0.28429797 -0.6013869 0.28785911 0.74529922 0.19400677
-0.020174151 -0.15751664 0.27193674 -0.37820426 -0.036109384 0.92501765 0.2122191
0.00069660641 -0.054062486 0.211437 -0.11127215 0.99364185 0.017159656 0.22768578
-0.02686468 -0.096243449 0.25471053 -0.68166822 0.46717292 0.56309676 0.11826877
0.0056135664 -0.054149695 0.21870966 0.18310957 0.98188293 0.04875299 0.22067471
0.0022323108 -0.10416419 0.26087365 -0.33833066 0.35631138 0.8709619 0.17900138
-0.014748777 -0.054278422 0.22327337 -0.62007928 0.76406407 0.17806715 0.17706905
0.0024183942 -0.097995989 0.26082399 -0.2925491 0.36707544 0.88298959 0.17059481
-0.0096972138 -0.053672366 0.20121206 -0.50830227 0.86109436 -0.012058008 0.21473682
0.0037471671 -0.054112025 0.21113218 0.12347382 0.9922719 0.012278424 0.22605683
-0.032413892 -0.1588538 0.28459647 -0.51172423 0.14053498 0.84757787 0.17979494
-0.059368819 -0.15933311 0.27172735 -0.73008794 0.31596935 0.60591668 0.20494446
-0.017463516 -0.053797554 0.21170162 -0.63893956 0.75039327 0.16931053 0.17457816
0.0026699253 -0.054212533 0.22351617 -0.070962958 0.99322987 0.091971271 0.21959992
-0.025105182 -0.098152533 0.25516927 -0.65442222 0.45656207 0.60272926 0.12685634
0.027732346 -0.15776351 0.25607502 0.64746076 -0.44176623 0.62099683 0.1622462
-0.010848433 -0.1590962 0.28671548 -0.057823323 -0.11838549 0.99128264 0.16836022
-0.025112906 -0.05386699 0.20912339 -0.68745345 0.72072297 0.089253336 0.16139345
-0.004342942 -0.15905668 0.28440428 0.012361276 -0.16588925 0.98606694 0.16555095
-0.040085476 -0.14970067 0.20599018 -0.56891942 -0.62674975 -0.53246158 0.18321835
-0.04850895 -0.159026 0.2844249 -0.61062145 0.31198058 0.72788018 0.19234933
-0.064362764 -0.15879156 0.2579518 -0.91529042 0.12346093 0.383407 0.19966081
-0.035332378 -0.15873457 0.2917273 -0.36954173 0.15371637 0.91641158 0.16205259
-0.034463651 -0.15843673 0.25931105 -0.66439855 0.092924871 0.74157912 0.230667
-0.07166227 -0.16037671 0.25937939 -0.93203586 0.18281701 0.31286904 0.18541759
-0.042288445 -0.15901491 0.27993262 -0.53396118 0.14696862 0.83263773 0.1910034
-0.069539204 -0.15886475 0.24637935 -0.99077439 -0.044944543 0.12785196 0.19791906
0.001293004 -0.15875576 0.28409299 0.10073759 -0.15512244 0.98274571 0.15468696
-0.042434514 -0.11683286 0.2164164 -0.88635355 0.41434333 -0.2066323 0.19106707
-0.043452796 -0.14038101 0.21701407 -0.76896811 0.61914909 -0.15919352 0.21805963
-0.018654929 -0.10062307 0.25729829 -0.60166383 0.44011626 0.66655707 0.14425303
0.00032227361 -0.10694149 0.25927067 -0.48130348 0.38131568 0.78926885 0.2170058
-0.042726971 -0.11958512 0.21909805 -0.89037699 0.41936314 -0.17709681 0.19395022
-0.042286575 -0.12220266 0.2166348 -0.89046377 0.4082565 -0.20099954 0.19577885
-0.024960121 -0.05390536 0.21641633 -0.66491723 0.72811764 0.16652261 0.16232826
-0.043274857 -0.1513163 0.21636219 -0.49154878 -0.82887918 -0.2670939 0.2181292
0.036327876 -0.11772882 0.23665681 0.98537987 0.10688833 0.13267022 0.14888895
0.0018684057 -0.096233957 0.26081797 -0.30598703 0.37487811 0.87512183 0.16998079
-0.016125418 -0.14769685 0.25929609 0.044608783 -0.73804611 0.6732741 0.25205502
0.038450919 -0.15144585 0.23477185 0.92646968 -0.3312203 0.17873718 0.14305919
0.020980304 -0.084862158 0.25502253 0.80815184 0.43920544 0.39241472 0.18161602
0.0070572696 -0.10033134 0.26036701 -0.19533415 0.38390726 0.90247422 0.19431436
-0.017892957 -0.10016702 0.25787279 -0.61201203 0.43164104 0.6626668 0.14435206
0.022296971 -0.10713556 0.25099149 0.93539983 0.22416267 0.27345613 0.23487402
0.0099467337 -0.10419297 0.2593869 -0.094716199 0.36832455 0.92485994 0.21812695
-0.017105624 -0.053783689 0.21018119 -0.63068926 0.75891346 0.16211602 0.17788038
0.0065209814 -0.099570051 0.2605868 -0.25911674 0.36324877 0.89493507 0.17709415
-0.04521919 -0.13787158 0.23531896 -0.77860105 0.62165582 0.08558359 0.2291487
-0.04522213 -0.13788283 0.23540059 -0.78437334 0.61235285 0.098906107 0.22880787
0.0054923883 -0.1081885 0.26014096 -0.33740622 0.34486791 0.87591273 0.21872963
0.01221299 -0.10089906 0.2585085 -0.033471465 0.40643883 0.91306466 0.22325915
0.01527652 -0.10779014 0.25573209 0.82800674 0.24920395 0.50229698 0.25006616
0.015910611 -0.089044444 0.25727901 0.4398323 0.45706096 0.77307361 0.20835736
0.014397967 -0.08809375 0.25804141 0.0059685707 0.41055831 0.91181475 0.17681736
0.021669853 -0.086882442 0.25453538 0.79945832 0.4251501 0.42439812 0.18730582
-0.035464793 -0.11444318 0.24329364 -0.77925658 0.40719295 0.47639585 0.16632077
0.0080165723 -0.10884934 0.25767606 -0.32356262 0.4606216 0.82651985 0.26474017
0.04144359 -0.13562563 0.20927633 0.99313664 -0.035981257 -0.11128774 0.1651981
0.011181381 -0.096789934 0.25919664 -0.037625294 0.38126394 0.92370021 0.20535313
0.006968318 -0.10820995 0.25979698 -0.21418315 0.351668 0.91129315 0.22378251
0.01267104 -0.10100748 0.25832301 0.034663759 0.41512877 0.90910202 0.22339346
0.0047804993 -0.054656595 0.23258382 -0.12100312 0.97768891 0.17170541 0.21190871
0.014460075 -0.14617819 0.26343051 0.25421983 -0.51310635 0.81981349 0.2049717
0.0093547143 -0.10942337 0.259011 -0.062740259 0.34927833 0.9349162 0.24335472
-0.0086959796 -0.14981799 0.25902352 0.1339539 -0.80653346 0.57581252 0.23850498
0.0064412444 -0.097678162 0.26061863 -0.27322432 0.3493039 0.89628977 0.17632036
-0.018343339 -0.09822844 0.25812075 -0.62276679 0.43053833 0.65329796 0.13757458
-0.041512083 -0.11388656 0.22926775 -0.8805539 0.47194919 -0.043460652 0.19052477
-0.043709554 -0.12841246 0.23165549 -0.83812392 0.54217672 0.059940416 0.21570396
-0.020215997 -0.054197647 0.22010934 -0.63971138 0.74860305 0.17424962 0.17080358
-0.016898945 -0.10234391 0.25773224 -0.60415065 0.42803597 0.67215127 0.15274714
-0.016334997 -0.054211274 0.22166789 -0.6210559 0.76323366 0.17822435 0.17599885
-0.04493697 -0.13688187 0.23897742 -0.79754531 0.552558 0.24207672 0.22036988
-0.044010393 -0.13339013 0.24188322 -0.79032314 0.52525556 0.31542981 0.20865676
0.041507449 -0.13742054 0.20574318 0.98950815 -0.049827147 -0.13561343 0.16390462
0.014770221 -0.090552643 0.25802273 0.27499974 0.43329039 0.85827416 0.20221975
-0.043545425 -0.089336336 0.2438473 -0.7458092 0.51678729 0.42035636 0.087939195
0.0094410889 -0.10174828 0.25981021 -0.12283276 0.3891719 0.91293877 0.20867221
-0.00099031464 -0.10628799 0.25916821 -0.47212663 0.39414224 0.78851026 0.20967789
0.012564655 -0.10019035 0.25839865 0.023189895 0.40817136 0.91261071 0.2216517
0.0090563782 -0.097088352 0.26009908 -0.2045316 0.36364135 0.90880787 0.18290666
0.025650792 -0.094492681 0.25051004 0.85178012 0.37816331 0.36257842 0.17960106
-0.010205723 -0.14991194 0.25851098 0.12754537 -0.81071007 0.57138538 0.24048391
-0.0042136703 -0.10099139 0.26048732 -0.45350596 0.37498564 0.80852836 0.17049156
0.023678904 -0.10163686 0.25103307 0.87880367 0.31426024 0.35908869 0.21122625
0.021994893 -0.10681161 0.25183037 0.92652804 0.2251648 0.30140787 0.23476417
0.020436268 -0.089992099 0.25496918 0.74964178 0.42671281 0.50591844 0.1995327
0.014029165 -0.089629196 0.25809759 0.094303042 0.42162332 0.90185398 0.18995091
0.012849144 -0.14677356 0.26007128 0.2749683 -0.62697411 0.72890049 0.21090865
0.042014476 -0.15296985 0.21767923 0.95056665 -0.31031576 0.011274953 0.1537036
0.0099221012 -0.1032268 0.25946322 -0.11456932 0.37395579 0.92034286 0.21175234
0.0075974949 -0.10795695 0.25964591 -0.18410872 0.35462439 0.91670364 0.22438641
0.01347986 -0.14916907 0.25922245 0.29827306 -0.67722255 0.67260891 0.20985255
0.014924536 -0.088888213 0.25789037 0.096482597 0.43509182 0.8952018 0.19027933
0.039414797 -0.1192311 0.21878888 0.99063993 0.13017397 -0.041077837 0.1503264
0.03962259 -0.15500584 0.2289125 0.91273028 -0.38142449 0.14642 0.14207923
-0.043503556 -0.15211332 0.21664235 -0.51664656 -0.80538321 -0.29057592 0.21119888
-0.035065945 -0.1029652 0.24737424 -0.73926955 0.4514266 0.4996945 0.1272303
0.02769205 -0.098162577 0.24837959 0.88856661 0.35436335 0.29133508 0.18368022
-0.047516264 -0.15148196 0.22064386 -0.69555497 -0.66906303 -0.26183584 0.22074859
-0.048426002 -0.15386181 0.23472677 -0.69432825 -0.71333313 0.095205314 0.26041535
0.052034557 -0.15597504 0.18688318 0.7675243 -0.40887645 -0.49368662 0.1355624
0.0097006392 -0.10299242 0.25964633 -0.11456932 0.37395579 0.92034286 0.21175234
-0.018878536 -0.097971007 0.25808427 -0.63284779 0.42871264 0.64475518 0.13314529
-0.026459454 -0.097580224 0.25459701 -0.66658247 0.46468171 0.5828712 0.12496146
0.0065608216 -0.10746656 0.26004189 -0.2425732 0.34744197 0.9057827 0.21727897
0.016934115 -0.15022331 0.25969416 0.30822495 -0.58677399 0.74879473 0.20409639
-0.0011590716 -0.1065836 0.25909397 -0.46102861 0.40567282 0.7892288 0.21220478
0.03571637 -0.10275643 0.23736377 0.95608467 0.26726982 0.12028717 0.11916057
0.030273857 -0.095949888 0.24580207 0.92783213 0.31491476 0.19989049 0.1333309
-0.0047404752 -0.092253603 0.26052067 -0.45649713 0.40618795 0.79159439 0.14004253
-0.025281677 -0.13633238 0.18988761 -0.42533457 -0.64343733 -0.63645804 0.19684373
-0.041125052 -0.1185945 0.21109344 -0.8901757 0.37928474 -0.25244886 0.18677054
-0.043920886 -0.13325211 0.22859667 -0.73337334 0.67782485 -0.052125148 0.21382636
-0.0416498 -0.12630719 0.23867331 -0.81937557 0.47090358 0.32691509 0.20372713
-0.025320491 -0.098526642 0.25496465 -0.65611482 0.45348889 0.60320902 0.12878585
-0.04268676 -0.13621335 0.21396364 -0.74415839 0.64738011 -0.1647035 0.20703161
-0.042667273 -0.12371134 0.22835396 -0.86457872 0.5017435 -0.027516099 0.20455365
-0.043383196 -0.11612926 0.22483777 -0.88677782 0.44741106 -0.11596786 0.18368036
-0.042220641 -0.12240218 0.23241881 -0.87778813 0.47264042 0.078096338 0.20411074
-0.036051445 -0.10454246 0.24616677 -0.75070632 0.44779181 0.48571861 0.13057286
-0.037062768 -0.10927836 0.24271342 -0.78475076 0.43570563 0.4408251 0.1463861
0.011149736 -0.1491074 0.26032364 0.25365925 -0.64423668 0.72153729 0.21181628
-0.026009629 -0.10323682 0.18590237 -0.71410275 0.26219693 -0.64908403 0.13470563
0.015295591 -0.14648519 0.25710702 0.42316768 -0.81118661 0.40361542 0.2021499
-0.029782571 -0.10306687 0.25116718 -0.69789487 0.4464241 0.56004322 0.13454759
-0.042321272 -0.11052231 0.2131407 -0.86721784 0.43835679 -0.23617072 0.17525825
0.0072193034 -0.11333597 0.25565913 0.96681118 -0.25452095 0.022251546 0.26783788
-0.013475996 -0.090271398 0.25925264 -0.56182551 0.41496456 0.71565121 0.11889703
-0.043378007 -0.10335036 0.21635857 -0.84836519 0.4905712 -0.19903845 0.16395003
0.0054395348 -0.089766957 0.25998822 -0.29218593 0.36176556 0.88529831 0.14511609
-0.083679967 -0.15338869 0.22325779 -0.97960168 -0.057191256 -0.19263873 0.13281345
-0.041588832 -0.12827501 0.21339707 -0.88055426 0.41509885 -0.22872946 0.20303854
-0.038768828 -0.12056774 0.20409152 -0.86942607 0.35328421 -0.34538168 0.19077347
-0.04240777 -0.14968352 0.21171989 -0.54705709 -0.71824914 -0.42993814 0.2059937
-0.015673758 -0.11066875 0.18305124 -0.64496315 0.25229737 -0.72136575 0.19092421
-0.042164456 -0.11942984 0.21567607 -0.89857244 0.3906309 -0.19993754 0.19176853
-0.04059235 -0.11525536 0.20833929 -0.87343621 0.39102551 -0.29018643 0.18131113
-0.043772031 -0.13279198 0.22674249 -0.73530626 0.67518193 -0.058771994 0.21278511
0.0081661232 -0.1546865 0.18098019 -0.14615564 -0.73950607 -0.65709156 0.14892906
-0.032727808 -0.13940935 0.19538553 -0.52327162 -0.55152047 -0.64962447 0.19035406
-0.041597132 -0.13366477 0.2120426 -0.72120476 0.67701703 -0.14666846 0.19998187
-0.042909119 -0.13498271 0.21628252 -0.72961366 0.66872269 -0.14308666 0.20171794
-0.06125569 -0.15788232 0.25293094 -0.89717335 0.075062454 0.43525356 0.21865928
-0.020857023 -0.11345568 0.25251022 -0.63812798 0.40169752 0.6568346 0.18854836
-0.03241317 -0.10208069 0.18852364 -0.7364856 0.26598427 -0.62196571 0.11839428
-0.043076389 -0.12901352 0.23715538 -0.79872179 0.57513535 0.1768131 0.21313724
-0.042112164 -0.11035464 0.2120201 -0.86719733 0.42794737 -0.25461704 0.17039537
-0.016043672 -0.10279565 0.1816673 -0.63579261 0.28998902 -0.71531403 0.17150268
-0.041977901 -0.096040085 0.21010847 -0.84172851 0.50426227 -0.19290587 0.16327477
-0.015039328 -0.099577837 0.18083407 -0.61843777 0.28921989 -0.7306754 0.16261329
0.0072212326 -0.15122582 0.17951727 -0.1769526 -0.68325639 -0.70841265 0.1490788
0.010730561 -0.14823221 0.17963976 -0.13259582 -0.70171744 -0.70000786 0.16650511
-0.0090207243 -0.1563516 0.1810226 -0.27461141 -0.6896621 -0.67004085 0.13517497
-0.013657181 -0.15234217 0.18243089 -0.28185591 -0.68970025 -0.66698641 0.13877843
0.014696879 -0.10253848 0.17917243 0.48594964 0.27669629 -0.82903081 0.20133816
0.0075057968 -0.098705746 0.17856328 0.026143301 0.33561781 -0.94163537 0.20689864
0.012843864 -0.13566229 0.18004479 -0.079149529 -0.67422813 -0.73426962 0.21105774
0.0074166106 -0.14302106 0.17939346 -0.17764893 -0.66718799 -0.72339553 0.16348091
0.019904554 -0.12754138 0.18164811 0.22943647 -0.40653184 -0.884359 0.27024987
-0.014569473 -0.14824033 0.18285586 -0.29451185 -0.69111723 -0.66001505 0.14615162
0.014907845 -0.13768287 0.1796416 -0.080438085 -0.66237992 -0.74483716 0.19918215
0.018223451 -0.12522261 0.18102169 0.19189399 -0.1254003 -0.97337115 0.26019758
-0.019858588 -0.14124726 0.18589255 -0.28284404 -0.70027548 -0.65544909 0.15647426
0.023407757 -0.11898332 0.1839388 0.73710591 0.19173169 -0.64800751 0.23670816
0.012541553 -0.10404114 0.17820191 0.32578814 0.23455994 -0.91588414 0.20042223
0.021389315 -0.11007734 0.18303278 0.75763208 0.27063766 -0.59392673 0.21378748
0.010226352 -0.13805325 0.17974198 -0.14371642 -0.67174149 -0.72671109 0.19114429
0.017527228 -0.099138945 0.18106505 0.73964959 0.33673832 -0.58268845 0.18870981
0.024667554 -0.1202632 0.18482354 0.80025584 0.15635094 -0.57891715 0.2343611
0.023246786 -0.11984323 0.18391927 0.71604365 0.18510361 -0.67306614 0.23912138
0.01234282 -0.10353128 0.17816918 0.29788718 0.2433369 -0.92306572 0.20062463
0.027986098 -0.10388103 0.1895979 0.85686857 0.31015456 -0.41180152 0.18064299
0.00063688768 -0.15140623 0.17976442 -0.22380914 -0.67656356 -0.70154905 0.14622504
0.015234457 -0.13655989 0.18013285 -0.064791813 -0.70153618 -0.70968229 0.2097196
0.019264607 -0.12820509 0.1814605 0.14709795 -0.52878487 -0.83591193 0.26377174
0.01152532 -0.10404682 0.17900641 0.35818574 0.25948843 -0.89686608 0.20756409
-0.011650878 -0.10360477 0.18024263 -0.60192907 0.27161181 -0.75093836 0.17653897
0.013649554 -0.13745899 0.17969655 -0.088217638 -0.68450731 -0.72364873 0.2020029
-0.0086276885 -0.12133963 0.18131158 -0.4816865 0.022205302 -0.87606221 0.21929148
-0.032407567 -0.12331872 0.1960489 -0.83132589 0.25308636 -0.49481764 0.20830111
-0.011749586 -0.093396626 0.17852072 -0.55494589 0.28129807 -0.78288347 0.13659272
-0.018920729 -0.12044775 0.18508576 -0.66004801 0.086926132 -0.7461772 0.20293945
-0.042913053 -0.10564169 0.21406326 -0.8520804 0.47749627 -0.21437411 0.16670914
-0.042262413 -0.10431784 0.21084294 -0.85627753 0.46263295 -0.22969462 0.16265318
-0.041871589 -0.1469305 0.21082567 -0.67200893 -0.55667305 -0.48838425 0.21590289
0.0086147944 -0.10253747 0.25987858 -0.11456144 0.3739512 0.92034566 0.21174841
-0.0025745495 -0.11997064 0.24718595 0.94378573 -0.26234204 0.20110987 0.24724637
-0.024073765 -0.091330454 0.25686133 -0.66319847 0.48077261 0.57360739 0.10634976
-0.019263104 -0.13682981 0.18564719 -0.33604974 -0.6878463 -0.64338022 0.1717739
0.024751747 -0.15497614 0.27257678 0.55275422 -0.23057653 0.80081028 0.13383745
0.026261032 -0.10156346 0.24912381 0.90282845 0.30966243 0.29834548 0.19823188
0.0028306693 -0.098893486 0.26088375 -0.2825475 0.35875615 0.88964093 0.17403002
-0.034292776 -0.1527335 0.19506077 -0.38423619 -0.66422701 -0.64122152 0.13278383
-0.042059515 -0.12867008 0.21550429 -0.86340189 0.45699108 -0.21376729 0.20489761
0.01926765 -0.12971979 0.2489551 0.49028099 -0.8283323 0.27109069 0.25328448
-0.023835782 -0.093730167 0.25689396 -0.65347129 0.46301422 0.59882647 0.11630616
-0.041959848 -0.10402533 0.209673 -0.86150444 0.44850183 -0.23802555 0.16236164
-0.061126236 -0.15837663 0.25755632 -0.88482356 0.11602972 0.45124763 0.2155697
-0.042068906 -0.12127627 0.23012646 -0.88204128 0.47110268 -0.0080947001 0.20339893
0.016843949 -0.089842431 0.25690049 0.55782533 0.44906333 0.69797772 0.21179038
-0.031483896 -0.11297683 0.24776232 -0.73479676 0.40239209 0.54603505 0.16353182
0.019712377 -0.15785758 0.28655219 0.50705719 -0.13114093 0.85187739 0.099629931
0.042602129 -0.15358798 0.22908759 0.94014817 -0.30887613 0.14393383 0.13371509
0.036613967 -0.11152858 0.2320787 0.97743452 0.20031138 0.06706012 0.14051126
-0.058972232 -0.15805778 0.25877529 -0.85732096 0.164584 0.48776311 0.21638195
0.041055527 -0.13055047 0.20648076 0.98821628 0.045021642 -0.14629319 0.15781845
0.009638831 -0.098394088 0.25980225 -0.13005088 0.377817 0.9167012 0.20208935
0.017043291 -0.14844087 0.26081586 0.29602951 -0.56263548 0.77188593 0.20452434
0.00099955185 -0.10077276 0.26069239 -0.33511141 0.37135303 0.86590832 0.17791575
0.039139625 -0.1127862 0.20810686 0.97468555 0.17627525 -0.13753231 0.13574734
0.010924242 -0.093332782 0.25937134 -0.1314529 0.37331221 0.91834533 0.17783068
0.012280325 -0.10685033 0.25777236 0.6418038 0.30793333 0.70232826 0.25084507
0.025941821 -0.091893703 0.25118804 0.8700909 0.36521956 0.33099318 0.15051447
0.038448527 -0.1134981 0.20437546 0.97228295 0.17098917 -0.1594632 0.13488317
0.042679686 -0.15393615 0.21308497 0.93704742 -0.34739029 -0.035527419 0.16245717
-0.050770368 -0.1585052 0.26574004 -0.70543361 0.2333954 0.6692459 0.21498662
0.0079824636 -0.10234334 0.26008147 -0.14244193 0.37888402 0.91441631 0.21020158
-0.061879486 -0.15749145 0.23657231 -0.92534012 -0.37761953 -0.033899289 0.20845413
0.022017447 -0.1005449 0.25296739 0.80907673 0.34646186 0.47472003 0.20796169
0.026801063 -0.091908947 0.24988063 0.87883568 0.36507747 0.3071911 0.14314924
-0.066238157 -0.15628541 0.23042083 -0.9379521 -0.30086917 -0.17240541 0.17958057
-0.018405724 -0.091944627 0.25891855 -0.60155106 0.44438601 0.66382039 0.11535671
0.0099911923 -0.091076955 0.25967512 -0.12804326 0.36240602 0.92318302 0.17129612
0.0086919609 -0.09775307 0.26024005 -0.22123531 0.36168832 0.90566909 0.18352871
0.011603111 -0.094697602 0.25910783 -0.042923562 0.39300215 0.91853511 0.19975254
0.014929755 -0.10122047 0.25700963 0.58326173 0.38931215 0.71291089 0.2340246
0.0011013057 -0.091228366 0.26047376 -0.40412465 0.38744572 0.82859462 0.14786525
0.038224574 -0.15039538 0.23642676 0.93265682 -0.30512366 0.19248578 0.14458354
-0.011834535 -0.097412214 0.25952205 -0.56563228 0.41249692 0.71407729 0.14322914
0.0066839093 -0.0936682 0.2605682 -0.22812337 0.35713321 0.90576792 0.16290578
-0.0023432788 -0.094201647 0.26037675 -0.42871642 0.40308321 0.80853331 0.15328728
0.025367761 -0.090076685 0.25181046 0.87648612 0.35882235 0.32096505 0.15003145
0.030515186 -0.09414541 0.19861691 0.89274615 0.3788808 -0.24383114 0.16703932
-0.018504919 -0.13552172 0.2560142 0.4008581 -0.90494615 0.14277679 0.25893798
0.02364916 -0.13850234 0.24797229 0.44407746 -0.83841217 0.31600675 0.21532026
-0.0069490806 -0.14331411 0.25952172 0.13354728 -0.78442466 0.60567576 0.25017428
0.040261701 -0.11955209 0.21004228 0.9887073 0.11156664 -0.10005397 0.13985357
0.030910501 -0.090570964 0.2456774 0.91079986 0.35624015 0.20865421 0.11265569
-0.015169913 -0.090330839 0.2593171 -0.5764817 0.41204894 0.70560932 0.11349753
0.038249314 -0.1000739 0.21283996 0.95319891 0.29269758 -0.075762354 0.11638679
-0.033342246 -0.15739462 0.2562719 -0.62472236 -0.20674756 0.75297904 0.25527564
-0.019765869 -0.15476221 0.25938815 -0.27684894 -0.43420827 0.85721511 0.24938919
0.054294057 -0.15536685 0.2134186 0.94844937 -0.30573395 -0.083489157 0.13587742
-0.0096843783 -0.10517216 0.25849119 -0.5488658 0.41274557 0.72690272 0.18151475
