# .PCD v0.7 - Point Cloud Data file format
VERSION 0.7
FIELDS x y z normal_x normal_y normal_z curvature
SIZE 4 4 4 4 4 4 4
TYPE F F F F F F F
COUNT 1 1 1 1 1 1 1
WIDTH 88
HEIGHT 1
VIEWPOINT 0 0 0 1 0 0 0
POINTS 88
DATA ascii
-0.018594271 -0.26202071 0.17874549 0.63367242 0.0032830902 -0.77359456 0.019280307
-0.028607475 -0.26202071 0.1885733 0.63367242 0.0032830902 -0.77359456 0.019280307
-0.02207833 -0.26202071 0.19416481 0.63769418 0.012365784 -0.77019036 0.018530753
-0.016707219 -0.26202071 0.19505827 0.63769418 0.012365784 -0.77019036 0.018530753
-0.017231081 -0.26202071 0.2008229 0.63769418 0.012365784 -0.77019036 0.018530753
-0.0035160515 -0.26202071 0.20750839 0.63769418 0.012365784 -0.77019036 0.018530753
-0.0052042753 -0.26202071 0.2124303 0.81684619 -0.035254713 -0.57577711 0.10328863
0.0032635031 -0.26202071 0.2160417 0.96343124 -0.061091639 -0.26089883 0.12169649
0.01075903 -0.26202071 0.21102615 0.64388496 0.024590408 -0.764727 0.017625095
0.0056138327 -0.26202071 0.22432658 0.9778226 -0.056558903 -0.20165338 0.098172434
0.015493478 -0.26202071 0.22346394 0.97271156 -0.058728021 -0.22446214 0.10900223
0.02613603 -0.26202071 0.2230638 0.95117342 -0.13753004 -0.27632326 0.11199276
0.031006539 -0.26202071 0.23206671 0.95698011 -0.21931735 -0.18997093 0.087618768
-0.0099792033 -0.26202071 0.2891815 7.9154837e-08 -1 -4.0283307e-06 2.3986671e-05
-0.01507293 -0.26202071 0.29311991 3.1910893e-06 -1 -5.5057922e-06 1.6487413e-05
-0.0057272478 -0.26202071 0.2928507 -1.5684038e-06 -1 1.6910866e-07 1.8839766e-05
0.0053930129 -0.26202071 0.29926589 8.9964823e-07 -1 -5.2884106e-06 1.6901849e-05
-0.016418179 -0.26202071 0.30790561 0.00012027862 -1 -0.00016385567 3.5610057e-05
-0.0063385945 -0.26202071 0.30428633 0.00012027862 -1 -0.00016385567 3.5610057e-05
0.0057006422 -0.26202071 0.30322769 3.2428968e-06 -1 -8.6500322e-06 2.3018494e-05
0.014587469 -0.26202071 0.30759865 1.1523631e-05 -1 -2.8280527e-05 2.2983282e-05
0.0177451 -0.26202071 0.3116529 0.00011670194 -1 -0.00015986869 3.5610061e-05
0.02335557 -0.26202071 0.3198449 0.00011670194 -1 -0.00015986869 3.5610061e-05
0.026686633 -0.26202071 0.32223266 0.00011670194 -1 -0.00015986869 3.5610061e-05
0.030723944 -0.26202071 0.32379964 0.00011670194 -1 -0.00015986869 3.5610061e-05
0.028429311 -0.26202071 0.33158231 0.00011670194 -1 -0.00015986869 3.5610061e-05
0.036223736 -0.26202071 0.33456093 0.00011670194 -1 -0.00015986869 3.5610061e-05
0.043420587 -0.26202071 0.33352032 0.00011670194 -1 -0.00015986869 3.5610061e-05
0.038797598 -0.26202071 0.34018829 0.00011670194 -1 -0.00015986869 3.5610061e-05
0.022632819 -0.10319774 0.32052568 -0.56509042 -0.1662187 0.80811155 0.014261712
0.0053130887 -0.14775963 0.30022842 -0.56505889 -0.16622876 0.80813152 0.014234561
0.03384481 -0.10530278 0.33376217 -0.56509042 -0.1662187 0.80811155 0.014261712
0.0034996015 -0.12581694 0.3021268 -0.56505889 -0.16622876 0.80813152 0.014234561
0.022660432 -0.10053433 0.32092783 -0.56509042 -0.1662187 0.80811155 0.014261712
-0.0051516765 -0.12271815 0.29839441 -0.56506681 -0.16622616 0.80812639 0.014241303
0.012498599 -0.10831814 0.31171966 -0.56509042 -0.1662187 0.80811155 0.014261712
0.006989181 -0.14175722 0.30321756 -0.56505889 -0.16622876 0.80813152 0.014234561
0.014076472 -0.14130472 0.30837235 -0.56509042 -0.16621855 0.80811155 0.014261757
0.025890205 -0.097048238 0.32458368 -0.56509042 -0.1662187 0.80811155 0.014261712
0.0020759802 -0.11832609 0.30275053 -0.56506681 -0.16622616 0.80812639 0.014241303
-0.0077009192 -0.12732467 0.29827133 -0.56505889 -0.16622876 0.80813152 0.014234561
0.038032562 -0.11418673 0.33635464 -0.56509042 -0.1662187 0.80811155 0.014261712
-0.0084786061 -0.11839941 0.2969034 -0.56506681 -0.16622616 0.80812639 0.014241303
0.028369183 -0.10445742 0.32638195 -0.56509042 -0.1662187 0.80811155 0.014261712
-0.013711119 -0.10979214 0.29511172 -0.64233601 -0.078458712 0.76239663 0.014406216
-0.011874565 -0.12301871 0.29578027 -0.56506681 -0.16622616 0.80812639 0.014241303
0.0044606244 -0.13454482 0.30214691 -0.56505889 -0.16622876 0.80813152 0.014234561
0.019733334 -0.14996481 0.31207266 -0.56509042 -0.16621855 0.80811155 0.014261757
0.0275291 -0.11226291 0.32477978 -0.56509042 -0.1662187 0.80811155 0.014261712
-0.017869938 -0.12918463 0.29613611 -0.56505889 -0.16622876 0.80813152 0.014234561
0.01485111 -0.11259706 0.31218567 -0.56509042 -0.1662187 0.80811155 0.014261712
-0.0073807822 -0.13333082 0.29737237 -0.56505889 -0.16622876 0.80813152 0.014234561
0.0090160118 -0.11519244 0.30686352 -0.56506681 -0.16622616 0.80812639 0.014241303
-0.062900528 -0.083175823 0.2431611 0.50572777 0.86268753 0.00311922 0.0015595478
0.029983575 -0.095715754 0.33045173 -0.56509042 -0.1662187 0.80811155 0.014261712
-0.004372498 -0.099870212 0.30891985 -0.56506681 -0.16622616 0.80812639 0.014241303
0.038764495 -0.10850929 0.34008372 -0.56509042 -0.1662187 0.80811155 0.014261712
-0.0094323186 -0.10367733 0.30145556 -0.56506681 -0.16622616 0.80812639 0.014241303
0.0077925441 -0.14922012 0.30199221 -0.56505889 -0.16622876 0.80813152 0.014234561
-0.0028230648 -0.12635255 0.29974627 -0.56505889 -0.16622876 0.80813152 0.014234561
-0.0054362807 -0.13414849 0.2979354 -0.56505889 -0.16622876 0.80813152 0.014234561
-0.0037177724 -0.14950028 0.29112777 0.3978613 0.68161523 -0.61409044 0.067823343
-0.015322725 -0.13613835 0.3058444 -0.56505889 -0.16622876 0.80813152 0.014234561
-0.006159008 -0.16441379 0.21372519 0.77312171 0.36555052 -0.5183199 0.047859307
0.0056305998 -0.17724136 0.22177102 0.77313429 0.3655445 -0.5183056 0.047864072
-0.060092948 -0.08321736 0.2328542 0.74662268 0.63418329 0.20091294 0
-0.066075861 -0.076754764 0.2346926 0.74662268 0.63418329 0.20091294 0
0.0031714686 -0.19273014 0.21614419 0.63941157 0.03884393 -0.76788282 0.010730171
-0.021370729 -0.20187065 0.19396634 0.6667046 0.041309156 -0.74417639 0.012573995
-0.017339727 -0.20057097 0.20093022 0.65472794 0.046662111 -0.7544229 0.0124987
-0.021744093 -0.20298572 0.1928578 0.6667046 0.041309156 -0.74417639 0.012573995
-0.0023205855 -0.20501627 0.20923798 0.65104657 0.047824513 -0.75752968 0.011769802
0.012054255 -0.20391457 0.22093552 0.65105236 0.047818024 -0.75752509 0.011772722
0.0078849643 -0.21561722 0.21321712 0.65105236 0.047818024 -0.75752509 0.011772722
-0.018594271 -0.2324091 0.17874549 0.65105975 0.047824524 -0.75751823 0.011775153
-0.021463389 -0.20178509 0.19385308 0.6667046 0.041309156 -0.74417639 0.012573995
0.0107762 -0.22646089 0.21176991 0.65105313 0.047825739 -0.75752395 0.011772308
-0.029405819 -0.1758973 0.18732271 0.67011625 0.16943023 -0.72266006 0.0061801281
0.02613603 -0.2277023 0.2230638 0.64918697 0.04972899 -0.75900155 0.014529252
-0.02419227 -0.171859 0.190771 0.67011625 0.16943023 -0.72266006 0.0061801281
-0.0045398772 -0.17225349 0.21135111 0.65776151 0.17804746 -0.73188043 0.0060697319
-0.02780913 -0.165951 0.1898239 0.67009997 0.16945095 -0.72267038 0.0061687622
0.0068466067 -0.18294229 0.22167012 0.84399027 0.23434581 -0.48245454 0.042573743
0.017388852 -0.22274141 0.2182515 0.65105313 0.047825739 -0.75752395 0.011772308
-0.0057001864 -0.20363398 0.20708893 0.65104657 0.047824513 -0.75752968 0.011769802
-0.011443398 -0.21975213 0.19887333 0.65105975 0.047824524 -0.75751823 0.011775153
-0.016442997 -0.21971451 0.19205165 0.65105975 0.047824524 -0.75751823 0.011775153
-0.016572926 -0.22084685 0.19111155 0.65105975 0.047824524 -0.75751823 0.011775153
