# .PCD v0.7 - Point Cloud Data file format
VERSION 0.7
FIELDS x y z
SIZE 4 4 4
TYPE F F F
COUNT 1 1 1
WIDTH 78
HEIGHT 1
VIEWPOINT 0 0 0 1 0 0 0
POINTS 78
DATA ascii
-0.017876411 -0.038466878 0.32874021
0.02335557 -0.1031029 0.3198449
0.005070657 -0.1479069 0.3005493
0.03817945 -0.1047562 0.33088109
0.0053930129 -0.12591361 0.29926589
0.023353171 -0.1003558 0.32023019
-0.0033392161 -0.1233829 0.2950418
0.01376073 -0.1066178 0.30886659
0.0067396909 -0.1418305 0.30355641
0.043963481 -0.1409049 0.33271211
0.01541421 -0.1414087 0.30633071
0.0272274 -0.096406467 0.32318741
0.0036403979 -0.1182087 0.30025709
-0.0068786219 -0.12875231 0.29635459
-0.042482588 -0.1160204 0.33146819
0.034268022 -0.1148549 0.3382408
-0.0055508842 -0.1180662 0.29143801
0.03040294 -0.1041802 0.32500049
-0.01141206 -0.1084329 0.2922408
-0.0096612722 -0.1244974 0.29075211
0.0042572021 -0.13435289 0.30333671
0.01944736 -0.1499512 0.31245801
0.02947933 -0.112195 0.32328039
0.040926889 -0.1299713 0.3323355
-0.018733799 -0.12902319 0.29399899
0.01604284 -0.1125005 0.31084779
-0.0099792033 -0.13253111 0.2891815
0.0089269727 -0.115233 0.3070991
-0.062900528 -0.083175823 0.2431611
0.028429311 -0.096253887 0.33158231
-0.044736531 -0.1147091 0.33252251
-0.0044671441 -0.1000275 0.30906761
0.038797598 -0.1085179 0.34018829
-0.0099824676 -0.1042322 0.3019264
0.0055689332 -0.1496204 0.30456761
-0.004020073 -0.1251692 0.30184841
-0.006884695 -0.13263211 0.3043029
-0.0032062461 -0.149341 0.29066709
-0.016418179 -0.1332479 0.30790561
0.00063700968 -0.1294672 0.229293
-0.006159008 -0.16441379 0.21372519
0.031044951 -0.16534761 0.32259879
0.045371391 -0.1863036 0.33551341
0.0057850261 -0.1772048 0.22162279
-0.060092948 -0.08321736 0.2328542
-0.045770589 -0.06405136 0.2136088
-0.066075861 -0.076754764 0.2346926
-0.0466282 -0.070817038 0.20972671
0.0032635031 -0.1927091 0.2160417
0.01946586 -0.16207279 0.2288246
-0.020499101 -0.2017471 0.19339129
-0.017231081 -0.2002832 0.2008229
-0.023178291 -0.2031799 0.19380289
-0.001316614 -0.20445099 0.20783819
0.0117068 -0.2040596 0.2213666
0.01030105 -0.21455979 0.210786
-0.018594271 -0.2324091 0.17874549
-0.029001409 -0.2373879 0.12845729
-0.020769401 -0.20168459 0.193396
0.01121701 -0.2264228 0.21126629
-0.02175259 -0.13086569 0.19946291
-0.058996599 -0.2381748 0.1773514
0.0088884197 -0.14772689 0.2249935
-0.029405819 -0.1758973 0.18732271
0.031006539 -0.1980682 0.23206671
0.02613603 -0.2277023 0.2230638
-0.02419227 -0.171859 0.190771
-0.004249543 -0.1721343 0.2111354
-0.02780913 -0.165951 0.1898239
-0.049519569 -0.23232099 0.1857833
0.0071448758 -0.18289509 0.221397
0.01530777 -0.2235928 0.2202006
-0.0057154889 -0.2036868 0.20717859
-0.01144143 -0.2197496 0.1988674
-0.050025541 -0.2309722 0.1702603
-0.019074099 -0.2205222 0.1934153
-0.01960613 -0.2221072 0.1928921
-0.051696401 -0.2244761 0.1584217
