# .PCD v0.7 - Point Cloud Data file format
VERSION 0.7
FIELDS x y z
SIZE 4 4 4
TYPE F F F
COUNT 1 1 1
WIDTH 1403
HEIGHT 1
VIEWPOINT 0 0 0 1 0 0 0
POINTS 1403
DATA ascii
0.177016 -0.023740171 0.54495847
0.15023521 -0.015918549 0.53834349
0.2442299 -0.2102249 0.65319282
0.086230204 -0.071120322 0.69820428
0.214448 -0.005331486 0.54699212
0.33240819 0.0261018 0.55743462
0.35682219 -0.1098166 0.54298377
0.13341241 -0.062502772 0.29368451
0.1158807 -0.049987201 0.5531168
0.3862496 -0.23545191 0.54624927
0.2234762 0.086004868 0.60859859
0.047021449 0.1031637 0.67611092
0.093311131 0.01160318 0.58311403
0.058851238 -0.028097991 0.69318402
0.1155975 0.099805117 0.50303161
0.3382152 -0.1791178 0.56772828
0.13269129 -0.060053408 0.59928018
0.19334009 -0.085502803 0.60884118
0.259408 -0.037722498 0.55626702
0.2526592 -0.035649631 0.55271852
0.1247808 -0.0001836419 0.26147959
0.06105065 0.1000418 0.39749339
0.32117349 0.03151387 0.52814251
0.1658911 -0.064348251 0.32896581
0.20177139 -0.070704252 0.33339071
0.2375481 -0.092960536 0.35722491
0.33789459 -0.03519699 0.54892713
0.28877509 0.1067708 0.52170098
0.26006901 -0.072419852 0.3983793
0.058393002 0.0064228768 0.66418809
0.33416769 -0.1838351 0.58643007
0.1788642 -0.009126395 0.55231518
0.3300122 -0.19027869 0.591111
0.081497401 0.083461873 0.71945268
0.1479151 -0.2094093 0.72710848
0.054375891 0.0089370608 0.74859709
0.2141275 0.09602055 0.56490219
0.058209419 -0.0020217299 0.74626052
-0.097863667 0.089969009 0.56162971
0.16601171 -0.070099622 0.66446787
-0.034538571 0.098165087 0.38217101
-0.099752814 0.1006414 0.49417499
0.12815531 -0.17333519 0.74152559
0.02980697 -0.1179726 0.79966962
0.01121777 -0.1101548 0.79957598
0.01407284 -0.17071091 0.81148487
0.022657869 0.074124008 0.76562327
0.2322326 -0.069773078 0.62412542
0.019695399 0.064975977 0.76628208
0.018802339 0.029283971 0.7722761
0.01970619 -0.022241561 0.77744132
0.019039869 -0.01536366 0.7767235
0.01349485 -0.1760499 0.81211752
0.02739257 -0.15776861 0.80474591
-0.1555149 0.080506817 0.54530722
-0.03402102 0.073204286 0.70982331
0.021693651 0.06009632 0.76327759
-0.096855097 -0.067254633 0.62075567
-0.1746053 -0.062534213 0.51914322
-0.1685787 -0.039515499 0.50735962
-0.08904177 0.082249276 0.6279037
-0.1846678 -0.081079133 0.54647559
0.01094902 -0.19985171 0.81713831
-0.1137639 -0.069515973 0.585814
-0.1505743 -0.026792649 0.51174277
-0.064011902 0.085157812 0.63420182
0.1404427 0.098671362 0.4164457
-0.1408027 -0.001395524 0.51517618
-0.133121 -0.064768732 0.54940033
-0.19451261 0.01347023 0.50867122
0.13789859 -0.072161198 0.71332961
-0.022788409 -0.1611955 0.77533352
-0.1323743 0.063238487 0.57860672
0.01641977 -0.04270285 0.78277773
-0.085196137 -0.071906149 0.6675784
-0.16331381 0.043958191 0.51064128
-0.1145502 0.01038539 0.51146078
-0.0400902 0.068131149 0.69224721
-0.16132259 -0.053797189 0.51216477
-0.096171796 -0.079429358 0.66715002
-0.019183639 -0.1968154 0.79302341
-0.1935769 -0.2403976 0.57462913
-0.1530817 -0.067075223 0.52605599
-0.154163 0.016509321 0.50911409
-0.072644003 -0.061460052 0.55358052
0.01124704 0.057408631 0.76317948
0.0086301574 -0.0095592439 0.77418882
-0.2251163 -0.1595103 0.51587611
-0.1396744 -0.1664934 0.62001753
0.065523148 0.091789529 0.51219642
-0.067376487 -0.17169251 0.72730827
-0.060594652 0.0234136 0.53232729
-0.0073988442 0.057865109 0.7460382
-0.1124369 -0.064263143 0.60090983
-0.093285076 -0.20772021 0.697128
-0.074015804 -0.065562278 0.53629422
-0.1878591 -0.1812028 0.57311589
-0.079972863 -0.01312107 0.52384728
-0.1075647 0.0074072182 0.51792371
-0.1190622 0.069644473 0.6014542
-0.1285051 0.069639921 0.58576322
-0.01193649 -0.1251775 0.78892583
-0.074721098 -0.02603838 0.52165008
-0.1638629 -0.21729849 0.6135518
-0.069443107 -0.1674418 0.71961772
-0.081043363 -0.063177198 0.53360748
-0.164887 -0.20542289 0.60243338
-0.1665639 0.094480433 0.46349481
-0.1593674 0.039997458 0.51424658
-0.01516449 0.080924273 0.72546142
-0.1134305 -0.071938902 0.65452719
-0.038878441 -0.06573534 0.61455351
-0.01422119 -0.056632072 0.5511108
0.222681 -0.17460071 0.67096508
-0.074400097 -0.19478311 0.7134912
-0.097448707 0.089955881 0.61772603
0.28687871 -0.1350807 0.61268443
-0.1741958 -0.077210523 0.57358962
0.002831578 -0.1330056 0.80276859
-0.0095692277 0.051812951 0.74070138
-0.065927453 -0.1838751 0.73204643
-0.05548412 -0.03854296 0.52671242
-0.16694321 -0.162101 0.59082448
-0.1602314 -0.1576447 0.60119641
-0.003228575 -0.078321837 0.78204328
0.01122802 -0.1134903 0.80068737
-0.1329986 -0.0091892481 0.51614201
-0.044223368 -0.065651029 0.64821249
-0.01973897 -0.036873311 0.54009283
-0.17670821 -0.1757405 0.58260089
-0.07880047 0.088413827 0.64067179
-0.1452896 -0.065438241 0.58931011
0.024384979 -0.1601304 0.81143123
-0.031259719 -0.06503284 0.69698942
-0.1469356 0.083172321 0.55329561
0.01171511 0.0069411402 0.77378619
-0.0087931156 0.003414124 0.54675961
-0.1024809 0.031327609 0.51987451
-0.089894533 -0.13928489 0.69430602
-0.024123549 -0.066424161 0.64309061
-0.01900178 -0.19320831 0.79043669
-0.01203072 -0.1313539 0.78759801
0.001779735 -0.016882271 0.55553079
-0.02815819 -0.05869684 0.56570071
-0.1531007 -0.14255659 0.58760232
-0.1018408 0.01411965 0.51848632
-0.1441205 0.074987501 0.55337667
-0.15306941 0.01591298 0.51075852
-0.1615214 -0.1688455 0.60200769
-0.096636832 -0.023478661 0.51743931
-0.057907041 -0.06261 0.60146058
-0.1127047 -0.1507944 0.65609783
-0.068110347 -0.01077142 0.52072757
-0.1524549 -0.17762589 0.60921979
0.0090383291 -0.21742371 0.82176888
-0.1741818 0.079774283 0.52626657
-0.104599 -0.23846009 0.6973539
-0.1042615 0.097582951 0.4928039
-0.1013722 0.080067813 0.61527163
-0.2154955 -0.037311729 0.48998931
-0.048768342 -0.063395798 0.64162159
-0.037137002 -0.063281797 0.59409028
-0.1644351 -0.2377052 0.63169742
0.0049112742 -0.01988861 0.55944252
0.01036984 0.022618949 0.76899409
-0.0825423 0.088755853 0.6360265
-0.02751684 -0.040699869 0.5376702
0.0069409912 -0.2163478 0.82219082
-0.1793814 0.05809411 0.50887072
-0.17361809 0.068635881 0.52262622
-0.080008507 -0.1444075 0.70341879
0.33044639 -0.078215867 0.55881822
-0.027107891 0.094800062 0.43610281
-0.1979741 0.038407359 0.495031
-0.2018176 0.01079544 0.49398789
-0.029202159 -0.1073444 0.75878519
-0.032023191 -0.088640958 0.75248361
0.0094239116 -0.04246733 0.57837051
-0.0079184175 0.038848698 0.70507532
-0.16852599 -0.067913324 0.54036993
-0.23838 -0.09000656 0.4656111
-0.1386404 -0.063297063 0.52472723
-0.15398499 -0.1638239 0.60199869
0.01044279 -0.2050382 0.81618607
-0.0036635699 -0.14979739 0.7999953
-0.1003779 -0.01345408 0.50692987
-0.1450534 -0.081455171 0.58364469
-0.023475111 -0.066113383 0.72675371
0.00034695861 0.05780226 0.7406227
0.33736819 -0.2316827 0.59317291
0.023005599 -0.050679151 0.79051697
-0.086372226 -0.063548557 0.55263293
-0.026418781 -0.062009539 0.60623962
0.0087193251 0.001350105 0.57999021
0.0108543 -0.0060947239 0.63510501
-0.1199921 0.039586101 0.51794171
-0.14237291 -0.1683916 0.61347991
-0.037692871 -0.067518033 0.6865288
0.0090396404 0.0058050449 0.58358842
0.0074816048 0.02350089 0.76173413
-0.01091123 -0.064991273 0.76502931
-0.1837638 -0.096198678 0.56472158
-0.0067202151 0.019308601 0.74425262
-0.0094276955 0.0093023479 0.74581748
0.0070253909 0.003712445 0.62543899
-0.01019156 0.096486151 0.61523998
0.0039894581 0.019258769 0.75740677
-0.1412046 0.098933339 0.52423269
-0.17961811 -0.1918433 0.58083743
-0.090514332 -0.056443751 0.52164203
-0.01556963 -0.23160221 0.80017018
-0.1445777 -0.00045281649 0.50700277
-0.1894494 -0.093964249 0.54194331
-0.01180777 -0.24044991 0.80771011
-0.095887177 0.09750472 0.61568362
-0.20735019 -0.03295723 0.49480709
-0.1707546 -0.2155176 0.59940851
0.084471762 0.0997044 0.51560318
-0.023349579 0.098484643 0.40878859
-0.221415 -0.2181914 0.5341261
-0.22218069 -0.2208896 0.52170533
-0.19616351 -0.2367976 0.57285458
-0.21063951 -0.2096674 0.54744858
0.0038992169 -0.03396735 0.59317428
-0.001699328 -0.02541462 0.65620148
-0.0050735772 -0.046680901 0.77271593
0.0077362061 -0.13125721 0.80284518
-0.0057167411 -0.13804451 0.79611182
0.030058799 0.005589813 0.76134461
-0.1211749 -0.004312187 0.51317269
-0.083766073 -0.064322501 0.59682238
-0.084961653 -0.19070791 0.70350027
-0.086641848 -0.1836815 0.69377679
0.00082576269 -0.023931 0.62700921
-0.1117595 -0.19413809 0.66703808
-0.09859252 -0.066818766 0.54942882
-0.1145369 -0.0344708 0.51685178
-0.13965701 -0.17335211 0.6337828
-0.12975299 -0.1763377 0.64027959
-0.1750861 -0.1858018 0.57976168
-0.15408839 -0.074593991 0.56696528
0.055876851 0.097165272 0.57117462
-0.15492991 -0.1921643 0.61251593
-0.14036261 -0.1917408 0.63372678
0.31395051 -0.01085657 0.54929203
-0.049451891 -0.21023691 0.85338187
-0.081836909 0.080568761 0.6446709
-0.1130382 -0.1496437 0.65659428
-0.01944074 -0.01208484 0.53932649
-0.02723014 -0.1342587 0.78008258
-0.1209696 0.092627272 0.57916439
-0.1161262 -0.1806252 0.65774429
0.074338257 -0.16115201 0.78190398
-0.1185669 -0.07130459 0.63984537
-0.239564 -0.1987818 0.5066781
0.1607368 0.097094707 0.61348557
-0.1217148 -0.1927897 0.65551901
-0.085436672 0.1009859 0.50346839
-0.2479703 -0.15866449 0.47167221
-0.2166878 0.006420821 0.4688074
-0.22284511 -0.02154994 0.4669947
-0.1383443 -0.069283433 0.58976841
-0.25797361 -0.16488449 0.463478
-0.16867331 0.06754823 0.52571648
-0.2470008 -0.1319243 0.4655889
-0.22375131 -0.034851369 0.46897051
-0.25387841 -0.1246438 0.40966609
-0.2576752 -0.1807764 0.46393749
-0.2473859 -0.15035219 0.4334296
-0.2078342 0.06108208 0.4707568
-0.1717899 0.081914216 0.40385339
-0.20489611 -0.1013385 0.38730189
-0.090468451 -0.077149779 0.3111915
-0.15952609 -0.072315507 0.39801589
-0.2051979 0.045049518 0.46413711
-0.1933116 -0.2212736 0.3933385
-0.15084299 -0.079952538 0.3536467
0.001683533 -0.059430178 0.30400059
-0.1349265 0.083479233 0.37671289
-0.20347521 -0.17765599 0.4076243
-0.2383596 -0.2154315 0.4383038
-0.029613281 -0.054612771 0.34606719
-0.1071315 0.089081869 0.36124861
-0.16446701 -0.067117989 0.4284237
-0.20255481 -0.18419769 0.408961
-0.1000061 0.076041616 0.3513675
0.037714109 0.003279611 0.3083728
-0.202126 -0.098106682 0.38653681
0.023246201 -0.066788808 0.35806149
0.048960511 0.01227731 0.30423519
-0.2052259 -0.15796 0.37960839
0.03770873 0.034802679 0.28053671
-0.077417761 -0.082007997 0.33146241
-0.069062769 -0.1736822 0.3123292
-0.19104759 -0.17160331 0.36450079
-0.14277031 -0.1703523 0.36374351
0.0546217 -0.024244821 0.3140842
0.0056774169 -0.054021891 0.3233532
-0.06122905 0.083794311 0.3285729
-0.1317707 0.088534802 0.37555549
0.040566921 0.086314566 0.2832486
0.04999334 0.024936769 0.30757219
0.01200807 0.071553841 0.29760081
-0.16783351 0.082063168 0.43230039
-0.23780049 -0.208373 0.4376789
-0.2023412 0.033851441 0.45867679
-0.1205692 -0.1226495 0.3238489
-0.1230647 -0.069499552 0.37425321
0.001002133 -0.16804831 0.82322478
-0.016866511 0.071363047 0.32153451
-0.03998905 -0.072558969 0.70210773
-0.060112949 0.093600631 0.59596992
-0.1564611 -0.099302977 0.35134119
-0.1416201 0.093376219 0.49145931
-0.108162 -0.1206372 0.32104719
-0.15436409 -0.067777693 0.4310554
-0.214828 -0.020617429 0.4577693
-0.046732131 0.086528108 0.35097909
-0.048073169 0.086688973 0.31246969
-0.1831734 0.087858297 0.41332409
-0.2042543 -0.018854169 0.4543671
0.052460071 -0.0038526061 0.31175381
-0.2000701 -0.1811002 0.40946209
-0.19538251 -0.20942929 0.36366341
-0.1439434 -0.085247517 0.37842679
-0.1079128 -0.1342077 0.34948841
-0.19554441 0.017602621 0.45036229
-0.1917609 -0.1839527 0.392342
-0.1711387 -0.071055591 0.40771589
-0.017058849 -0.060642991 0.43294451
-0.048554119 -0.066468179 0.38962021
-0.063790083 -0.04861119 0.45252991
-0.096645243 0.079741701 0.38297871
-0.1839354 -0.098159887 0.38149059
0.0082505941 -0.066755712 0.3787595
-0.1274129 -0.05022788 0.41551721
-0.004121602 -0.058634222 0.4261325
-0.01198399 -0.059330549 0.41725039
-0.16039599 0.06611748 0.4320673
-0.2344524 -0.20891771 0.43161789
-0.20528901 -0.01746176 0.4176271
-0.20936351 -0.031510498 0.49423781
-0.05432057 0.075722709 0.3520149
-0.047105972 -0.1060034 0.30601779
-0.2043235 0.055564761 0.4719725
0.033046249 0.04512478 0.32531339
0.03002427 -0.01821694 0.36308321
0.01210624 -0.018616591 0.44518211
-0.083979428 -0.088428557 0.33421549
-0.066782057 -0.099726379 0.32466471
-0.05879939 -0.066835701 0.41128549
-0.2103027 -0.21089301 0.40960711
0.023668289 0.065506853 0.29024121
-0.051598132 -0.1125937 0.3216475
-0.2082849 -0.017573951 0.45360091
-0.20654809 -0.02158743 0.4525353
-0.14255869 -0.15592191 0.35644439
-0.097712576 -0.058118999 0.44814131
-0.051407039 -0.1093915 0.31463599
-0.1881482 -0.102915 0.41533399
-0.1855873 -0.1775509 0.39248839
-0.0837152 0.076762937 0.37446871
0.031364229 0.04187056 0.3178139
-0.06982106 -0.076960377 0.3459377
0.43509549 -0.1564938 1.369017
-0.023889869 0.069038607 0.2998715
0.046719551 0.01114044 0.34470779
-0.074986286 -0.1522377 0.29152459
-0.107845 -0.080112576 0.64536458
-0.2386988 -0.098467112 0.4668245
-0.24277189 -0.1347585 0.47219369
-0.01443946 0.093614131 0.40634659
-0.042075101 -0.1855946 0.26217011
-0.042456329 0.094502263 0.4083001
-0.2046046 0.032976329 0.4639
-0.065992773 -0.1497166 0.3112967
-0.1744567 -0.13300151 0.3611556
0.05407536 -0.01586986 0.29413441
-0.063900709 -0.1506937 0.3119497
-0.13469771 -0.1142082 0.3352094
-0.14091501 -0.06772387 0.43433511
-0.079500958 -0.1635848 0.2915436
-0.1443366 -0.104804 0.3459163
-0.1247532 -0.12568229 0.33416951
-0.034978751 -0.1192143 0.26646939
-0.1723801 -0.0106563 0.44543561
0.29235709 -0.2000836 1.268939
0.29773581 -0.202705 1.282441
-0.244765 -0.1590264 0.46684769
0.2839953 -0.2138979 1.302211
-0.091272376 -0.1856022 0.29338849
-0.1372703 -0.099480599 0.34595689
-0.098478317 0.01409113 0.45327821
-0.24431521 -0.1602622 0.46094549
-0.1737386 -0.1170384 0.36336049
-0.1181158 -0.1178267 0.35827729
-0.074836969 0.02231491 0.45764151
-0.099215209 -0.1771881 0.30292881
-0.1039256 -0.2038736 0.29884699
-0.03458542 -0.064873338 0.4087972
-0.14549419 0.01174724 0.44792351
-0.096209787 -0.1678852 0.29745689
0.45800111 -0.1425949 1.45223
-0.1423423 -0.1634151 0.33074129
-0.1955964 0.00029192859 0.4441849
0.055398699 0.028219519 0.29159951
0.4420948 -0.1387962 1.468021
0.01665947 -0.057434902 0.32763669
-0.01743279 -0.06185858 0.27203709
-0.01210886 -0.2275618 0.82294559
0.029370129 -0.2413756 0.22164869
-0.2555626 -0.2174864 0.48151529
-0.00222683 0.09569943 0.62386882
-0.1601309 -0.06993711 0.41775131
-0.2286026 -0.071002901 0.49195001
-0.096305549 -0.2096172 0.29663
-0.043312389 -0.2206835 0.2532115
-0.001572371 -0.088979572 0.27622339
-0.001891255 -0.08301276 0.27261329
-0.14108109 -0.20495699 0.33350551
-0.15654659 -0.072956197 0.40726829
-0.02359703 -0.1568124 0.2468036
0.0034722979 -0.22365031 0.25224951
-0.1253057 -0.066717803 0.41535211
-0.2216513 -0.03003931 0.47012359
-0.1234868 -0.20409369 0.35994789
-0.01549786 -0.064892352 0.33512259
-0.17962959 -0.1505055 0.40308931
-0.2194645 -0.1718563 0.43543151
-0.1026673 0.093958907 0.53223658
-0.1395106 -0.2075915 0.3602708
-0.1401404 -0.1123571 0.38253659
-0.2562637 -0.2157388 0.46403229
-0.1454324 -0.20924769 0.36215869
-0.1538645 -0.1317444 0.38919431
-0.1177207 -0.2171431 0.34823149
-0.137201 -0.2035203 0.32589379
-0.23523229 -0.09090507 0.48079121
-0.18575761 -0.0057818 0.45572951
-0.040466849 -0.06426242 0.3772853
-0.2360529 -0.1109142 0.4560653
-0.1992083 0.02038726 0.45467091
-0.1194909 0.1091256 0.4944565
-0.07646513 0.02018008 0.457522
-0.223124 -0.13160411 0.43781319
-0.028097751 -0.174693 0.2496126
-0.26041359 -0.22828761 0.4636552
0.29633799 -0.2423436 1.209285
0.053502738 0.02951017 0.29054749
-0.073386669 -0.06898281 0.3500877
-0.080118664 -0.066245846 0.41382349
-0.2014242 -0.195058 0.40145811
-0.2098995 -0.049245689 0.4513959
-0.2007226 0.034793049 0.45630029
-0.2113529 -0.054662291 0.45050591
-0.12510291 -0.070254274 0.4251135
-0.0533888 -0.16462269 0.30799311
-0.1440926 0.094695583 0.4595049
-0.21695811 -0.090364963 0.43722451
-0.002440572 -0.076656818 0.28155139
-0.22473469 -0.1240887 0.44350591
-0.2278313 -0.1008369 0.44703761
-0.01217926 -0.1001174 0.2838867
0.011518 -0.1157665 0.2559478
-0.01738465 -0.13952661 0.2470278
0.05050135 -0.0052621961 0.31032929
0.0016972719 -0.1763593 0.26249009
-0.02334824 -0.19491731 0.27979949
-0.1404707 -0.0099793971 0.44664419
-0.00098282099 0.094711363 0.36111671
-0.1951898 -0.051047679 0.45537561
0.0088829398 0.01120973 0.44806209
-0.065584242 0.067035913 0.34870359
0.093684196 0.1015877 0.50265229
-0.01796356 -0.1575103 0.24983869
0.004722625 -0.1193243 0.2393132
-0.2012068 -0.0082364678 0.45335731
0.034729809 -0.1053005 0.22480629
-0.1967279 -0.029517651 0.44331491
-0.065104596 -0.072451413 0.3291688
-0.179983 0.056480501 0.44578189
-0.1973117 -0.05132911 0.44275591
0.039413512 0.093960121 0.50900698
-0.02850312 -0.066668153 0.3724921
-0.18158451 0.076109961 0.4460986
0.45785871 -0.1169756 1.430107
0.175005 0.093020529 0.53008282
-0.2344199 -0.2192293 0.430379
0.025029119 -0.073776953 0.2672672
0.021574739 0.067269437 0.28886399
0.039308909 -0.071108393 0.26631609
-0.221597 -0.133818 0.43229041
-0.26962781 -0.2411298 0.45215431
-0.2387646 -0.13857169 0.44322249
-0.075688779 0.096019827 0.46524361
-0.1168742 -0.063448466 0.44336191
-0.1008198 -0.069947481 0.37043869
-0.089831948 0.099141002 0.54399079
-0.26097021 -0.22623169 0.44755259
-0.06732583 0.0531784 0.40162659
-0.21738631 -0.16016009 0.42666131
-0.2403961 -0.1160583 0.46016791
-0.1045524 -0.177351 0.34053639
-0.02833098 -0.1030918 0.2975173
-0.19270919 0.066203699 0.4608041
-0.25808021 -0.1092568 0.42109081
0.019620299 -0.1005076 0.23471829
-0.001842141 -0.073548444 0.2583434
0.072996199 0.086713977 0.2424558
0.2620624 -0.06457895 0.49793261
0.1141847 -0.095039107 0.27882111
0.2102844 -0.046477411 0.48280811
0.083401874 0.065940447 0.32982811
0.14693271 -0.13125519 0.31749639
0.2241946 -0.14225321 0.4095723
0.25572011 -0.15625229 0.4057804
0.1641459 -0.216901 0.3028824
0.021352829 0.089112103 0.26742101
0.31292069 -0.20499571 0.47155491
0.086252913 -0.079499193 0.35385951
0.2623868 -0.14576671 0.4498862
0.14983919 -0.1012077 0.2907404
0.1142177 0.069521308 0.33279699
0.1518178 -0.05035365 0.46355489
0.15934069 -0.1274018 0.3307271
0.1084531 -0.04562318 0.47196209
0.1145087 -0.05451164 0.44253129
0.01501858 0.099415839 0.40122399
0.2152824 0.08858408 0.42522481
0.1051481 0.01257598 0.25783211
0.1486761 0.1033195 0.45623031
-0.09569329 -0.063148864 0.34163931
-0.079204023 0.070203267 0.34428331
-0.1041102 0.072024137 0.36148801
0.2274259 -0.051755909 0.4976185
-0.20781671 -0.01050368 0.43105689
-0.22807349 -0.0023342371 0.44302419
-0.24231189 -0.069469899 0.433249
0.2276043 -0.1009725 0.3981387
0.1252725 -0.2318119 0.2216448
-0.2244079 -0.02814609 0.43327051
0.1504436 -0.059672739 0.42226809
0.1064847 -0.096529007 0.2250126
0.1257052 -0.16504189 0.2230732
0.073396273 0.089212976 0.2428074
-0.2739338 -0.2388186 0.4207347
0.1006143 -0.04855841 0.3203029
0.2014188 -0.0001398921 0.4899258
0.099639237 -0.04254058 0.4086113
0.1660753 0.01549044 0.4850024
0.3123157 -0.12971219 0.49340761
0.2334564 0.04860704 0.49702919
0.1546184 0.026550859 0.4862746
0.1571956 0.080020107 0.33908969
0.1021309 -0.051641349 0.4040665
0.23435239 -0.1827804 0.3684293
0.14582311 0.090150848 0.3255958
0.2735309 -0.07883209 0.45444381
0.1265921 -0.049292531 0.47154379
0.1573083 0.074942589 0.34986749
0.27166969 0.087352477 0.50889188
0.2124825 -0.04865104 0.48872089
0.2254194 -0.22846089 0.35428059
0.117783 -0.063465647 0.28298441
0.32662109 -0.1916545 0.50106561
0.12682261 -0.1186314 0.3003566
0.1592776 -0.20253231 0.26547289
0.1140609 -0.062804639 0.2822946
0.2337902 -0.22090741 0.3758319
0.085538 -0.03880626 0.41698921
0.079007939 -0.05784364 0.46684921
0.096472234 -0.02790818 0.450012
0.24077331 -0.2323788 0.35396639
-0.041747872 0.098990887 0.39968821
0.093628816 0.017077919 0.2435506
0.090000153 0.025548959 0.23872709
0.1025947 0.083467223 0.2661956
0.16272061 -0.1941393 0.26910141
0.090937823 0.036028739 0.3551051
0.1835493 -0.2182554 0.29983169
0.1655141 0.098792017 0.52721238
0.083331794 0.01067755 0.4162913
-0.230883 -0.04969424 0.43591729
0.2401379 0.071818873 0.45248389
0.31075451 -0.1167089 0.4941538
0.25335771 -0.113651 0.40701079
-0.1856434 -0.068337023 0.3914746
0.092242777 0.042051662 0.2446906
0.093008824 -0.039186541 0.3569603
0.28695121 -0.0052819252 0.50806701
0.1708959 -0.1262202 0.31549299
0.1238984 0.076034553 0.33778849
0.097123533 0.051387399 0.2577323
0.096281171 0.047312021 0.25600499
0.2045528 0.072601013 0.41028649
0.18062089 -0.1178041 0.32495019
0.15081421 -0.2200397 0.2570658
0.1825338 -0.1241829 0.32416719
0.2799772 -0.1833505 0.44297361
0.2953867 -0.1935707 0.452218
0.1030049 -0.047456499 0.2529597
0.03601497 -0.190795 0.2078023
0.16095041 -0.1412103 0.30537069
0.065115631 -0.072427154 0.21858589
0.1510389 -0.093478173 0.29002821
0.16103861 -0.1044711 0.29775539
-0.029382709 0.096092097 0.32708341
0.1153179 -0.1789353 0.2219348
0.2755928 0.1024564 0.53534561
0.16017009 0.02753967 0.48436251
0.2453091 -0.13596611 0.4129028
0.26216021 -0.059527989 0.48870391
0.097169101 -0.033280581 0.4482339
0.2547498 -0.16041569 0.40807071
0.094464242 0.022513449 0.2446572
-0.1386597 -0.060457591 0.38416511
0.099056721 -0.03958267 0.25705251
0.2286801 -0.2151309 0.36705011
0.1488671 -0.069876969 0.29286131
0.098719418 -0.0002171993 0.30720231
0.1268923 -0.1526933 0.24400149
0.1021545 0.02127764 0.25007021
0.078134328 -0.0620091 0.21137761
0.25975749 -0.094941624 0.44183809
-0.1776133 -0.096548408 0.37616679
-0.077438183 -0.1439092 0.29629019
0.27927911 -0.095457911 0.4509474
0.067829221 -0.054572579 0.2232668
0.1708447 0.101028 0.39318049
0.092305116 0.0518688 0.24869581
0.097287573 0.0044405158 0.25152889
0.30148721 -0.082493782 0.48717561
0.1828229 -0.1777146 0.31077731
0.1080496 -0.0082576871 0.2906242
0.2479798 -0.18505131 0.39471799
0.1580212 -0.1848612 0.26340961
0.22626179 0.027875571 0.49959001
0.13487069 -0.0624367 0.28893319
-0.016194111 0.1020553 0.48329601
0.1374741 -0.15951461 0.24501701
0.171514 -0.2044728 0.27115831
0.059189081 0.09860985 0.5093857
0.0073369741 0.097553432 0.45982039
0.28401911 -0.093069017 0.46611741
0.2479721 -0.098612487 0.4072932
-0.20194601 0.09703058 0.43820009
0.082148023 -0.016522439 0.2268596
0.085526198 -0.01840141 0.2239809
-1.6152861e-05 -0.071040988 0.25706011
0.1152748 -0.053702209 0.38725141
0.2400348 -0.063690782 0.39687479
0.082477897 -0.066317983 0.3739455
0.039616272 0.080388837 0.24998941
-0.24119321 -0.01528879 0.43856731
0.05173305 -0.1350078 0.20567849
-0.01070724 -0.1071863 0.23648819
-0.083017498 -0.064627439 0.36999601
-0.1657964 -0.24156509 0.31693661
0.04869809 -0.021046121 0.22858749
0.22806001 -0.1291151 0.48401159
0.20501129 0.02830784 0.57566088
0.1816127 -0.1203832 0.42808849
0.2493937 -0.043497588 0.5930264
0.115859 -0.094179541 0.36257169
0.27745709 -0.2290405 0.53055292
0.2030758 0.0057725608 0.58525193
0.1841788 0.01020575 0.57574272
0.24016599 -0.088253967 0.57377541
0.1165973 -0.088717669 0.51045609
0.27589399 -0.22524101 0.53147483
0.1963594 -0.135592 0.45118001
0.1522833 -0.1468434 0.38648391
0.1575985 -0.1595393 0.38501239
0.2179271 -0.097479522 0.48986629
0.25707179 -0.054561902 0.54343623
0.2747094 -0.2163537 0.49381131
0.2212034 -0.0657873 0.51284617
0.1925862 -0.1096297 0.43998861
0.2055466 -0.1389094 0.42715389
0.1886335 -0.061905999 0.53570682
0.1658989 0.068795569 0.43638861
0.1740988 -0.1107912 0.4050025
0.17614409 -0.069460273 0.43808889
0.29521731 -0.16883489 0.55092353
0.1383059 -0.12971801 0.35888341
0.2313654 -0.024955651 0.53179479
0.17272601 -0.1587912 0.4023326
0.15881941 -0.1079185 0.38781831
0.2468747 0.0006005168 0.54438788
0.16397829 -0.2408812 0.3529655
0.1835742 -0.23750231 0.3772676
0.74844629 -0.23245721 0.45104751
0.64416963 -0.2073832 0.78956938
0.708287 -0.1745567 0.99146432
0.078073502 0.087079719 0.36092579
0.077701993 -0.094799191 0.308193
0.088103533 -0.1176668 0.32427901
0.091178298 -0.1119007 0.33042821
0.1228297 0.067950107 0.41613919
0.083455861 -0.1109277 0.32185629
0.078843243 0.071614467 0.3612206
0.02015591 -0.049105231 0.45605269
0.1225524 0.069536507 0.41702619
0.078581274 -0.071957499 0.33431551
0.02170432 -0.036814202 0.42915711
0.023921249 0.038003579 0.39038241
0.019025389 -0.04428554 0.45654151
0.02255881 -0.04560715 0.39319161
0.02657056 -0.0078633577 0.34378809
0.02700776 -0.042755481 0.3959057
0.035033111 0.0256954 0.3338123
0.033770081 -0.00023348629 0.35130849
0.038645029 -0.033798009 0.4857727
0.041733921 0.02270475 0.32152441
0.035807788 0.078884363 0.30015609
0.045538072 -0.052101839 0.28220591
0.025287811 -0.001899496 0.3444227
0.044501781 0.0073419958 0.2887066
0.035397772 -0.050183062 0.2788375
0.044946011 -0.0036176441 0.29811081
0.0393821 0.046286032 0.2857416
0.033859968 -0.00723426 0.3058503
0.047072891 0.073146403 0.32165769
0.035038412 0.0021757041 0.35754409
0.0169912 0.026689891 0.39942351
0.02476633 -0.0082334131 0.37962419
0.078093767 0.075847127 0.36176541
0.02868646 -0.02197394 0.33487371
0.03949362 0.01541346 0.28411931
0.03187817 -0.04000799 0.28610101
0.03001469 -0.1730154 0.22239611
0.1049728 0.079692528 0.36674491
0.063838899 -0.071421981 0.35154271
0.025425849 -0.01508546 0.43015119
0.02621478 -0.058401238 0.36219391
0.051384509 -0.12666941 0.26420891
0.019013939 -0.046280969 0.43120399
0.01422542 0.001024663 0.45812461
0.04017311 0.01449488 0.27203941
0.042004641 0.021564171 0.29113039
0.05128872 -0.1824601 0.25548291
0.046394709 -0.07564202 0.31904101
0.052535828 -0.074296668 0.31622371
0.093369961 0.064829752 0.37373251
0.033413891 0.05303574 0.32888159
0.023415569 -0.0052549988 0.26953521
0.03266656 -0.15666281 0.2396653
0.1073864 0.08430519 0.40338019
0.03817999 -0.2030104 0.22879221
0.04171437 -0.095077142 0.2434147
0.033436 -0.21759669 0.2223988
0.084532142 0.096923023 0.38495389
0.1156964 0.096313886 0.43072221
0.096349783 0.071714982 0.38206851
0.032018479 -0.049140859 0.29430181
0.04353267 -0.217204 0.2333986
0.04433829 -0.066726521 0.39914149
0.040132999 -0.22268219 0.2281276
0.020914789 0.07820268 0.27979121
-0.01555705 0.099265069 0.57294858
0.094846614 0.1036739 0.3645221
0.082997322 -0.076420583 0.32366931
-0.032724019 0.095278487 0.44309089
0.05961692 -0.071064621 0.34687799
0.072205663 -0.1591896 0.26841021
0.05054206 -0.0072766538 0.4671348
0.058498081 -0.1531354 0.23964921
0.02657938 -0.1199144 0.2336815
0.084150143 -0.2137893 0.29570499
0.01191705 -0.17216641 0.2259485
0.042183701 -0.18498731 0.2517786
0.046846811 -0.1790332 0.25611559
0.039552689 -0.1288197 0.27001151
0.02889812 -0.1985258 0.23070151
0.02609372 -0.212396 0.224153
0.07885468 -0.2265529 0.28878519
0.042582039 -0.1171763 0.2679477
0.017599881 -0.04590543 0.25745681
0.035957631 -0.1383235 0.25557739
0.075433083 0.076420628 0.3779389
0.0092927217 -0.04506145 0.4054161
0.1305414 0.068114497 0.4487237
-1.7851589e-05 -0.051697161 0.4753181
0.048685309 -0.043348432 0.51747882
0.02204686 0.043248259 0.36368811
0.0041871672 -0.050056521 0.4643108
0.034885641 0.069219671 0.33709279
0.06199545 0.067788973 0.37644091
0.12856799 0.075435258 0.46150929
0.0114243 -0.052360501 0.4310832
0.19718841 -0.095324978 0.50163192
0.1861821 -0.074475057 0.54725879
0.1670917 -0.1487205 0.4497191
0.061301969 -0.1024257 0.32594261
0.20451739 -0.1609606 0.49706969
0.2260334 -0.1988055 0.52155232
0.1314704 -0.093630143 0.39006671
0.079963453 -0.1206496 0.3286294
0.1111465 -0.082282104 0.3962014
0.1805412 -0.1749354 0.45192471
0.08320228 -0.1189946 0.34938419
0.0234465 -0.053279649 0.28959039
0.018959111 -0.054810051 0.28850591
0.071790837 0.075393841 0.36114261
0.1052831 -0.2275351 0.33483061
0.1501416 -0.160024 0.4044992
0.1675109 0.068435788 0.51055068
0.2121914 -0.1072198 0.4894526
0.07856077 0.065566868 0.375545
0.18884569 -0.1024908 0.47343841
0.02291042 -0.043189511 0.28758261
0.22783791 -0.19925439 0.49508819
0.01328307 -0.066509202 0.47191289
0.03259575 -0.062179949 0.50666058
0.068772607 -0.075074486 0.33821791
0.1556358 0.019833829 0.53670728
0.1328339 -0.01021254 0.52797687
0.1055541 0.068737537 0.41625169
0.0055015679 0.0081605166 0.43690589
0.05053499 0.070838191 0.348335
0.051398098 -0.05855402 0.51818758
0.090931296 0.007575125 0.52588803
0.083002873 -0.20872331 0.3058804
0.0273568 -0.062262591 0.49031451
0.1564528 0.0057440852 0.5343256
0.01864266 -0.036890689 0.4928495
0.1434609 -0.06027491 0.5368433
0.236573 -0.2333269 0.53173733
0.071348824 -0.05965963 0.51143253
0.2153134 -0.1045541 0.50555408
0.1750346 -0.1437085 0.4409866
0.005825758 0.001858503 0.45593199
0.1057689 -0.2320895 0.3374007
0.15375321 0.069361508 0.46576679
0.112731 0.067327887 0.41418689
0.157061 0.042606499 0.53474468
0.23598 -0.1180642 0.52903509
0.078724027 0.019752789 0.53355253
0.1419646 0.08400476 0.465065
0.1289783 -0.061082449 0.54753703
0.075961739 -0.067554593 0.46069649
0.2249833 -0.054142591 0.54858458
0.2071614 -0.0043688421 0.54693848
0.2458005 -0.078807563 0.59950048
0.093463242 -0.1968222 0.3248634
0.26080051 -0.20006301 0.54622269
0.22711 -0.2083867 0.48643509
0.01971823 -0.006156161 0.4813852
0.1286508 -0.02491555 0.52845091
0.25502089 -0.1219722 0.56892037
0.193565 -0.19252209 0.46229741
0.2407126 -0.171525 0.52826291
0.26059261 -0.086967632 0.59972888
0.1807553 -0.072828948 0.49676329
0.2689065 -0.2092296 0.55229539
0.090440691 -0.1438276 0.32804301
0.16400561 0.02253169 0.53925872
0.23417731 -0.2335853 0.52538592
0.25664791 -0.20883439 0.54455191
0.069074169 -0.2350758 0.3018938
0.04500955 -0.233245 0.25339541
0.1387326 0.025441039 0.53185332
0.1961749 -0.2042063 0.47025001
0.15775301 0.02143814 0.53821069
0.2181045 0.025892209 0.56621128
0.2093377 0.083892502 0.53149992
0.1621854 -0.05531634 0.52088159
0.18978789 -0.03080331 0.5533697
0.2627393 -0.19632959 0.54816872
0.1617427 0.0078709126 0.52865642
0.1969161 -0.2015336 1.181653
0.07924816 0.01881559 0.53633821
0.2463247 -0.1093399 0.58244377
0.071908683 -0.063293837 0.51480448
0.1946626 0.054084409 0.53507119
0.29717499 -0.2216401 0.998631
0.1645899 0.086695492 0.5340082
0.16780379 0.085143298 0.52951801
0.0060074632 -0.050909679 0.41288349
-0.0004025251 -0.17388099 0.23412371
0.00050003082 -0.2298128 0.2317355
0.1435791 -0.2424891 0.39285529
-0.0277914 -0.187777 0.2313367
0.066423617 -0.23331051 0.28756869
0.01677086 0.079459041 0.29916611
-0.01909936 0.03940028 0.2744225
0.07478071 0.073303036 0.37728739
-0.042784639 -0.15524361 0.2366157
-0.074137203 -0.1162753 0.2683017
-0.056553841 -0.1128994 0.26347479
0.008157745 -0.006976441 0.28938121
0.13008641 -0.05791229 0.52790862
0.1258304 -0.1004091 0.39608249
0.1480969 -0.05865645 0.5292455
0.1409831 -0.060295328 0.5372768
0.2159858 -0.052420359 0.53950387
0.1823734 -0.069389492 0.52381349
0.2364597 -0.2279747 0.513937
0.14625061 0.018716499 0.53134561
0.1248371 -0.01180999 0.53399289
0.1498896 -0.1102715 0.4340792
0.1363176 -0.06376256 0.50191343
-0.1104251 -0.19074631 0.30019781
0.034223709 0.070517212 0.32452509
0.1018176 0.0663753 0.4197318
-0.1103146 -0.082112461 0.30366719
-0.1098202 -0.1520327 0.28952631
-0.1070121 -0.2345113 0.2858206
-0.1127152 -0.1783888 0.3008056
-0.1200425 -0.195346 0.30588821
0.32526451 0.48714089 1.400856
-0.1360926 -0.202649 0.30711481
-0.02981684 -0.1867813 0.22883309
-0.075784951 -0.133413 0.28325731
0.041487642 0.067667082 0.33939871
-0.1567217 -0.1130619 0.3405087
0.3406603 0.51411569 1.457545
0.006216235 -0.050945129 0.271862
-0.01273977 0.084924057 0.2791003
-0.1248183 -0.1334051 0.31322429
-0.034037061 0.062797077 0.2848576
0.3099921 0.47066379 1.4189841
-0.01301353 0.08042562 0.28454229
-0.16587 -0.1113277 0.3394554
-0.17328431 -0.1555154 0.34224051
-0.053564541 -0.096576318 0.25595719
-0.1388274 -0.236615 0.2974253
-0.00086640572 -0.2355129 0.2165394
-0.1739134 -0.174079 0.3492462
-0.1184062 -0.076928899 0.32127771
-0.1355506 -0.1020909 0.3150554
-0.095631711 -0.020404611 0.47646561
0.15126669 -0.068162844 0.47227141
0.064266697 -0.079111382 0.341777
-0.019632161 0.0044233049 0.26359329
0.15996329 -0.080561891 0.45975009
-0.082910523 0.063413084 0.31871799
-0.063006088 0.062948354 0.3034164
-0.01388406 0.06186096 0.26447061
-0.1900724 -0.096391961 0.38004339
-0.1781005 -0.18063579 0.34372619
-0.1907573 -0.1913819 0.34353051
-0.2391579 -0.069978818 0.44326741
-0.1032493 -0.066187963 0.3920483
-0.2018408 -0.1357246 0.37310979
0.030129541 -0.059248701 0.30672649
-0.2245072 -0.06211986 0.46907169
0.069156297 -0.075148873 0.4847565
0.3565565 0.53253788 1.4468009
0.2196013 -0.2171583 0.49547681
0.2184312 -0.2004956 0.49257609
-0.1873882 -0.097690329 0.37405041
-0.1671353 -0.1005494 0.32541579
-0.003613509 -0.02454121 0.25769791
-0.2169432 -0.13468149 0.37562671
-0.091260158 -0.1190188 0.28311539
-0.2245318 -0.1414527 0.3843379
-0.251232 -0.094801471 0.40986139
-0.1888642 -0.22475959 0.33906871
-0.23945101 -0.13436159 0.3994731
-0.1222878 -0.1787311 0.299364
-0.178275 -0.1811782 0.3385407
-0.24653199 -0.1228201 0.40104061
-0.2395566 -0.1335509 0.39473519
0.068686649 -0.108445 0.32266551
-0.065547481 -0.1072011 0.26504591
-0.081614651 -0.087314829 0.3194041
0.2022046 -0.15418831 0.47876039
-0.089312688 -0.068824753 0.33888629
-0.086038351 -0.074117228 0.28557059
-0.25029811 -0.1100464 0.4000676
-0.23393489 -0.1964163 0.37163821
-0.2383031 -0.1798498 0.37868589
-0.1942113 -0.18384001 0.34134191
-0.26745209 -0.1296847 0.4102037
0.0093357861 -0.13927209 0.2403941
-0.1989188 -0.2184514 0.34358639
-0.1642817 -0.17412309 0.3432264
0.1707892 -0.070836708 0.4925535
-0.059141729 -0.004629612 0.37317511
0.089162171 -0.2173553 0.32741371
0.089295328 -0.2144592 0.32749411
0.1499625 0.0047886521 0.53528029
-0.31092319 -0.22736999 0.43408021
-0.1205095 -0.097128913 0.28900489
-0.1881572 -0.2075699 0.34165311
-0.1343514 -0.1978966 0.30433059
-0.2450805 -0.22373021 0.38173449
-0.1117235 -0.15386499 0.28781661
-0.1215752 -0.178813 0.30017781
-0.1215176 -0.1301707 0.30329221
-0.1482971 -0.16512521 0.31110051
0.067109212 -0.23030031 0.2877841
-0.2332546 -0.2195362 0.38152611
0.1081473 -0.075287648 0.37601069
0.1014826 0.065921627 0.41050059
-0.25515059 -0.2028746 0.37371781
-0.25045231 -0.2076544 0.38267919
-0.01286966 -0.070386887 0.24277709
0.049608599 -0.073747769 0.33178169
0.19518539 -0.0056990678 0.52777231
0.17514279 -0.1123116 0.4610168
0.02702862 -0.059607461 0.29050139
0.1542234 -0.082526758 0.4810833
-0.002679691 -0.1389721 0.2371778
0.165038 -0.14427701 0.437713
0.4091818 -0.2233903 0.90751243
-0.041993018 -0.1411663 0.2471135
-0.001939856 -0.17746469 0.229497
4.1924421e-05 -0.133974 0.23817579
-0.04476602 -0.1205877 0.2447098
-0.048787419 -0.1190521 0.2663402
-0.04410914 -0.12731589 0.24312709
-0.045434881 -0.1079795 0.25562719
0.2406695 -0.096309289 0.55075258
0.099291123 -0.1708674 0.34695369
0.171446 -0.1712987 0.44249919
-0.0093609914 -0.07124792 0.2479506
0.1596379 -0.076913074 0.44532391
0.04148094 -0.069114193 0.35979661
0.1110054 -0.2281132 0.34875211
0.0082570091 0.01246534 0.27800691
-0.1559864 0.084812522 0.37351131
-0.070230052 0.083350383 0.31208
-0.083327956 0.064500839 0.3234174
-0.1678298 0.064877689 0.38194099
-0.1303619 0.068622142 0.3556948
-0.1892762 0.068600699 0.39585611
-0.02160275 0.0053172712 0.26255399
-0.1082401 -0.1473707 0.28859821
-0.0067312722 -0.1322659 0.22997519
-0.003305167 -0.2181049 0.21805391
-0.22390559 -0.060859591 0.47199169
-0.2663314 -0.1268882 0.4073582
-0.1174675 -0.063050508 0.3542347
-0.22423071 -0.064410053 0.4662537
-0.1149888 0.062301651 0.3430984
-0.1527514 -0.1094937 0.33656111
-0.1073339 -0.2229562 0.27284151
0.05721936 0.094779827 0.45583481
-0.062598906 0.064163662 0.29880261
-0.1117068 -0.16873039 0.28754899
-0.083184779 0.066207409 0.31572661
-0.058136109 -0.108659 0.2559092
-0.1423945 -0.065334506 0.43752211
-0.1116987 -0.076026812 0.3065668
-0.076432139 -0.1176838 0.26611799
-0.1641614 0.076694883 0.3747268
-0.065571398 -0.1079444 0.26570761
-0.2288384 -0.242448 0.3570796
-0.1216428 -0.1813276 0.2876707
-0.1595401 -0.063849047 0.40884319
-0.1161746 -0.073729947 0.3124623
-0.2009968 -0.1295865 0.36397871
-0.1326851 0.097922184 0.56665337
-0.1198204 -0.1684076 0.2918745
-0.1850466 -0.08941783 0.3565799
-0.1062616 -0.05978848 0.4232845
-0.1166064 -0.094831303 0.3062292
-0.04830322 0.03205676 0.2843506
-0.2443935 -0.0082522482 0.47030771
-0.054626081 -0.094690762 0.25559551
-0.083259881 -0.071922019 0.29050681
-0.059784621 -0.001602814 0.33123139
-0.05375931 0.029744331 0.31879011
-0.066865027 0.086348116 0.30439511
-0.001427382 -0.2262623 0.21762121
-0.1327626 -0.1975639 0.3045319
-0.18197741 -0.2276502 0.34918901
-0.1228848 -0.1292643 0.30597511
-0.087981462 -0.063000567 0.36636871
-0.056730211 -0.01477189 0.3178055
-0.08686921 -0.073566869 0.28690869
-0.05035698 -0.1010993 0.2472418
-0.1451031 0.085650317 0.36687389
-0.045253038 -0.1519925 0.2424437
-0.1400502 -0.231874 0.29509261
-0.1806366 -0.17444441 0.33094281
-0.055251751 0.03456093 0.307069
-0.019874571 -0.21801689 0.2175979
-0.104125 -0.064573601 0.3946524
-0.057099339 0.01241247 0.3273842
-0.2755301 -0.0098909875 0.4618673
0.054292951 -0.2395682 0.26957399
-0.034621149 0.043357819 0.27305731
-0.065296888 -0.017764051 0.33216721
-0.035953399 0.025833471 0.26453531
0.72931498 -0.21960761 1.0878609
-0.15136179 -0.1681519 0.31986359
0.70657212 -0.1751156 0.95705408
-0.1660011 -0.16300049 0.3283492
-0.02220514 -0.0331182 0.2552821
-0.043881271 -0.094844773 0.2408215
-0.1110148 -0.055784721 0.44559699
-0.1259004 0.070863441 0.3432788
-0.028406231 -0.084696278 0.23744389
-0.03599298 -0.05284949 0.25449979
-0.02036735 0.09712556 0.2937462
-0.08808437 -0.1176258 0.28232819
0.065387867 -0.073394373 0.32692349
-0.065187842 0.019024329 0.33979979
-0.18226451 -0.074617848 0.3714011
-0.108527 -0.055606559 0.47407979
-0.22505569 0.02014284 0.4759284
-0.1193191 -0.1028189 0.31454301
-0.05641574 -0.043097049 0.4189826
3.3319e-05 -0.23148949 0.2171364
-0.1082601 -0.1544362 0.29256839
-0.1051977 -0.062588923 0.39476711
-0.072093643 0.096203178 0.35155761
-0.2314429 -0.2069028 0.36093131
-0.05370656 -0.00052964687 0.27893409
-0.1731654 -0.15038709 0.33661461
0.68296832 -0.198486 0.87881488
-0.054497302 0.01898839 0.2838262
-0.041727688 -0.16107731 0.235374
0.69460249 -0.1564267 0.94195437
0.652457 -0.23915149 0.85200578
0.0078083868 -0.17702881 0.23785821
-0.065757751 -0.0016128269 0.34191579
-0.041973889 -0.038069438 0.27107191
-0.057611141 0.045118138 0.29782751
-0.03877994 -0.01497756 0.2623316
0.1729043 0.096350059 0.53582382
-0.09718284 0.072253272 0.32149959
-0.2064741 0.080933727 0.40462461
-0.12324 -0.1274025 0.30131611
-0.01396051 -0.067424789 0.2414726
0.66357762 -0.187169 0.72453552
-0.064189583 0.033795681 0.33644509
0.64638042 -0.172904 0.72767597
-0.14031979 -0.1014002 0.31582141
-0.042617232 -0.1383775 0.24529091
-0.134734 0.080684558 0.36155429
-0.26277781 0.073657468 0.4552829
-0.31321719 -0.01670791 0.47752491
-0.31669971 -0.022476779 0.48049819
-0.3229464 -0.01409964 0.4893268
-0.2859183 -0.1128418 0.4443551
-0.28348541 -0.1108496 0.43171781
-0.32013151 0.0068918909 0.50109631
-0.2578266 -0.06995891 0.461034
-0.31258601 0.04526693 0.50244099
-0.27873099 0.078054763 0.55490458
-0.31633079 -0.019774711 0.4895784
-0.1866094 -0.1462929 0.73345512
-0.22184031 0.082059279 0.42689699
-0.107227 -0.045798078 0.7302711
-0.26773819 0.079505727 0.56781453
-0.23815159 -0.064677432 0.61800319
-0.26940051 -0.073047608 0.43189529
-0.1274723 -0.070178732 0.40317419
-0.1114417 -0.066068009 0.44995561
-0.25933021 0.083196849 0.57591939
-0.110253 -0.016077589 0.75967991
-0.1963248 0.079637021 0.65741771
-0.31912839 -0.037114691 0.52509463
-0.17334069 -0.1713441 0.75217497
-0.27927431 -0.1638979 0.62273288
-0.23896679 -0.081183814 0.63904369
-0.117839 -0.064931229 0.4458366
-0.25860611 -0.072264843 0.61413562
-0.2116162 -0.1551393 0.69596249
-0.2643986 -0.1622396 0.63165241
-0.27589321 0.079903729 0.46493429
-0.30294469 -0.1187382 0.44585779
-0.2426108 -0.091962107 0.40790689
-0.27870259 -0.0851105 0.59766608
-0.2095392 -0.080157027 0.69351578
-0.1473777 -0.066169307 0.65375477
-0.2187513 -0.070615157 0.61641318
-0.3164134 0.0016794649 0.51908928
-0.1890884 -0.06008945 0.62835962
-0.3581304 -0.16073591 0.50288528
-0.28287241 -0.0170065 0.475306
-0.25812769 -0.077507094 0.42760089
-0.29131219 -0.077985838 0.57339638
-0.27673101 -0.070270643 0.59121341
-0.090058737 -0.02112497 0.47576261
-0.098591693 -0.043101709 0.62055892
-0.30230731 -0.1914041 0.43804801
-0.29871461 -0.1828444 0.43711159
-0.23137221 -0.2301047 0.37973639
-0.1105631 -0.017178969 0.74060798
-0.19078501 -0.070268936 0.60486829
-0.15173049 -0.072696432 0.62164259
-0.33164561 -0.20258909 0.54550242
-0.3333987 -0.2223292 0.56166732
-0.2339091 -0.069444373 0.58168709
-0.27199641 -0.22345249 0.64403808
-0.32113481 -0.2122205 0.58248091
-0.15872359 -0.069385067 0.4385668
-0.35181749 -0.1737871 0.49938819
-0.3447822 -0.1605036 0.47803041
-0.3283661 -0.077700987 0.52663177
-0.31848469 -0.16683181 0.55349749
-0.1409068 -0.065822966 0.6281299
-0.1867384 0.075887568 0.40318611
-0.3244091 -0.019856481 0.50074953
-0.1298921 -0.069680959 0.7315383
-0.1942915 0.085725889 0.66392738
-0.1765942 -0.1670153 0.754345
-0.111733 -0.048385441 0.79815471
-0.1969551 0.083987147 0.66323853
-0.13365249 -0.071306907 0.72676879
-0.1490227 0.069312893 0.72865218
-0.093045339 -0.001359463 0.61603361
-0.13733961 0.071138948 0.73875427
-0.1698785 -0.1815822 0.76682651
-0.2030206 -0.077391803 0.70335948
-0.17159361 -0.1788436 0.75857931
-0.1171794 0.0572851 0.773422
-0.20020039 0.073523767 0.65830719
-0.1056966 -0.021947579 0.71969843
-0.1208883 0.08276993 0.76304191
-0.1323927 -0.1090519 0.80309069
-0.1145296 -0.06172803 0.69448268
-0.1154918 -0.1321483 0.82923508
-0.1866204 0.087122798 0.67153108
-0.1314237 -0.14062621 0.80678833
-0.1065434 -0.1268523 0.84050661
-0.1174861 -0.046811972 0.78944498
-0.1820381 0.068663582 0.68293911
-0.1133862 -0.04350251 0.79285371
-0.1360129 -0.068431869 0.69283712
-0.17996299 -0.16492461 0.75507909
-0.1007687 -0.1421808 0.84518182
-0.197147 -0.2129155 0.73425752
-0.2101299 -0.1836661 0.70630902
-0.1853148 -0.01517037 0.55266011
-0.18444221 0.077904537 0.67829758
-0.1920922 0.079879798 0.66746461
-0.1045395 -0.050825302 0.81519198
-0.1087472 -0.01560134 0.74747252
-0.2062389 -0.078122407 0.70116138
-0.1572071 -0.195418 0.78585649
-0.19198599 0.0092896521 0.55572248
-0.1346312 0.072342344 0.73982012
-0.1924274 -0.199185 0.73514348
-0.2114097 0.081045553 0.64319801
-0.1225985 0.081827283 0.76130718
-0.13584191 -0.090618134 0.79354572
-0.085327461 -0.1747054 0.85270298
-0.1334935 -0.1021671 0.79523683
-0.1159896 0.095063888 0.75882143
-0.2001684 -0.023817331 0.55298579
-0.2161074 0.063156247 0.63713908
-0.094905242 -0.040132601 0.62239683
-0.1797591 -0.026918311 0.56097472
-0.090351097 -0.1144893 0.84208632
-0.143589 -0.088665932 0.78402781
-0.096476018 -0.1116586 0.83667308
-0.1802882 -0.1968466 0.75651503
-0.15387391 -0.1136193 0.77337688
-0.1996485 0.007618174 0.55419368
-0.038964991 0.094743058 0.59956652
-0.1195603 -0.069262058 0.76168931
-0.1092651 -0.089944929 0.82675147
-0.095163397 -0.047351722 0.61676282
-0.1023921 -0.029462799 0.69453388
-0.16395231 -0.040399581 0.55741131
-0.1501554 -0.070135593 0.67388242
-0.1897853 -0.070606202 0.65787482
-0.1506709 0.070885293 0.7271179
-0.090299927 0.05681482 0.80408788
-0.1869988 -0.1807287 0.73571801
-0.1283278 -0.065703407 0.6775856
-0.1909775 -0.065890908 0.59107143
-0.13018531 -0.1037147 0.80203903
-0.092633978 -0.02209246 0.81759471
-0.099410817 -0.054094549 0.82211959
-0.1807964 -0.1821183 0.75014728
-0.20568471 -0.1821968 0.71406353
-0.19004101 -0.064738989 0.6390276
-0.18256021 -0.070720963 0.64481628
-0.087956756 -0.0030843469 0.81892622
-0.2147124 -0.1811906 0.70158768
-0.13191029 -0.064303383 0.67971599
0.70200121 -0.2426897 0.30912909
-0.1355665 -0.093065649 0.79428798
0.037415031 -0.073437057 0.74608612
0.67639911 -0.2066512 0.55352259
-0.1199973 -0.066159897 0.65840888
-0.092769913 0.054624859 0.8013494
-0.081561573 0.031830069 0.81275958
-0.091569602 -0.01175833 0.81510979
-0.1365834 -0.06154016 0.65353048
-0.16186389 -0.068945967 0.68060547
-0.07475701 0.09960115 0.4288424
-0.2090818 0.085182726 0.64630699
-0.16773701 -0.099180102 0.75202483
-0.1330083 -0.1103278 0.79990321
-0.16993541 -0.1869674 0.76611012
-0.17381971 -0.1123313 0.74513751
-0.217125 -0.081930518 0.68219149
-0.113677 -0.05227448 0.793957
-0.2106684 -0.1997375 0.71093112
-0.215413 -0.076076061 0.68126398
-0.15470231 -0.044561852 0.56205779
-0.2023142 -0.1944281 0.7262423
0.2238183 -0.02286567 0.591488
-0.085117847 -0.021068631 0.82149303
-0.1067831 0.016909819 0.79481387
-0.089500867 -0.1761923 0.85420299
0.1229339 -0.1781168 0.71026731
-0.1144195 -0.130576 0.82809287
-0.1123906 -0.12768769 0.83204943
0.229775 -0.07607469 0.60442549
-0.1062636 0.05564006 0.78361559
-0.1895411 -0.1128887 0.73059261
0.22912011 -0.039868578 0.589118
-0.077830449 -0.1649105 0.85224491
-0.077254832 -0.15489259 0.84681278
-0.076779597 0.072142661 0.80627322
-0.1832546 -0.1883692 0.74738991
0.72327697 -0.2237948 0.50750959
-0.178882 -0.1968617 0.75693762
-0.1068472 0.04952693 0.77835059
0.03438101 -0.072633162 0.7584278
-0.13627151 -0.069095977 0.6912598
-0.1117543 0.0061685438 0.57889652
-0.17535371 0.065009467 0.69407922
-0.1071385 0.07343781 0.78196168
-0.072461039 -0.1176557 0.84347188
-0.092592731 0.0037333821 0.81173408
-0.092000417 0.02098665 0.80931741
-0.1600665 0.077035926 0.71434373
-0.20234139 0.087784663 0.65386188
-0.153872 -0.1043575 0.772012
-0.1632608 -0.21432251 0.78154129
-0.1680187 -0.14666191 0.76222181
-0.1578154 -0.042707119 0.55780989
-0.18493579 -0.1449087 0.74007863
-0.13681941 -0.061430261 0.60910028
-0.19414739 -0.11186 0.71307403
-0.1036395 -0.056789581 0.81767827
-0.1912919 -0.1119342 0.71823353
-0.1928041 -0.070132807 0.59657812
-0.17192741 -0.1756213 0.76365978
-0.1389932 -0.07071574 0.59279221
-0.095649078 0.01352707 0.80664188
-0.084515899 -0.0072538261 0.81849051
-0.1036142 -0.098444067 0.83477211
0.1445989 -0.047743339 0.58120263
0.1597815 -0.2034498 0.68828702
0.69365942 -0.24273901 0.29244119
0.055522438 -0.064521573 0.70773679
-0.073688917 -0.00027091801 0.8155787
-0.075980783 0.0021711891 0.81700939
0.14146259 -0.073115468 0.66746259
0.1308237 -0.070348293 0.66755521
0.1402968 -0.071604371 0.64831632
-0.0910604 0.018877029 0.80945659
0.108411 -0.1276975 0.71121281
-0.1244674 0.096904673 0.73939377
-0.099705219 -0.02139266 0.6064592
-0.17648271 -0.1002448 0.73892951
0.19918109 -0.01655391 0.59871608
0.153925 -0.2321254 0.70082867
-0.085804358 -0.045541581 0.82600379
-0.097626612 -0.01947191 0.59034997
-0.1778647 -0.063566767 0.57044572
-0.2038345 -0.067694686 0.60122102
-0.075850487 0.01828216 0.81261921
-0.058643758 -0.0098778456 0.80895919
0.019860661 -0.069149762 0.74773741
0.085089423 -0.1675217 0.73478329
-0.1029498 -0.01974657 0.65851521
0.070458107 -0.17876209 0.74160242
-0.093429342 -0.00035876039 0.62127131
-0.2046589 0.032474991 0.54782861
0.69644988 -0.24178991 0.4297069
-0.1469451 -0.19147301 0.79966712
0.1210054 -0.2009216 0.71876299
-0.0169839 -0.072224349 0.78176337
0.1242266 -0.069178373 0.63472289
0.0153006 -0.067998111 0.75648212
0.080349393 -0.2205489 0.73152763
0.026890431 -0.075040251 0.76506752
-0.16849861 -0.070489287 0.68724167
-0.032593191 -0.2104298 0.83481872
0.1244187 -0.2152738 0.71568519
-0.1555647 -0.1504678 0.77879262
-0.1245045 -0.068121791 0.68522573
-0.02652538 -0.16618019 0.82338631
-0.16909739 0.094966307 0.54497182
0.059201509 -0.2158269 0.76894182
-0.1397431 0.097691871 0.58056033
-0.1207522 -0.017498869 0.57133019
-0.1651451 -0.15028431 0.77031088
0.1450734 0.0044660568 0.60226858
-0.101543 -0.0082841367 0.58784252
-0.14283051 -0.06759581 0.65165448
-0.1732122 -0.064858757 0.61940497
-0.1912591 -0.18611699 0.7350235
-0.02662259 0.081359699 0.76426232
-0.081555843 0.05950132 0.80350798
0.1713182 -0.22542959 0.65388381
-0.1036498 -0.1819039 0.8496272
-0.087349832 -0.0047476138 0.8074472
-0.092138648 -0.1714557 0.84655428
-0.1062685 -0.215629 0.85404652
-0.103031 -0.1886386 0.85041618
