# .PCD v0.7 - Point Cloud Data file format
VERSION 0.7
FIELDS x y z normal_x normal_y normal_z curvature
SIZE 4 4 4 4 4 4 4
TYPE F F F F F F F
COUNT 1 1 1 1 1 1 1
WIDTH 590
HEIGHT 1
VIEWPOINT 0 0 0 1 0 0 0
POINTS 590
DATA ascii
-0.050862096 -0.079753771 0.33456439 -0.42445296 0.7970413 -0.42961007 0.14598253
-0.041942932 -0.18014149 0.31881443 -0.55774426 -0.29044488 -0.77753651 0.13678691
-0.17695236 -0.11352504 0.41851023 -0.53427756 0.46822795 -0.70378274 0.097057536
-0.14382973 -0.12407981 0.37984782 -0.59470117 0.4239631 -0.68307084 0.11516404
0.0078376476 -0.062707812 0.36788642 -0.1685995 0.94566232 -0.27802342 0.12395403
-0.057912145 -0.084845059 0.3371748 -0.39642826 0.80503911 -0.44131243 0.12902777
-0.028712684 -0.11836855 0.31561786 -0.44790667 0.61757362 -0.64651561 0.18786377
-0.12334391 -0.090912588 0.38525316 -0.36037746 0.80921942 -0.4639957 0.089900523
-0.024563482 -0.10688715 0.3175056 -0.41390222 0.7914198 -0.44982192 0.1733654
-0.11235885 0.077327505 0.41671768 0.024765301 0.99969286 0.00093914464 0.11856577
-0.0012656355 -0.063336328 0.37749738 -0.19654341 0.93261224 -0.30266348 0.10174572
-0.013759831 -0.065030515 0.38468352 -0.10706745 0.96344948 -0.24556398 0.070591129
-0.02145672 -0.11076513 0.30942601 -0.39465088 0.63237363 -0.66659898 0.18474561
-0.011128148 0.088374168 0.34480664 -0.046887346 0.9634437 -0.26377627 0.052738465
-0.051386286 -0.19817115 0.31882623 -0.54740721 -0.4291828 -0.71843398 0.17614704
-0.052113887 -0.19558844 0.31827343 -0.55249792 -0.40600055 -0.7279489 0.16022317
0.037578393 -0.00063323532 0.45645121 -0.097415254 0.98338085 -0.15320666 0.17528993
-0.16985698 -0.092254482 0.41954029 -0.39863417 0.62423748 -0.67187673 0.099832274
-0.069280714 -0.22937076 0.32455805 -0.34386107 -0.86358452 -0.36875656 0.19686669
-0.17261492 -0.028637245 0.45081761 -0.15239733 0.54140162 -0.82683694 0.13663647
-0.18052247 -0.10964257 0.4218874 -0.48762009 0.50916791 -0.70920706 0.10035235
-0.049941562 -0.068979405 0.35454586 -0.2271172 0.77501315 -0.58972222 0.18179709
-0.10474001 -0.10330676 0.36665887 -0.5393514 0.63895506 -0.54848558 0.12815189
-0.097286083 -0.057964325 0.44657668 -0.050773796 0.81316292 -0.5798173 0.11188577
-0.10115448 -0.062989689 0.4317072 -0.12650137 0.8154127 -0.56488907 0.088111579
-0.13502336 0.057098594 0.44206172 0.11147342 0.87238735 0.47593489 0.24737673
0.013271901 0.1051359 0.41753638 0.015197083 0.99131465 -0.13063024 0.012804287
-0.034267899 -0.1542296 0.31597525 -0.59979498 0.16157532 -0.78367049 0.18666109
-0.18355845 -0.10276891 0.40834954 -0.4601002 0.56324911 -0.68633687 0.09938886
-0.11059996 -0.22609793 0.35271689 -0.24846707 -0.84655255 -0.47075775 0.18780155
-0.16650446 -0.17539956 0.39446688 -0.65732569 0.0068825902 -0.75357521 0.12766317
0.041956041 0.0082230316 0.4530288 -0.24671005 0.94278753 -0.22424501 0.19628078
-0.096513152 -0.073296249 0.38087493 -0.42219248 0.81649637 -0.39381108 0.11000665
0.029155677 -0.035833765 0.7887193 -0.79189181 0.27721605 0.5441128 0.079748914
-0.16053163 -0.019576963 0.44897389 -0.02955905 0.59781975 -0.80108547 0.12275384
-0.14815375 -0.0053517949 0.44957593 0.044809744 0.46556872 -0.88387656 0.1274474
0.0032941683 -0.17804973 0.81415731 -0.75965863 0.080794483 0.6452837 0.03784959
-0.035082541 0.08227621 0.35514933 -0.33433238 0.90471196 -0.26404187 0.098594911
-0.092218772 -0.16427773 0.3468231 -0.52366209 0.070210591 -0.84902793 0.14915526
-0.036713749 -0.088742279 0.32763484 -0.38376287 0.83360726 -0.39727187 0.14781271
-0.12183174 -0.085768767 0.39012665 -0.33375511 0.83219898 -0.44277805 0.080069259
-0.034090556 -0.093632855 0.32386801 -0.41018018 0.84212101 -0.35012075 0.14657396
-0.0082718041 -0.059752107 0.41601244 -0.25229546 0.92703259 -0.27741221 0.067391299
-0.048020236 -0.060548652 0.42351651 -0.11750572 0.98060286 -0.15687688 0.046223771
-0.085670918 -0.067640632 0.38283086 -0.50842488 0.7607758 -0.40339115 0.1250232
-0.052415978 -0.080228925 0.33917862 -0.37015516 0.79112583 -0.48693442 0.14645433
-0.22149619 -0.10872183 0.45417035 -0.31000644 0.51169467 -0.80128932 0.15170963
-0.20045054 -0.15881327 0.4252485 -0.62390018 0.1813893 -0.76016206 0.13700715
-0.14925289 -0.020104624 0.44975254 0.027125612 0.66123253 -0.74969041 0.12971941
-0.22750109 -0.086732998 0.47505626 -0.18719131 -0.26826581 0.94498301 0.14313856
-0.076792702 -0.066780083 0.37450516 -0.57034361 0.7144115 -0.40536937 0.15311305
-0.10617026 0.07923422 0.40669793 -0.051506311 0.98743623 -0.14938812 0.082898468
-0.11275751 -0.16759805 0.35703894 -0.6006707 0.026460575 -0.79905856 0.13225247
-0.076243028 -0.13830106 0.34373936 -0.57923496 0.27806693 -0.7662673 0.14751196
-0.1648743 -0.10289767 0.40429994 -0.50837898 0.59438509 -0.6231029 0.099391237
-0.055503499 -0.22378768 0.32209882 -0.38155884 -0.85222024 -0.35795748 0.20234333
-0.10837074 -0.11380158 0.37044972 -0.56283987 0.58095092 -0.58796883 0.13794662
-0.14417179 -0.15733401 0.38301098 -0.60816079 0.23447047 -0.75839573 0.10902067
-0.13651864 -0.065480486 0.43933898 -0.19169071 0.66852272 -0.71856242 0.084573634
-0.1007425 -0.13184263 0.36200398 -0.63427269 0.37692267 -0.67500174 0.12127111
-0.20840506 -0.03770354 0.47232533 0.053514622 0.2658661 -0.96252346 0.17042649
-0.10508317 -0.10958096 0.37047181 -0.52372777 0.64131045 -0.56074059 0.13170849
-0.10924169 -0.17919822 0.35154879 -0.55779076 -0.088384762 -0.82526219 0.14042962
-0.040505324 -0.16857973 0.3138676 -0.60313588 -0.095162533 -0.7919414 0.14246382
-0.14412943 -0.0092957271 0.44886449 0.082799979 0.59248936 -0.80131179 0.12479517
0.0098303696 -0.052151565 0.44175896 -0.21730228 0.95476788 -0.20297293 0.10481419
0.057453901 -0.072240159 0.34652358 0.75062633 0.56247729 -0.34666893 0.19900514
-0.12272026 0.014432353 0.45320931 -0.73023444 -0.30341172 -0.61212659 0.2432586
-0.13891563 -0.06816227 0.42213237 -0.23928557 0.75116813 -0.61521441 0.084139876
-0.17745368 -0.049293153 0.44702539 -0.28646469 0.52283454 -0.80285871 0.12443421
-0.11504334 -0.18899314 0.35473624 -0.55458051 -0.10835595 -0.82504517 0.16547073
-0.13308698 0.080362067 0.42772576 -0.065232299 0.99169278 -0.11086146 0.11518364
-0.06304989 0.081297591 0.37976167 -0.2315786 0.91263443 -0.33685273 0.12252098
-2.253445e-05 0.083280206 0.33942789 -0.0059508015 0.96992707 -0.243323 0.078938544
-0.025636122 -0.10922031 0.32402351 -0.38656104 0.81597918 -0.42982379 0.17657533
-0.091390587 -0.13769779 0.35036871 -0.58230776 0.29226753 -0.75861549 0.13305973
-0.14172384 -0.072230168 0.41445684 -0.23921108 0.78261423 -0.57471132 0.081617668
-0.10506508 -0.12512314 0.37108687 -0.62879127 0.43995583 -0.64113992 0.12892906
-0.03432437 -0.17758162 0.32156143 -0.64085621 -0.29720682 -0.7077933 0.13811365
-0.087722614 -0.1360496 0.34653351 -0.59477961 0.28289974 -0.75246596 0.13200523
-0.11984022 -0.16505288 0.36326814 -0.61044407 0.19677395 -0.76722747 0.13309829
-0.046621166 0.10571709 0.50184888 -0.056397825 0.99760574 -0.04002377 0.0071838801
-0.1181353 -0.11417976 0.36998454 -0.54800093 0.55176121 -0.62869269 0.13097265
-0.043019276 -0.16054864 0.31094345 -0.62110484 0.050302919 -0.78211147 0.15122612
-0.064104311 -0.070969857 0.36098784 -0.38790086 0.74621153 -0.54101878 0.18174776
-0.019143766 -0.11048089 0.30979836 -0.37598228 0.68353099 -0.62563783 0.18709703
0.06955725 -0.044107731 0.3981773 0.28011897 0.92355543 -0.26187566 0.11820059
-0.13053043 -0.064448223 0.44614398 -0.19111101 0.70872796 -0.67910326 0.088617153
-0.15750377 -0.09703242 0.40505433 -0.43752649 0.71813846 -0.54115397 0.10292783
-0.0520292 -0.058616769 0.46212724 -0.017344795 0.92557746 -0.37816063 0.057482559
0.073487066 -0.066976517 0.35071218 0.62726754 0.55812657 -0.54316682 0.18568523
-0.18967235 -0.046261095 0.45419338 -0.30215916 0.46377781 -0.83283246 0.14015868
-0.18101771 -0.12696534 0.42034835 -0.55990106 0.36049709 -0.74602467 0.11111876
-0.078988776 -0.0099469405 0.4555617 0.56441206 0.67729139 -0.47192729 0.22393471
-0.20974721 -0.044087738 0.47236279 0.0017150025 0.29737312 -0.95475984 0.16633002
-0.19128686 -0.054318082 0.45241958 -0.33286953 0.46009201 -0.82311189 0.13667446
-0.21573241 -0.12612349 0.44078508 -0.44421053 0.40784392 -0.79770941 0.15524679
-0.018753123 -0.053537704 0.46082678 -0.22688469 0.96301728 -0.14533119 0.11445335
-0.18919347 -0.11616452 0.42714646 -0.51384354 0.41310698 -0.75186938 0.11144824
-0.22841871 -0.1120903 0.4606635 -0.13196298 0.43992025 -0.8882882 0.16460042
-0.18426166 0.061210435 0.47549459 -0.66344559 0.57637483 0.47710785 0.16742772
0.021284478 0.068831548 0.31920394 0.29831973 0.70575732 -0.64258212 0.20563391
-0.19129507 -0.17466815 0.40619117 -0.69372272 0.067191415 -0.71710116 0.12808183
-0.17829642 -0.21988067 0.39996698 -0.28314078 -0.82363617 -0.49138048 0.19682986
-0.12369564 -0.064886488 0.43435141 -0.19811729 0.7520076 -0.62867647 0.079658329
-0.10423838 -0.12033353 0.36200696 -0.60792857 0.48705789 -0.62705457 0.1280867
-0.036285367 -0.05537517 0.45660633 -0.12798928 0.92869496 -0.34805804 0.074978538
-0.14933877 -0.15142033 0.38436246 -0.59436417 0.23591216 -0.76881516 0.10803405
-0.2043772 0.011779821 0.46897843 -0.28586665 0.13792317 0.9482919 0.17454605
-0.19653428 -0.017891036 0.45746699 -0.14637204 0.25791168 -0.95501661 0.16350406
-0.23312813 -0.14045042 0.45037818 -0.0068867221 0.32039541 -0.94725889 0.23167402
-0.053454496 -0.072390765 0.35081077 -0.3567712 0.76964957 -0.52948463 0.17567554
-0.21302347 -0.084909208 0.45496494 -0.37190792 0.48345369 -0.79243737 0.12560059
-0.2117025 -0.068185695 0.45863256 -0.30566365 0.44738859 -0.84048384 0.13861084
-0.062745281 -0.2235302 0.32065591 -0.39152411 -0.7932629 -0.46630776 0.20660551
-0.11410507 -0.0057928744 0.45761037 0.11961009 0.71185964 -0.6920616 0.14786571
-0.22028661 -0.21746811 0.42811731 -0.26704276 -0.85606939 -0.44253072 0.24617612
-0.20271322 -0.16034256 0.42551836 -0.62414056 0.20056975 -0.75512934 0.13931793
-0.067794874 -0.069238722 0.36601409 -0.45747223 0.7658087 -0.45194694 0.17659326
-0.05833064 -0.068393566 0.36156112 -0.37647316 0.7664572 -0.5203954 0.19027524
-0.15039809 -0.013574784 0.44861659 0.035601791 0.60109931 -0.79838097 0.12380004
-0.19192684 0.051712263 0.46905607 -0.54841715 0.49262983 0.67568809 0.17762598
-0.20068564 -0.13281307 0.43370849 -0.56073982 0.26848236 -0.78325474 0.14483345
-0.092152052 -0.068915837 0.38510931 -0.47347713 0.78307128 -0.40326035 0.1184078
-0.19792783 -0.090132914 0.44168958 -0.43609354 0.52050656 -0.73409498 0.10701754
-0.08318039 -0.1231004 0.34476325 -0.55225295 0.42570046 -0.71679562 0.15109439
-0.16236207 -0.1903131 0.38569567 -0.61122286 -0.22490856 -0.75882983 0.17896436
-0.21069947 -0.098100416 0.4506146 -0.46266213 0.51842451 -0.71915209 0.13627534
-0.19267209 -0.15070194 0.4207249 -0.6227355 0.15157919 -0.76760936 0.12889619
-0.22019176 -0.11168855 0.45164138 -0.36772311 0.48968571 -0.7905615 0.15718971
-0.20875518 -0.098287761 0.4488506 -0.46719003 0.52697933 -0.70994812 0.13306472
-0.18864283 -0.059595767 0.45012423 -0.3184309 0.54804814 -0.77346295 0.12701648
-0.2389355 -0.23390634 0.44851488 -0.042900521 -0.98990417 -0.1350898 0.14331405
-0.15069817 -0.10253312 0.396274 -0.4914138 0.66462618 -0.56283623 0.11656143
-0.20894746 -0.10756677 0.44308087 -0.51987904 0.49508432 -0.69614464 0.13916345
-0.23199034 -0.14353584 0.45238638 -0.23370527 -0.10310035 0.96682578 0.2648302
-0.20850216 -0.019439859 0.4731769 0.093228363 0.18528764 -0.97825205 0.18536209
-0.10793673 -0.061062612 0.43694386 -0.11252519 0.77249908 -0.62496662 0.095771827
-0.12950143 -0.0012813283 0.45069095 0.20607865 0.5934673 -0.77802831 0.1595788
-0.022993468 0.085046157 0.32863694 -0.17276868 0.93172711 -0.31942996 0.085246094
-0.087608345 -0.11821339 0.33651075 -0.55854052 0.44127375 -0.70236021 0.14218463
-0.071652479 -0.080303259 0.32676116 -0.54548633 0.66078818 -0.5155614 0.13429439
0.030163128 -0.10787003 0.25420266 -0.195435 0.26200032 -0.945072 0.19153051
0.048468821 0.093141146 0.27426788 -0.28492913 0.82084006 -0.49501216 0.1495302
-0.058508396 -0.14288609 0.30734378 -0.63446039 0.17802745 -0.75217444 0.12576258
-0.063488409 -0.16872008 0.3092503 -0.62122637 -0.065432683 -0.78089458 0.11517158
0.0045505455 -0.14090069 0.25435653 -0.28109938 0.13425127 -0.95024192 0.12975162
-0.019305302 -0.18602018 0.27004856 -0.56399208 -0.087036453 -0.82118058 0.13525151
-0.13419808 -0.099604666 0.37024403 -0.52214777 0.6467976 -0.5558908 0.11348224
-0.14863653 -0.11421143 0.37887821 -0.61213654 0.51455635 -0.60043371 0.11413551
-0.012221635 -0.11522263 0.26919544 -0.36832675 0.2849485 -0.88495183 0.14307968
-0.079083323 -0.1779605 0.31401211 -0.61168218 -0.050114069 -0.78951466 0.12274876
0.0043151136 -0.15862267 0.2528016 -0.23260553 0.1916905 -0.95349324 0.13081548
-0.075550608 -0.18373521 0.31145847 -0.6189605 -0.11782624 -0.7765339 0.1330587
-0.11858238 -0.19689336 0.34234148 -0.4899064 -0.082143359 -0.86789638 0.17402202
-0.08461298 -0.20880909 0.31616956 -0.50238854 -0.28310019 -0.81698221 0.20350167
-0.1189046 -0.17246059 0.34848458 -0.57671732 0.022335559 -0.81663841 0.11850428
0.039600857 -0.10806525 0.23929577 -0.39534739 0.148011 -0.90652812 0.082855992
-0.048837237 -0.15621354 0.29966545 -0.59721774 0.10135547 -0.79564947 0.13491166
-0.0063109128 -0.17316011 0.26114765 -0.36183223 0.097719625 -0.92710745 0.12948929
-0.052382395 0.076315254 0.34946221 -0.40857595 0.81376094 -0.41335082 0.14216976
0.031879481 0.074903548 0.28415778 -0.32007354 0.69494808 -0.64389455 0.21192874
-0.048566647 0.082983725 0.34553704 -0.38314804 0.85334295 -0.35355815 0.11907379
0.062369186 -0.084990226 0.22459675 -0.38065505 0.27713472 -0.88221204 0.055418216
0.0092872456 -0.22433795 0.23425853 -0.29188356 -0.40189135 -0.86792129 0.16976707
-0.10421108 -0.0040473654 0.45386022 -0.19744454 0.68897218 -0.69737577 0.21197008
0.027563911 -0.068692379 0.26229963 -0.41803256 0.53819335 -0.73184478 0.18251593
-0.1180255 0.018375397 0.45423931 -0.7806859 -0.37822333 -0.49747029 0.19472498
0.050733034 -0.092690654 0.23002696 -0.40160647 0.30058199 -0.86507964 0.061308004
0.010006781 -0.061182652 0.36614215 -0.11808991 0.95944428 -0.25597146 0.12956055
-0.023666052 -0.094950296 0.2887176 -0.44585094 0.57205498 -0.68845481 0.13611796
0.093321763 0.013730142 0.23319343 -0.39718276 0.096459024 -0.91265625 0.11577289
-0.075586729 -0.21128257 0.31098384 -0.51297688 -0.32586029 -0.79414719 0.19481345
-0.1112208 0.030171268 0.4509612 -0.69424337 -0.44567999 -0.56515086 0.16388649
0.092660718 0.049023345 0.24015997 -0.23551086 0.13213536 -0.96284729 0.1297031
-0.10209565 -0.1265991 0.33982334 -0.61225837 0.34787768 -0.7100147 0.12437861
0.0067749545 -0.061933998 0.33091229 -0.36146364 0.93085891 -0.053344678 0.17806508
0.091480874 0.051239289 0.23879831 -0.14757018 0.19043992 -0.97054404 0.1179461
-0.10205404 0.078844026 0.38413486 -0.067291647 0.9392876 -0.33646783 0.10674198
0.099634357 -0.063289121 0.2233083 0.2190734 0.24792661 -0.94368386 0.10288593
-0.098732814 -0.16262847 0.33364913 -0.53711838 0.064469658 -0.84103954 0.14440455
0.037696782 -0.11072771 0.24048239 -0.39858663 0.14785275 -0.90513438 0.08042901
0.099459134 0.087789789 0.24716283 0.25963923 0.5608058 -0.78618342 0.094098933
0.11026992 -0.12315924 0.20270245 0.22001925 0.10260993 -0.97008389 0.043804333
0.10269788 -0.018100316 0.2346549 0.73114353 0.049340699 -0.68043715 0.059297774
0.11315817 -0.11978798 0.20617862 0.22163817 0.065492004 -0.97292721 0.047282416
0.062826343 -0.099078797 0.22195502 -0.340774 0.18146989 -0.92246509 0.077147052
-0.13025971 -0.19423899 0.34530228 -0.59415442 -0.041149233 -0.80329776 0.16436058
-0.072304808 0.078477837 0.36374325 -0.29137865 0.83300453 -0.47032106 0.1628041
0.084886223 -0.055208907 0.22667685 -0.12717353 0.29358643 -0.94743532 0.093659893
0.036355313 0.077347353 0.27205226 -0.37174392 0.60745364 -0.70200181 0.17068669
-0.12094039 -0.11614255 0.35819247 -0.58557898 0.49766177 -0.63986725 0.11526138
-0.062577367 -0.16629028 0.30836335 -0.62487733 0.021418657 -0.78042912 0.12310129
0.16633818 -0.069071278 0.30912966 0.69146264 0.45538345 -0.5608077 0.12988077
0.046142597 0.091543883 0.27865425 -0.28497198 0.82093287 -0.4948335 0.14345017
0.10349976 -0.016108841 0.23621453 0.80444938 0.059621383 -0.59102154 0.054230742
0.072172746 -0.12891744 0.216401 -0.23356327 -0.049743466 -0.97106832 0.089295775
0.19252965 -0.19978546 0.28615841 0.75748891 -0.23679738 -0.60838926 0.065919571
0.10511226 -0.12387637 0.20841485 0.099791706 0.055478536 -0.99346054 0.06331487
0.068919152 -0.093553953 0.22187553 -0.30229107 0.23524329 -0.92373198 0.10426088
0.12919052 -0.15333009 0.22011101 0.41721085 -0.0030365617 -0.9088046 0.074722394
0.1718931 -0.22137001 0.26312461 0.72685468 -0.35647404 -0.58703369 0.081733704
0.15474409 -0.068302333 0.29581991 0.78672856 0.39855504 -0.47139373 0.093033999
0.15024707 -0.10328527 0.24463449 0.78358227 0.30033508 -0.54387283 0.040761892
0.00036939906 0.078229114 0.31109914 -0.068759136 0.86819035 -0.4914445 0.14452948
0.055335239 -0.10053566 0.22662932 -0.40441099 0.17744726 -0.89719796 0.078695036
0.18509738 -0.20772943 0.27550313 0.76836485 -0.26500848 -0.58256841 0.073793776
-0.0067550573 0.079521596 0.30639371 -0.097720243 0.83507341 -0.54139006 0.13240595
-0.024687115 -0.066119634 0.36394104 0.016882751 0.89691377 -0.44188312 0.13604836
0.114653 -0.037045576 0.24041097 0.70848882 0.15082176 -0.68941742 0.074166179
-0.041803978 -0.098320559 0.30487755 -0.54008949 0.62664312 -0.56180221 0.15312926
-0.10484084 -0.0021380796 0.45959288 0.15237658 0.69580513 -0.70188069 0.18700373
0.10765712 -0.11531796 0.20520459 0.15015915 0.087409936 -0.98479015 0.051545478
0.076320998 -0.17283511 0.20735045 -0.13870746 0.060606256 -0.98847717 0.06009664
0.009555608 -0.06070983 0.37718242 -0.13777716 0.94744402 -0.28873408 0.11642975
-0.02172444 -0.093603738 0.28727633 -0.41788304 0.6039893 -0.67865348 0.13214646
0.016838163 -0.0094789518 0.44544923 -0.5756799 0.79133731 -0.20585898 0.10416489
-0.053553876 -0.098582715 0.31372011 -0.54715949 0.61812729 -0.56438911 0.13836963
-0.0039797248 -0.0860302 0.27618554 -0.28510359 0.65099841 -0.70350337 0.16958079
-0.039976642 -0.098651245 0.30650893 -0.51009035 0.65412921 -0.55850041 0.14961003
-0.12600972 0.017826017 0.45366144 0.069003351 0.41440788 0.90747154 0.21929729
-0.12267879 0.080519654 0.40017357 0.0439757 0.99331677 -0.10671434 0.050194696
-0.09956377 -0.12785472 0.33815253 -0.60878128 0.33357742 -0.71979952 0.12583105
0.13356332 -0.040601138 0.25081262 0.81096822 0.26481158 -0.52173305 0.049009182
0.14743678 -0.066051036 0.29624358 0.80319053 0.53596419 -0.26005265 0.16930297
0.1248033 -0.097243339 0.22480999 0.51140392 0.34762084 -0.78589165 0.07511507
0.20593293 -0.21082912 0.3006511 0.76624221 -0.32149845 -0.55633777 0.070080213
0.18223488 -0.1092696 0.30206591 0.7145322 0.35646057 -0.60197973 0.050902091
0.18169093 -0.10095477 0.29810369 0.70260441 0.37827376 -0.60270727 0.054790933
0.17478026 -0.21828228 0.26614988 0.73669744 -0.34616494 -0.58090156 0.082125068
0.15277903 -0.06211254 0.3168197 0.49184284 0.7443341 -0.45172706 0.21723334
0.20490563 -0.062755689 0.34990785 0.67555767 0.34299341 -0.65266943 0.025849877
0.17823383 -0.14942311 0.27056098 0.79808444 0.18290627 -0.57411373 0.033784583
0.20551099 -0.12027954 0.32361069 0.69104409 0.2578285 -0.67526489 0.025706122
0.21793574 -0.12122399 0.33508226 0.77132851 0.20083608 -0.60391819 0.030379886
0.17959175 -0.089399435 0.2948662 0.70281327 0.41216916 -0.57980174 0.06626118
0.26503637 -0.213661 0.38960272 0.86132115 -0.12864314 -0.4915047 0.056606334
0.24227479 -0.047332175 0.50068134 0.47446609 -0.56402045 0.67584229 0.16872206
0.25751078 -0.053258009 0.5068022 0.63350242 -0.58972996 0.50089252 0.1639038
0.18960838 0.030859938 0.49774569 0.0039263912 0.58176118 0.81335014 0.16550477
0.26796713 -0.1015491 0.42252028 0.91205263 0.021190563 -0.40952536 0.071941398
0.20976251 -0.12072708 0.3243992 0.71334159 0.24130292 -0.65796411 0.024984516
0.29509443 -0.10209916 0.44708982 0.88662058 0.27673736 -0.37056762 0.051992737
0.23049667 -0.082465313 0.36437076 0.80743986 0.15557483 -0.56906706 0.074674778
0.26189244 -0.22307867 0.38831216 0.84489745 -0.18151788 -0.50318944 0.07314907
0.21487311 -0.069545835 0.35502413 0.70661187 0.38295537 -0.59501666 0.055759199
0.16626625 -0.07693556 0.30112332 0.70633668 0.42079473 -0.5692277 0.086156122
0.2642315 -0.065887965 0.46305144 0.38713449 -0.8222636 0.41714448 0.0998156
0.13450016 0.078903362 0.28079158 0.54870069 0.64428324 -0.53275388 0.099031508
0.13510621 0.086664446 0.28565732 0.43319288 0.77723813 -0.45633844 0.086196177
0.20914397 -0.21862489 0.30646053 0.74495906 -0.36869177 -0.55596977 0.072632886
0.2514849 -0.15189292 0.38298109 0.88241887 0.11317833 -0.45664814 0.034932882
0.19690612 0.020170195 0.49895763 -0.059693072 0.60691011 0.79252559 0.19935732
0.23269486 0.0066867801 0.50046557 0.29779208 0.42406344 0.855272 0.24496582
0.14517102 -0.044318281 0.46863365 0.69360858 0.5909555 -0.41192085 0.19397323
0.17311893 -0.090583347 0.29390249 0.72923452 0.40030429 -0.55495358 0.069867007
0.14006019 -0.054910999 0.45726064 0.5858705 0.78469718 -0.2024997 0.16367395
0.18899632 0.081261404 0.35637876 -0.034222782 0.96207899 -0.27061585 0.037401963
0.13727386 -0.05223126 0.47350264 0.46862721 0.85359818 -0.22750534 0.15758087
0.21132696 -0.12873736 0.32645178 0.74207395 0.21290967 -0.63560659 0.023978388
0.14335859 -0.055953752 0.28016412 0.80681503 0.36211455 -0.46682182 0.070025787
0.20737949 -0.17066437 0.30984676 0.78653729 0.10863846 -0.60791177 0.026212767
0.17101263 0.083809413 0.34091681 -0.21994439 0.9755103 -0.002027194 0.093377195
0.18159811 -0.20998505 0.27558091 0.74954492 -0.31351212 -0.58300304 0.074671283
0.24208011 -0.094989613 0.38205764 0.8592757 0.088862881 -0.50373471 0.081022374
0.17793836 -0.15572253 0.27403882 0.79864913 0.1694964 -0.57743448 0.03312714
0.1081272 -0.11529286 0.20550129 0.15015915 0.087409936 -0.98479015 0.051545478
0.17303163 0.084981404 0.34183401 -0.22242616 0.9745397 -0.028267764 0.083431974
0.25591549 -0.15424594 0.38566846 0.88657969 0.11660561 -0.44763774 0.038485914
0.22457689 -0.17330647 0.33571285 0.8326692 0.014343349 -0.55358487 0.018955667
0.12167718 -0.028010985 0.46303636 0.73657483 0.58139604 -0.3455953 0.26559445
0.12649567 -0.049169827 0.46684319 0.54909116 0.83576238 0.00031080464 0.16927695
0.22892299 -0.088069305 0.35914293 0.80971634 0.14835823 -0.56775808 0.067929611
0.1477358 -0.094855264 0.2427064 0.76535356 0.3331601 -0.5506708 0.039966591
0.19259478 -0.20793767 0.28282821 0.76081294 -0.2578437 -0.59555042 0.061717905
0.21749212 0.038047485 0.49842623 -0.13048689 0.32326818 0.93726772 0.16448659
0.19140033 -0.13707355 0.30022287 0.75174904 0.24856369 -0.61081052 0.035636373
0.13639286 -0.12778679 0.22792768 0.60485303 0.29140696 -0.74110377 0.11779939
0.15507592 -0.13136704 0.24473135 0.78618324 0.24491739 -0.56738997 0.083262473
0.13187005 -0.11589625 0.22357197 0.52884513 0.33125168 -0.78140587 0.10552838
0.1825677 0.074762948 0.34657028 -0.40923232 0.91243017 -0.00028915977 0.070811413
0.26412976 0.019662147 0.50892979 0.12261599 -0.15045777 -0.98098302 0.20372446
0.26262271 0.010921716 0.50787163 0.078770936 0.055245444 -0.99536079 0.21245578
0.25996023 0.059853818 0.50750887 0.20193689 0.25957432 -0.9443742 0.14528652
0.21444808 -0.12439039 0.32452986 0.74207395 0.21290967 -0.63560659 0.023978388
0.25411844 -0.14382271 0.38394147 0.88144994 0.10914588 -0.45949239 0.03272067
0.23967476 -0.10196763 0.37354666 0.8642835 0.10339814 -0.49226302 0.083023317
0.2105343 -0.17712389 0.31368971 0.80422813 0.033470884 -0.59337753 0.038034543
0.11525481 0.047593791 0.34771407 -0.10023426 0.99090213 -0.089811072 0.16226655
0.26347184 -0.17222011 0.40618855 0.92124879 0.067449167 -0.38308111 0.048550647
0.25665194 -0.17274466 0.38685477 0.91308707 0.051681034 -0.40447626 0.040577948
0.13468014 -0.1161717 0.22586904 0.57804918 0.31746614 -0.75171429 0.10403851
0.21830389 0.035362285 0.49865544 -0.10436573 0.54201984 0.83385992 0.15265654
0.14864194 -0.11674999 0.23959757 0.77089542 0.30268779 -0.56044668 0.073272832
0.14695588 -0.1236124 0.23771016 0.7379185 0.31327683 -0.59777415 0.086082727
0.14998639 -0.11558957 0.24176145 0.76892769 0.30948734 -0.55943531 0.073233761
0.10805295 -0.034800161 0.43034661 0.36023739 0.87608063 -0.32048663 0.1523359
0.19753721 -0.18699208 0.29491946 0.79733324 -0.065081887 -0.60002005 0.052515272
0.12796751 0.003714815 0.4374617 0.89530611 -0.062333282 -0.4410685 0.08126042
0.1826791 -0.19483863 0.27840286 0.776003 -0.1950729 -0.59980488 0.063723341
0.23727037 -0.1878777 0.3534233 0.85492367 -0.051062398 -0.51623464 0.038963467
0.15711227 -0.16003563 0.24617809 0.80177271 0.17196321 -0.57235408 0.031134687
0.13629392 -0.02792345 0.47362036 0.91180706 -0.34956756 -0.21543071 0.20510189
0.13932805 -0.22042997 0.22169505 0.62529266 -0.31387991 -0.71448481 0.091548301
0.22054824 -0.17873198 0.32591107 0.81885391 -0.0061429907 -0.57396919 0.024992682
0.24522386 -0.10317941 0.38063794 0.85864478 0.10570635 -0.50155282 0.075123757
0.14332773 -0.22023986 0.22668876 0.63410008 -0.32632837 -0.70101845 0.092975527
0.20026374 -0.19048469 0.29643187 0.79711396 -0.099252783 -0.59561586 0.050945763
0.20876697 -0.18571037 0.30826551 0.8122673 -0.06452363 -0.57970566 0.042897407
0.24821316 -0.18821812 0.37134555 0.87690359 -0.035914373 -0.47932267 0.035628971
0.12783355 -0.1997095 0.21061957 0.45273423 -0.11580017 -0.88409388 0.063705571
0.18318757 -0.098582327 0.2965869 0.70260441 0.37827376 -0.60270727 0.054790933
0.13801356 -0.046723351 0.47204936 0.56260079 0.74738693 -0.35340226 0.20150784
0.26982141 -0.19713448 0.39623371 0.89097649 -0.010778062 -0.45392135 0.047070976
0.18592432 -0.14850172 0.29057935 0.7760064 0.20202787 -0.59749383 0.033968724
0.15491855 -0.15709031 0.24391106 0.80534869 0.18760337 -0.56233305 0.032575753
0.14282072 -0.20497687 0.21960384 0.62488872 -0.16914448 -0.76217073 0.082443714
0.11083782 0.045787975 0.35275099 -0.12675881 0.98074192 0.14858529 0.19062603
0.24847347 -0.041042622 0.51080799 0.64535719 -0.43587676 0.62731612 0.21998724
0.12716456 -0.032206763 0.26089314 0.84733808 0.28060752 -0.45086327 0.067246392
0.24355218 -0.18321635 0.36561969 0.87112969 -0.0051166709 -0.4910264 0.024402399
0.21294352 -0.18879721 0.3136979 0.8149848 -0.063849367 -0.57595408 0.044547033
0.23252946 -0.19159955 0.34688726 0.82954228 -0.10523743 -0.54843843 0.040433776
0.23372288 -0.17330961 0.3496865 0.85129035 0.035238482 -0.52351028 0.018897755
0.14709163 -0.16884744 0.2348955 0.73089451 0.056550838 -0.68014354 0.015405527
0.14992668 -0.16245145 0.23876028 0.77214897 0.11054754 -0.62575179 0.023478739
0.13465294 -0.19720799 0.21310118 0.52330357 -0.10756913 -0.8453297 0.059838373
0.27162963 -0.21863513 0.39912176 0.87492412 -0.13746312 -0.46434015 0.06219646
0.16755077 0.090410233 0.3412177 -0.17726049 0.98414415 -0.0062381895 0.090327188
0.25597441 -0.052747924 0.5053215 0.59947968 -0.61120731 0.51676857 0.16635223
0.25821528 0.014646863 0.51150548 -0.00074445375 -0.045197304 0.99897778 0.23321189
0.17819276 0.084153377 0.34532869 -0.41137758 0.91141498 0.0095465751 0.064133398
0.11438902 -0.0432695 0.42067638 0.49040198 0.7660228 -0.41558984 0.14626984
0.29342106 -0.019818295 0.50906646 0.2871924 0.34115121 -0.89506221 0.15982957
0.259233 0.029558994 0.50867063 0.18830815 -0.041794199 -0.9812203 0.17357834
0.11349094 -0.013481492 0.40340179 0.91296262 -0.072886951 -0.40148059 0.10212178
0.12111215 0.000427836 0.27262437 0.94872236 0.22069298 -0.22631934 0.10024169
0.18208343 -0.092980325 0.29306358 0.70239878 0.41279516 -0.57985872 0.062797092
0.21272635 -0.16655326 0.3181712 0.78152817 0.12651548 -0.61090714 0.027945666
0.23963831 -0.19060311 0.36137882 0.85783076 -0.082779117 -0.50722176 0.047232434
0.21793884 -0.18982078 0.32036257 0.82396269 -0.084074542 -0.56037229 0.03694078
0.20095818 -0.17282434 0.29983005 0.79127979 0.082614027 -0.60584754 0.026601911
0.25968695 -0.19052638 0.38342601 0.8773436 -0.029115492 -0.4789786 0.048060413
0.18579748 -0.21644573 0.27637464 0.73760664 -0.32810932 -0.59015316 0.076747812
0.14953551 -0.093075626 0.2459249 0.77319086 0.33540401 -0.53821933 0.03904523
0.1194774 0.055436589 0.26617882 0.91068918 0.10554208 -0.39938205 0.077998832
0.10232032 -0.017757267 0.23649956 0.76885766 0.051095534 -0.63737524 0.05830818
0.12575935 0.017285457 0.27004069 0.7630744 0.066654384 -0.64286441 0.044068933
0.1447489 -0.092425205 0.2392315 0.74298728 0.33161175 -0.58138078 0.042306151
0.23593041 -0.091282524 0.36974663 0.838507 0.092002399 -0.53706759 0.067821272
0.17253606 -0.051878762 0.48189366 0.53877354 0.60006386 -0.59130907 0.1631853
0.21703079 -0.068767756 0.36059856 0.70547813 0.3801477 -0.59815413 0.059582241
0.15957925 -0.062981397 0.31529543 0.61419076 0.46072671 -0.64070332 0.17189234
0.24974415 -0.1733083 0.37559202 0.892344 0.059868198 -0.44736788 0.032203529
0.15237473 -0.16596514 0.24167156 0.76684505 0.095734507 -0.63465226 0.019248566
0.18960229 -0.10015854 0.30164078 0.70003486 0.35954565 -0.61699122 0.055514872
0.21662574 -0.12070185 0.34032243 0.78391743 0.21511334 -0.58240861 0.046631806
0.1520247 -0.1541063 0.24009597 0.80199754 0.17881334 -0.56993479 0.032553602
0.1464982 -0.045967754 0.47229299 0.64354265 0.61492902 -0.45575777 0.20150164
0.16343944 -0.1585329 0.25451624 0.80531871 0.16599126 -0.56912971 0.030293677
0.19228126 0.020169061 0.49987307 -0.17936239 0.69549513 0.69578427 0.19237763
0.14092721 -0.17760481 0.22508556 0.62815368 -0.017005892 -0.77790344 0.026971893
0.22031771 -0.17239447 0.32715198 0.81030029 0.063796416 -0.58253199 0.023063606
0.22527777 -0.19193324 0.32941425 0.81624609 -0.11154138 -0.56683415 0.045333028
0.20483394 -0.11754823 0.32085544 0.67742455 0.27495724 -0.6822716 0.025951585
0.1498387 0.052557457 0.4813388 0.94497782 0.12189662 -0.30357543 0.12514518
0.15624683 -0.16280843 0.24450244 0.79845262 0.15884537 -0.58072507 0.031197172
0.11823518 0.085749388 0.26546606 0.51890248 0.64011908 -0.56655788 0.10359027
0.21018018 -0.061207879 0.36129329 0.68569869 0.43831354 -0.58111846 0.059020638
0.26742685 0.050328653 0.51107305 0.16454265 0.17177321 -0.97129792 0.17314748
0.26200789 -0.07130982 0.43282485 0.43332934 0.86187619 -0.26342943 0.097295262
0.22559233 -0.12521054 0.34165338 0.80373955 0.17089371 -0.56991059 0.02502382
0.14784727 -0.054908652 0.4215 0.6994589 0.58902824 -0.40472594 0.075080276
0.11918229 -0.042149924 0.44730854 0.5879643 0.74762195 -0.30880311 0.18309148
0.29129073 -0.0080030467 0.51110858 0.23229179 0.21728969 -0.94806421 0.15630534
-0.12614933 0.080380201 0.4042851 0.023034517 0.99567735 -0.08997798 0.059217602
-0.19344231 -0.21823251 0.38984209 -0.33987474 -0.74824417 -0.56975073 0.21882869
-0.076823562 -0.19539556 0.31089085 -0.57450539 -0.16444306 -0.8018117 0.15416092
-0.18038173 -0.16146709 0.38654619 -0.64531451 0.21683079 -0.73249817 0.11435173
0.10940227 -0.16683657 0.21169405 0.18206444 -0.085530251 -0.97955966 0.094888419
0.19483016 -0.20286033 0.29045588 0.75806731 -0.24059027 -0.60617667 0.066378452
0.17357145 -0.22415382 0.26419878 0.72548759 -0.37431729 -0.57754159 0.082393505
0.11290479 -0.12320729 0.20571935 0.240885 0.096970178 -0.96569723 0.046621237
-0.072347157 -0.082857944 0.32989126 -0.50905991 0.71282578 -0.48242852 0.13278623
-0.17217487 -0.095858946 0.39006308 -0.49798983 0.64090741 -0.58416075 0.093338631
-0.052338749 -0.099697493 0.31041539 -0.56104988 0.61308932 -0.55618745 0.13893288
0.061508309 -0.085443914 0.22521067 -0.36982715 0.27376056 -0.88785309 0.054080412
-0.13317114 -0.086675353 0.37566936 -0.40695503 0.8042596 -0.43307519 0.08603245
0.026500341 -0.11179245 0.24343213 -0.29713339 0.20532893 -0.93249762 0.093994014
0.068142518 -0.14206254 0.21116167 -0.25081164 -0.0092790443 -0.96799141 0.077990025
-0.18763673 -0.10279881 0.41018584 -0.47567177 0.54145002 -0.69323027 0.09880697
-0.14026447 -0.090261564 0.38630059 -0.37523609 0.79681063 -0.47359332 0.093689688
-0.10509063 -0.12508403 0.34695205 -0.63932282 0.37421253 -0.67173749 0.12293069
0.0030900869 -0.13859308 0.25554025 -0.29558513 0.15078466 -0.94334161 0.12891474
-0.053070769 -0.10371241 0.31228372 -0.60095406 0.528467 -0.59964728 0.14901246
-0.065508381 -0.17357121 0.30823895 -0.61509377 -0.0583358 -0.78629297 0.10947788
-0.1264655 -0.10196871 0.35568419 -0.53678763 0.58115935 -0.61164767 0.12466934
-0.073592246 -0.079346813 0.33150551 -0.55724537 0.64781427 -0.51943654 0.14025596
-0.12355218 -0.11719304 0.36038837 -0.60989219 0.46422178 -0.64228463 0.11501979
-0.094568752 -0.12199986 0.33526716 -0.60845536 0.37179023 -0.70110917 0.13084054
-0.19760977 -0.16794313 0.39798272 -0.65527254 0.15578221 -0.73915488 0.11748016
-0.063818328 -0.15836617 0.29751632 -0.61529881 0.090738229 -0.78305423 0.12616466
0.0064859274 -0.21292338 0.23462407 -0.25095052 -0.16130126 -0.95446616 0.1542064
-0.18337655 -0.17598873 0.38946584 -0.64984125 0.12379101 -0.7499215 0.11677107
-0.19552261 -0.21762837 0.39549077 -0.29436114 -0.79575115 -0.52927464 0.21848312
0.070553139 -0.13010195 0.21636514 -0.23356327 -0.049743466 -0.97106832 0.089295775
-0.11961269 -0.18630543 0.33885187 -0.53135067 0.028547192 -0.84667081 0.14473774
0.063914284 -0.18648683 0.20833822 -0.1992545 0.011392002 -0.97988147 0.050695196
-0.015374561 -0.086288504 0.28291956 -0.35249755 0.65767419 -0.66574043 0.15207228
-0.088200212 -0.18657225 0.32730514 -0.46571681 -0.12126866 -0.87658525 0.15556304
-0.012933926 -0.11611906 0.27144617 -0.33876836 0.29130405 -0.89463842 0.15125468
-0.076380908 -0.1795921 0.31141847 -0.59696943 -0.090621896 -0.79712933 0.12699889
0.054641601 -0.10334507 0.22687301 -0.40025556 0.17296004 -0.89993346 0.074348055
0.0033650438 -0.06936536 0.28229177 -0.39367145 0.63667643 -0.66307306 0.22161333
-0.12218593 -0.19662112 0.34096095 -0.49853244 -0.091295399 -0.86205024 0.17773111
0.0022955211 -0.17002003 0.26756352 -0.2892673 0.10271968 -0.95172113 0.1589286
0.13814417 -0.17090219 0.22428514 0.58734989 0.036052469 -0.80852979 0.028741643
0.13877736 -0.11043881 0.23088109 0.6618917 0.33518693 -0.67048413 0.085616462
-0.0041636853 -0.086287685 0.273886 -0.28196573 0.62474477 -0.72814101 0.17053494
0.047100455 -0.095825166 0.23209712 -0.4029727 0.27534232 -0.87281132 0.065561891
-0.0043986524 -0.17061238 0.26088545 -0.36379078 0.14382905 -0.92030942 0.13303331
-0.0092612738 -0.11438452 0.26453418 -0.40088946 0.27464592 -0.87398922 0.12577903
0.027190778 -0.063864134 0.2671853 -0.31794873 0.57803547 -0.75152087 0.21620741
0.0345659 -0.12157927 0.24518195 -0.29670092 0.11215558 -0.94836158 0.12913461
-0.140524 -0.1717349 0.37388736 -0.63616002 0.028036488 -0.77104759 0.12063646
0.069644891 -0.11927541 0.21685748 -0.28364259 0.0098489812 -0.95887947 0.09130621
0.037566409 -0.11087894 0.24183026 -0.39725831 0.14875397 -0.90557051 0.08220759
-0.0059339944 -0.16955984 0.2516849 -0.24155858 0.12467255 -0.96234411 0.1089157
0.1007113 -0.065368317 0.22474085 0.19434792 0.24291641 -0.95037907 0.10388906
-0.084921308 -0.20634057 0.30971718 -0.53440553 -0.21779408 -0.81668627 0.17952769
-0.11568514 -0.074327894 0.38383496 -0.34117571 0.85367185 -0.39350158 0.081224248
-0.13494225 -0.1941776 0.34680787 -0.61144364 -0.027600998 -0.79080647 0.15720838
0.099561974 -0.0649186 0.22355263 0.19434792 0.24291641 -0.95037907 0.10388906
-0.090861641 -0.1133378 0.33483168 -0.55525923 0.440651 -0.70534658 0.13882847
0.21761468 -0.21251515 0.31847325 0.7442354 -0.39003175 -0.54220736 0.07545197
-0.059478939 -0.15366298 0.29964712 -0.62893528 0.11191627 -0.76936018 0.12508094
-0.13321888 -0.19305123 0.34342632 -0.59634006 0.007078256 -0.8027007 0.15437721
-0.050482325 -0.15621135 0.30094442 -0.60843933 0.080849007 -0.78947139 0.13699888
-0.19533296 -0.19359994 0.40787128 -0.71888989 -0.15869279 -0.67676723 0.20754272
-0.12747015 -0.17833298 0.35879239 -0.65458095 0.030955331 -0.75535786 0.12519991
0.14751701 -0.10141858 0.24108544 0.76907736 0.3090629 -0.55946416 0.03666715
0.17850463 -0.1556873 0.27595747 0.79116106 0.17352489 -0.58647525 0.032894094
0.026454126 -0.069211483 0.26131228 -0.38053048 0.50919747 -0.77195495 0.17408882
0.18285909 -0.14639264 0.28726566 0.78043169 0.20319915 -0.59130067 0.034341969
0.17562301 -0.15393507 0.27155676 0.80071861 0.16865094 -0.57480997 0.034514755
0.14866938 -0.17050742 0.23617397 0.7320357 0.044327967 -0.67982262 0.015612094
0.16381814 -0.16056308 0.25455207 0.81164479 0.16213246 -0.56120038 0.033396151
0.15557088 -0.16035567 0.24463634 0.80257499 0.17346412 -0.57077461 0.031844907
-0.10517952 -0.1770149 0.34566256 -0.55936533 -0.06041903 -0.82671642 0.13256943
0.0025731456 -0.068608165 0.27237868 -0.34565702 0.54788822 -0.76180035 0.185278
0.10691995 -0.1184807 0.21039096 0.16715053 0.11171895 -0.97958142 0.065424375
-0.060487092 -0.14373288 0.30780348 -0.63674754 0.17059049 -0.75196511 0.12518139
0.066357367 -0.15185818 0.21405762 -0.26210636 0.032578226 -0.96448892 0.071314313
-0.11549356 -0.1126429 0.34737334 -0.61110526 0.48499793 -0.62556154 0.11923937
0.060434442 -0.19090086 0.21117939 -0.20119259 -0.022635385 -0.97929013 0.075005181
0.2084647 -0.22058408 0.30654675 0.74093747 -0.38723394 -0.54869068 0.072471544
-0.11627564 -0.19842219 0.33513528 -0.39271507 -0.12603037 -0.91098368 0.17365576
0.13651472 -0.16193014 0.22605956 0.5575676 0.011735125 -0.83004862 0.039248005
-0.1418393 -0.17273699 0.371602 -0.62253511 0.02651928 -0.78214234 0.12209005
0.23596443 -0.092329204 0.36919793 0.82989073 0.083254375 -0.55167937 0.066086948
0.10388014 -0.014667645 0.23175 0.79221338 0.065615363 -0.60670632 0.056911483
0.32039431 -0.044138148 0.51260346 0.51803607 0.15270421 -0.84161752 0.13952172
0.1234787 0.086435981 0.27214423 0.52155226 0.66492367 -0.53465849 0.10074146
0.095344864 0.088032007 0.24076098 0.13986389 0.57636356 -0.80513549 0.078255117
0.092777967 0.075724423 0.2464693 0.087994426 0.54930377 -0.83097667 0.10046817
0.1813532 0.081441864 0.34609458 -0.40923232 0.91243017 -0.00028915977 0.070811413
0.31041208 0.010553176 0.5177111 0.18299371 0.007727711 -0.98308367 0.097746931
0.14511454 0.082257956 0.28805989 0.46398795 0.7458027 -0.47801006 0.099102825
0.048193235 0.092932731 0.27346823 -0.28492913 0.82084006 -0.49501216 0.1495302
-0.024277082 0.084621839 0.32587487 -0.23078054 0.89885211 -0.37256584 0.087172315
0.091719113 0.044634245 0.23913355 -0.32407603 0.069440633 -0.943479 0.12634668
0.063339263 -0.086776383 0.22366077 -0.35642558 0.25521511 -0.89879143 0.056428619
0.13613965 0.10014874 0.42148229 -0.090882614 0.98425275 0.15161374 0.091644831
0.10678734 0.10135999 0.30749348 0.077732764 0.99678457 -0.019445121 0.080463357
0.041115385 0.10294541 0.58775252 -0.64949185 0.74218524 0.16529179 0.10146909
0.092946939 0.10472559 0.5180071 0.1279708 0.98440868 -0.12067726 0.013059445
0.17210101 0.098705508 0.36257508 -0.18700778 0.95706278 -0.22149245 0.0367571
0.030931121 0.10080122 0.58408552 -0.29961246 0.93585551 0.18549088 0.13820073
0.02188682 0.10052328 0.395509 0.035358656 0.97870088 -0.20222354 0.042166512
-0.029514063 0.10414352 0.46885684 -0.0445471 0.99685413 -0.065553695 0.0063661574
-0.056745946 0.10571282 0.49759981 -0.060297728 0.99753809 -0.035803486 0.0078115445
-0.041276973 0.098757476 0.41755518 -0.22451356 0.95801216 -0.17834364 0.030359913
0.085905582 0.10473292 0.51647317 0.0071282079 0.99831665 -0.057559326 0.0025176206
-0.070985384 0.10511921 0.49162757 -0.065711096 0.9969722 -0.041577004 0.0085116178
0.010146167 0.1054028 0.35437426 -0.0083756438 0.97559822 -0.21940398 0.046263095
0.081566364 0.10412622 0.50108212 0.092303678 0.98972273 -0.10921976 0.011025635
0.12657821 0.10350792 0.41826573 -0.092900209 0.99516976 0.031729303 0.073592648
0.045651019 0.10205047 0.4013671 0.18401375 0.96522117 -0.18570702 0.051197659
0.05587396 0.10279472 0.51304859 0.0088847363 0.99925047 -0.037676346 0.0029510811
-0.087468617 0.10285081 0.48913398 -0.076231942 0.99549454 -0.056386203 0.010128908
-0.0095496578 0.10171942 0.42384923 -0.056752216 0.98992223 -0.12974235 0.0090772742
0.23653319 0.100603 0.52505338 0.18009298 0.70025367 -0.69080478 0.10397068
0.078501709 0.10923624 0.55016285 -0.024427621 0.99839264 -0.051140513 0.0041898135
-0.093249694 0.10086972 0.49266657 -0.097724326 0.99284798 -0.068578191 0.017543297
-0.001797492 0.10227135 0.4528273 -0.01071139 0.99835104 -0.056394815 0.0025047571
-0.0060739042 0.10611243 0.48380804 0.02423567 0.9991591 -0.033074241 0.0011082405
0.020072028 0.09939523 0.39385703 0.036422439 0.97886044 -0.20126033 0.040510692
0.076572247 0.10819504 0.59222043 0.37079242 0.85791928 0.35565078 0.089415394
-0.14461543 -0.070839502 0.40127969 -0.26345962 0.80413586 -0.53287375 0.078223765
-0.16407028 -0.072270744 0.40018779 -0.30004704 0.76171547 -0.57424849 0.08389014
0.081451692 0.10206009 0.32565883 -0.064858347 0.99716777 0.038076997 0.087774009
0.17972942 0.10084137 0.36931762 -0.11065263 0.96918577 -0.22007948 0.023061166
0.071256697 0.10236223 0.44105142 0.11821654 0.98829103 -0.0964664 0.028343294
-0.044102959 0.1073286 0.52464461 -0.028597033 0.99919128 0.028264688 0.0027882862
-0.036991324 0.10504124 0.52236372 0.078571476 0.98917818 0.12390769 0.033193395
-0.15610784 0.10020612 0.46445242 -0.36153013 0.92828935 0.087033845 0.073746264
-0.068718806 0.10323942 0.45489439 -0.10109138 0.97832102 -0.18074423 0.011189414
-0.069159739 0.10476615 0.49934664 -0.065104216 0.9975962 -0.02373503 0.0080861347
-0.14162479 0.10283618 0.48773047 -0.3996034 0.91110861 0.10098603 0.069851719
-0.14523914 0.099311933 0.45720449 -0.27433601 0.96044379 -0.047826588 0.061701357
-0.054371174 0.10672291 0.4736242 -0.07346651 0.99284655 -0.094119743 0.0060039484
-0.14467511 0.09893433 0.45625472 -0.27458698 0.96034825 -0.048302647 0.060763467
-0.042271204 0.1092431 0.55422038 0.17012633 0.9662022 0.19367594 0.065006718
-0.2120503 -0.017024916 0.46550173 -0.18672961 0.21340279 -0.9589532 0.15334238
0.010706094 0.1030363 0.48635694 0.024538282 0.99965614 -0.0092478348 0.0010585794
-0.23408471 -0.09208893 0.44481128 -0.32654551 0.45848379 -0.82653528 0.12935863
-0.17194514 0.094541989 0.44405004 -0.29561669 0.95522577 -0.012425199 0.092424177
0.11836842 0.10407027 0.5323177 0.12693655 0.97115082 -0.20187439 0.023140555
-0.24440677 -0.14274324 0.46887296 -0.55742425 -0.048672955 0.8287999 0.19234292
0.15659335 0.10271696 0.34846267 -0.0051227375 0.99326003 -0.1157938 0.080334634
0.020109994 0.10630661 0.41478506 0.017496554 0.99137092 -0.12991402 0.017743511
0.017005118 0.10556606 0.41305339 0.0085939439 0.98909968 -0.14699653 0.017133558
0.16045763 0.098611996 0.43173224 -0.22611265 0.95249349 0.20403247 0.103903
0.15696631 0.10335195 0.41001791 -0.25862035 0.95919192 -0.11430864 0.061681271
0.04919409 0.1007612 0.39761481 0.15274705 0.97793543 -0.14251554 0.060523987
0.24297252 0.10152418 0.52332652 0.14682212 0.70195335 -0.69692522 0.12055178
-0.1979892 0.063479975 0.4605135 -0.53859603 0.66273946 0.52027947 0.18525848
0.057951655 0.10141417 0.4074797 0.12845892 0.9640063 -0.23278774 0.055983149
0.090459049 0.10224055 0.43820167 0.11536299 0.98577523 -0.12222378 0.039692856
0.07968723 0.11042696 0.36423928 0.12105029 0.98830783 -0.092706867 0.092558913
0.14250948 0.10369533 0.41757956 -0.14331457 0.98716545 0.070464849 0.088363454
0.12242065 0.10433041 0.42871374 0.048614852 0.99881113 0.0035860585 0.095688485
-0.043420147 0.088555694 0.33428872 -0.31835824 0.85495424 -0.40951356 0.095863856
0.12771808 0.099542789 0.4176541 -0.1166914 0.9913913 0.059383888 0.074971847
0.036750104 0.10544777 0.41464075 0.064910173 0.98380595 -0.16707027 0.02789608
0.039760139 0.10504995 0.41538623 0.16117637 0.97839272 -0.12949871 0.033405282
0.075931221 0.1076691 0.55009454 -0.02442622 0.99839288 -0.051136944 0.0041900086
0.000106068 0.10595298 0.48922926 0.029796451 0.99932045 -0.021699036 0.00091009232
-0.20149639 0.048807964 0.46129817 -0.54214644 0.49458939 0.67930746 0.18839763
-0.20478788 0.021763105 0.46203026 -0.012131149 -0.20590554 -0.97849667 0.17257233
-0.11157089 0.10351018 0.51299727 -0.28525612 0.94125932 0.18072064 0.077743068
-0.034097023 0.10495562 0.46998268 -0.061816659 0.99527854 -0.074827917 0.0063995509
0.049622443 0.10342555 0.5082733 0.0059839995 0.99929059 -0.037184034 0.0029410741
0.053335313 0.1024107 0.49399582 0.014256255 0.9987911 -0.047043018 0.0026539236
-0.040116265 0.09891139 0.41008812 -0.23449104 0.95707959 -0.17033082 0.030689185
0.18889119 0.10410286 0.41633689 0.13720325 0.98788249 0.072550237 0.061854497
0.23218291 0.10992888 0.53439504 0.12730071 0.98458022 -0.11998459 0.087994806
0.032599144 0.097717255 0.39374432 0.069417089 0.97331899 -0.21870373 0.04348084
-0.011492061 0.10131049 0.41807315 -0.074196488 0.98684895 -0.14361027 0.0093909521
-0.071697302 0.10185134 0.57516325 -0.16101164 0.94497281 0.28478345 0.10116705
0.066033274 0.10288183 0.50004905 0.017795462 0.99815363 -0.058074754 0.0026925032
0.19484088 0.1024814 0.53664434 -0.029036738 0.40002412 -0.91604447 0.045796908
0.097501174 0.09983483 0.32854503 0.01146559 0.99598247 0.088810489 0.077706128
0.090408079 0.10606476 0.30895716 -0.036862038 0.99852604 0.039836038 0.075890474
0.18147044 0.10087584 0.37069818 -0.092496142 0.96875525 -0.23012525 0.022474699
0.033704747 0.10664743 0.32769302 -0.070634536 0.99002951 -0.12186991 0.075548194
0.16296829 0.10554782 0.54425335 0.040258944 0.22064847 -0.97452223 0.051425301
0.077030182 0.10841038 0.59047282 0.37079242 0.85791928 0.35565078 0.089415394
0.221433 0.10719042 0.53466803 0.18063997 0.85984033 -0.47753939 0.09297201
-0.1009188 0.10126963 0.52585512 -0.24966256 0.95824748 0.13939311 0.081602104
0.0679572 0.10235795 0.439062 0.11983794 0.98712975 -0.10589422 0.027533023
0.042674549 0.10449095 0.31946477 -0.0772122 0.99354839 -0.083064988 0.079615332
-0.23792417 -0.16300535 0.45273149 -0.41889769 0.0099113518 0.90797943 0.25330552
0.15688767 0.10084594 0.45112592 -0.3874453 0.89902437 0.20406225 0.12061316
-0.054420304 0.10781877 0.54958379 0.14791425 0.96382707 0.22171746 0.073509172
0.014478277 0.10285069 0.48622078 0.022736361 0.99968141 -0.010963202 0.0010460484
-0.05903545 0.10568405 0.49611464 -0.061962854 0.9969523 -0.047399916 0.0083591454
0.21049803 0.10630615 0.53627598 0.13193086 0.8500092 -0.50997889 0.093985468
0.079997703 0.11059497 0.36827984 0.099040486 0.99034816 -0.096961632 0.08519917
-0.010135693 -0.1133283 0.26584786 -0.39011285 0.2870959 -0.87486446 0.12520869
-0.066908419 0.10218454 0.57757431 0.060732692 0.95710695 0.28329811 0.12588818
-0.16162929 -0.054611836 0.54277086 -0.45103452 0.73432374 0.50728333 0.14607124
-0.096744932 0.10107032 0.49439612 -0.13655619 0.99062413 -0.004011936 0.046166703
-0.12029517 0.10416238 0.57240671 -0.35023019 0.91006118 0.22164717 0.051730741
-0.083641894 0.10020325 0.57229924 -0.2513901 0.93420136 0.25312233 0.086311981
-0.078107916 0.10504387 0.5037809 -0.076677784 0.99703008 -0.0071846279 0.0092996368
-0.048352569 0.10668211 0.51640165 -0.058431845 0.9981696 -0.015591994 0.0075053209
0.034089066 0.10773554 0.60192484 -0.16914058 0.98513341 0.03006091 0.13083529
-0.16391125 0.10391426 0.47881883 -0.47842368 0.85236293 0.21115935 0.076664172
-0.13054883 -0.058034107 0.58389765 -0.31326324 0.91239345 0.26344717 0.12936716
0.001051871 0.093705967 0.32403338 -0.036272593 0.97265971 -0.2293846 0.086906031
-0.053087119 0.10745077 0.5450083 0.056732252 0.98149306 0.1829012 0.048916016
0.069261454 0.10163899 0.49180171 0.071934395 0.99128145 -0.11039239 0.0085274009
-0.14109594 0.10277708 0.51433629 -0.44864309 0.85398537 0.26349294 0.088377535
-0.10456374 0.10300856 0.52466112 -0.26378295 0.95154911 0.15802838 0.075585984
-0.1097608 0.10424392 0.51180208 -0.2541914 0.95129371 0.17443372 0.072245613
-0.17265198 -0.073609762 0.54484469 -0.62522662 0.64035368 0.44613764 0.15039071
-0.17143959 -0.06227925 0.52589744 -0.66908771 0.58945954 0.45261362 0.10985114
-0.10719054 -0.062925562 0.64663023 0.10761134 0.98548466 0.13130002 0.14351824
-0.20474631 0.020174641 0.46463531 -0.057836857 0.18814753 0.98043627 0.17852904
