# .PCD v0.7 - Point Cloud Data file format
VERSION 0.7
FIELDS x y z normal_x normal_y normal_z curvature
SIZE 4 4 4 4 4 4 4
TYPE F F F F F F F
COUNT 1 1 1 1 1 1 1
WIDTH 471
HEIGHT 1
VIEWPOINT 0 0 0 1 0 0 0
POINTS 471
DATA ascii
-0.32697091 -0.3201918 0.22138816 0.91032809 0.19389822 -0.36565861 0.016809599
-0.3301321 -0.32017952 0.23249912 0.91032809 0.19389822 -0.36565861 0.016809599
-0.32830772 -0.31521231 0.23720047 0.91032809 0.19389822 -0.36565861 0.016809599
-0.32379067 -0.31987333 0.24486488 0.91032809 0.19389822 -0.36565861 0.016809599
-0.31446454 -0.31724873 0.26787215 0.79370534 -0.22072205 -0.56684524 0.035452738
-0.30564246 -0.32010189 0.27956948 0.67764866 -0.45456639 -0.5780673 0.021126891
-0.30636361 -0.32020876 0.28449261 -0.057448857 -0.99746102 0.04208402 0.022104554
-0.26418844 -0.31082779 0.31220698 -0.0029843054 0.98791045 -0.15499638 0.042751815
-0.16601343 -0.31115007 0.30898857 -0.21171418 0.022266792 -0.9770779 0.041555203
-0.21913056 -0.31353685 0.32488829 -0.23776126 0.6089828 -0.75670969 0.085612707
-0.21297354 -0.31326953 0.32195494 -0.23779844 0.60889292 -0.75677037 0.085586689
-0.19813539 -0.31778032 0.31877351 -0.27261031 0.33999813 -0.90004718 0.082484528
-0.1875495 -0.32011232 0.31988099 -0.25322503 0.3766875 -0.89105755 0.092782214
-0.17745042 -0.31727588 0.32046232 -0.27597123 0.2164415 -0.93647903 0.040005434
-0.15801002 -0.31735006 0.3076227 -0.15013498 0.052573316 -0.98726666 0.01767998
-0.2478963 -0.30809253 0.33144951 0.056374874 -0.99307412 0.10308097 0.06067038
-0.23354876 -0.31124845 0.32559508 0.016850485 -0.98763394 0.15586926 0.085665703
-0.22538774 -0.31301048 0.32546178 -0.21304739 0.68950564 -0.69223762 0.085308313
-0.18776864 -0.3203997 0.32003877 -0.25322503 0.3766875 -0.89105755 0.092782214
-0.17811385 -0.31897435 0.32309893 -0.27893034 0.22769539 -0.93292689 0.038681678
-0.24967223 -0.31002012 0.34046814 0.068901792 -0.98871952 0.13298945 0.07162936
-0.24505532 -0.31817651 0.33045611 0.063254558 -0.99165273 0.11235502 0.06590683
-0.18682748 -0.32514423 0.33012885 -0.296388 0.21941526 -0.92952198 0.08446496
-0.2685504 -0.31821778 0.35059768 0.14260484 -0.98829168 0.054253366 0.043706667
-0.25123468 -0.31145564 0.34995815 0.084667847 -0.9941414 0.067188472 0.065224908
-0.24233548 -0.31172752 0.33733726 0.058319107 -0.99272501 0.10533763 0.076585449
-0.22572154 -0.31345412 0.35310611 0.010969452 -0.99915534 0.039600033 0.072494701
-0.31246942 -0.31088227 0.37271219 -0.50887316 0.37436339 -0.77517754 0.12590951
-0.30125603 -0.31306356 0.37042394 -0.24050593 0.94047594 -0.24012899 0.125076
-0.29350254 -0.3126682 0.37069327 0.14892465 -0.98879087 -0.010679079 0.08240892
-0.34532464 -0.32018799 0.37647414 -0.28531799 0.35223162 -0.89136219 0.12404198
-0.33115742 -0.32018799 0.3746593 -0.38693696 0.50580257 -0.77100164 0.13229047
-0.3285538 -0.32018799 0.3797029 -0.35632718 0.39620453 -0.8461991 0.1632698
-0.31556091 -0.31452948 0.37619752 -0.46205676 0.29976401 -0.83465278 0.14077477
-0.36499459 -0.32018799 0.38799399 -0.24002184 0.43993729 -0.86535817 0.10785444
-0.34774551 -0.32018799 0.38094258 -0.23807386 0.34687018 -0.9071945 0.11493492
-0.33504191 -0.32018799 0.38028449 -0.31999943 0.3748405 -0.870112 0.16078877
-0.32182711 -0.31820291 0.38404348 -0.38140047 0.33966294 -0.8597458 0.15298238
-0.31590578 -0.31808862 0.38728008 -0.23163286 0.33232096 -0.91428059 0.18040428
-0.28376296 -0.31532392 0.39101046 0.105894 -0.99243551 0.062114768 0.15854065
-0.23772794 -0.32024658 0.38091365 0.034081418 -0.99923891 0.018974802 0.06389226
-0.11102684 -0.32527822 0.38270053 0.58172196 0.15837924 -0.79781932 0.05644466
-0.38397789 -0.32018799 0.3991749 -0.13167332 0.73217666 -0.668266 0.12706435
-0.37533069 -0.32018799 0.39685339 -0.12716986 0.82032698 -0.55757642 0.12314889
-0.3673721 -0.32018799 0.39121255 -0.21263348 0.47143224 -0.85588473 0.11397705
-0.3345668 -0.32018799 0.39114821 -0.25556499 0.30301532 -0.91807854 0.14014156
-0.3238579 -0.32018799 0.3920182 -0.18622935 0.29614368 -0.9368124 0.18305787
-0.31445199 -0.3180677 0.39088699 -0.043031372 0.58996749 -0.8062796 0.2066467
-0.29013801 -0.3099924 0.39528111 0.062627487 -0.98821247 0.13969262 0.18209867
-0.11333141 -0.31992239 0.39215824 0.58172196 0.15837924 -0.79781932 0.05644466
-0.42099884 -0.31294134 0.40696719 -0.097537085 -0.83018696 -0.54888624 0.10964113
-0.39414519 -0.31832734 0.40609252 -0.21292447 0.27486461 -0.93761009 0.11407051
-0.3714509 -0.32018799 0.40036711 -0.2024871 0.43939781 -0.87517339 0.12256555
-0.34353429 -0.32018799 0.40807459 -0.1939725 0.24153097 -0.95080888 0.13103287
-0.32539257 -0.31817067 0.40926087 0.13299957 0.060535703 -0.98926562 0.1668514
-0.31477615 -0.31859568 0.40839198 0.07665658 0.17061892 -0.98235077 0.18296078
-0.30584243 -0.31868723 0.40441525 0.0065870122 0.93034297 -0.36663154 0.19662243
-0.24047492 -0.3200469 0.40404472 0.21257895 -0.97665983 -0.030753663 0.095384136
-0.23730195 -0.32151449 0.40603381 0.19165336 -0.97941464 -0.063371576 0.088785343
-0.10682674 -0.31629479 0.39838165 0.58172196 0.15837924 -0.79781932 0.05644466
-0.098602004 -0.3163709 0.40347421 0.87073743 0.47835806 -0.11397321 0.056418732
-0.081962183 -0.32386401 0.40230897 0.87073743 0.47835806 -0.11397321 0.056418732
-0.40979078 -0.31729832 0.41220614 -0.065463178 -0.97584027 -0.20844749 0.092684604
-0.40951097 -0.31717882 0.41150516 -0.065463178 -0.97584027 -0.20844749 0.092684604
-0.3948352 -0.31958613 0.4177914 -0.19104174 0.55364323 -0.81054437 0.12641168
-0.38473681 -0.32018799 0.41667709 -0.12043406 0.52395463 -0.8431887 0.12701339
-0.37577674 -0.32018799 0.41596237 -0.1806899 0.40249619 -0.89741182 0.12405425
-0.36375511 -0.32018799 0.416026 -0.07950706 0.82388794 -0.56114817 0.13467121
-0.34355035 -0.31862745 0.41383758 -0.19298482 0.23027316 -0.95379829 0.12745364
-0.32575735 -0.31784534 0.41295117 0.13299957 0.060535703 -0.98926562 0.1668514
-0.084279187 -0.31700096 0.41056693 0.87073743 0.47835806 -0.11397321 0.056418732
-0.42793638 -0.32061613 0.42680714 -0.10426049 -0.98894978 -0.1053948 0.0065106913
-0.39853847 -0.32007802 0.42274544 -0.053138614 -0.98939222 -0.13520128 0.075227767
-0.38575879 -0.32018799 0.4217152 -0.13179389 0.52295732 -0.84210807 0.131311
-0.3587361 -0.32018799 0.42224401 -0.13292959 0.32992062 -0.93460262 0.13112083
-0.34734485 -0.31813261 0.42016405 -0.1939725 0.24153097 -0.95080888 0.13103287
-0.33285978 -0.31640589 0.42444417 0.025957793 0.089927785 -0.99560994 0.16106629
-0.2529029 -0.31660751 0.42654723 0.2294755 -0.96392679 -0.13485594 0.10144544
-0.31480864 -0.31770074 0.42985362 0.35641286 0.11691169 -0.92698526 0.19639711
-0.28758782 -0.31730983 0.43045202 0.25995255 -0.91404873 -0.31135124 0.14311425
-0.27939999 -0.31894454 0.43676957 0.28868192 -0.91894466 -0.26870722 0.11196846
-0.26059684 -0.31876302 0.43766135 0.45710158 -0.84326988 -0.28276154 0.14140159
-0.25268254 -0.31896988 0.43872935 0.51271641 -0.8025887 -0.30491486 0.16263169
-0.22257553 -0.31603417 0.43701836 0.87021637 -0.44922909 -0.20227866 0.17713362
-0.29399669 -0.31626007 0.44620758 0.27654389 -0.90782362 -0.31524554 0.12261891
-0.27194196 -0.31991035 0.45506766 0.54153007 -0.69701391 -0.47001776 0.16645512
-0.26509771 -0.31926087 0.4540377 0.47406054 -0.79544479 -0.37753701 0.18992884
-0.25244394 -0.31924209 0.46174875 0.67806435 -0.52441114 -0.51499677 0.17875691
-0.2264322 -0.32018799 0.46828279 0.12839809 -0.91751331 -0.3764084 0.14182657
-0.2514253 -0.32018799 0.4792811 0.63740671 -0.51871246 -0.56978077 0.20244889
-0.24626385 -0.32018799 0.47533935 0.92391467 -0.031968713 -0.38126063 0.19527267
-0.2362493 -0.32018799 0.47798941 0.085083991 -0.93293184 -0.34985554 0.15988171
-0.087445743 -0.32032675 0.47694251 0.69665605 0.70957464 0.1057076 0.027849192
-0.26798439 -0.32018799 0.48861212 -0.030339044 -0.99117285 -0.12905805 0.062351972
-0.25413731 -0.32018799 0.48742709 0.15648025 -0.9317081 -0.32777122 0.10017711
-0.24293475 -0.32018799 0.4860048 0.15648025 -0.9317081 -0.32777122 0.10017711
-0.23987021 -0.32018799 0.48884401 0.15648025 -0.9317081 -0.32777122 0.10017711
-0.094365433 -0.32031995 0.49326822 0.76886904 -0.10908449 0.63003254 0.0067140721
-0.27320549 -0.32018799 0.50213909 -0.12953304 -0.98753577 -0.089410335 0.080876343
-0.22387134 -0.32403186 0.50561911 -0.048996851 -0.99300659 -0.10741153 0.012425564
-0.096179537 -0.31911352 0.49671119 0.76886904 -0.10908449 0.63003254 0.0067140721
-0.1986918 -0.32018799 0.51452208 0.067578882 -0.99756145 -0.017445672 0.017641814
-0.11340355 -0.32017902 0.5184359 0.76886904 -0.10908449 0.63003254 0.0067140721
-0.11785877 -0.31963757 0.5226329 0.76886904 -0.10908449 0.63003254 0.0067140721
-0.12997422 -0.32019413 0.53140914 0.27212131 -0.79550433 0.54140812 0.045096021
-0.37621409 -0.32018799 0.54965383 -0.00018912791 -1 0.00014978572 0
-0.35151169 -0.32018799 0.55995589 -0.00018912791 -1 0.00014978572 0
-0.38328421 -0.32018799 0.56723481 -0.00018912791 -1 0.00014978572 0
-0.35638869 -0.32018799 0.56723821 -0.00018912791 -1 0.00014978572 0
-0.37354371 -0.32018799 0.57357192 -0.00018912791 -1 0.00014978572 0
-0.24305934 -0.32024926 0.5766269 0.33167627 -0.93280113 0.14097129 0.019601855
-0.36402702 -0.32018799 0.58350736 -0.00018912791 -1 0.00014978572 0
-0.234318 -0.31855923 0.60036373 0.93584794 -0.34978741 -0.042865019 0.022155009
-0.2347459 -0.32018799 0.60925412 0.93584794 -0.34978741 -0.042865019 0.022155009
-0.2269505 -0.32018799 0.60865438 0.93584794 -0.34978741 -0.042865019 0.022155009
-0.234024 -0.32018799 0.61241603 0.93584794 -0.34978741 -0.042865019 0.022155009
-0.23508981 -0.32018799 0.62577403 0.93584794 -0.34978741 -0.042865019 0.022155009
-0.2356804 -0.32018799 0.63124448 0.93584794 -0.34978741 -0.042865019 0.022155009
-0.23654136 -0.32018799 0.644216 0.93584794 -0.34978741 -0.042865019 0.022155009
-0.24738957 -0.31854364 0.74123985 -0.19726877 -0.9765147 -0.086625896 0.077838883
-0.2249079 -0.31990969 0.75662494 -0.16775118 -0.94881833 -0.2675882 0.17596298
-0.23086156 -0.31924778 0.76568294 -0.16775118 -0.94881833 -0.2675882 0.17596298
-0.22700892 -0.32054192 0.76605505 -0.16775118 -0.94881833 -0.2675882 0.17596298
-0.1923506 -0.3267574 0.76084018 0.43855253 -0.73679936 -0.51458573 0.21766087
-0.23276316 -0.32718104 0.78830487 -0.16767624 -0.9488079 -0.2676717 0.17595464
-0.21767977 -0.32216483 0.78382683 -0.16754821 -0.94881171 -0.26773876 0.17596135
-0.20621437 -0.32435533 0.78600097 -0.16776179 -0.94884169 -0.26749867 0.17594574
-0.22869377 -0.3241587 0.79641032 -0.16767624 -0.9488079 -0.2676717 0.17595464
-0.21892513 -0.32281893 0.79487956 -0.16776179 -0.94884169 -0.26749867 0.17594574
-0.20850091 -0.32400674 0.78996688 -0.16776179 -0.94884169 -0.26749867 0.17594574
-0.19962944 -0.3279762 0.79392123 -0.16776179 -0.94884169 -0.26749867 0.17594574
-0.19624461 -0.32620987 0.80635798 0.54956222 0.65032262 0.52446336 0.18897091
-0.23135199 -0.32455754 0.81740957 0.16767624 0.9488079 0.2676717 0.17595464
-0.21496473 -0.32960543 0.80443931 -0.16776179 -0.94884169 -0.26749867 0.17594574
-0.18675415 -0.32277235 0.81002009 0.54956222 0.65032262 0.52446336 0.18897091
-0.24246666 -0.32645366 0.82370633 0.20755193 0.93610078 0.28396761 0.11481262
-0.25170764 -0.32017273 0.83044529 0.20755193 0.93610078 0.28396761 0.11481262
-0.41247129 -0.32018799 0.90274519 -4.2044969e-05 -1 4.664404e-05 0
-0.40450269 -0.32018799 0.9053334 -4.2044969e-05 -1 4.664404e-05 0
-0.408223 -0.32018799 0.91958261 -4.2044969e-05 -1 4.664404e-05 0
-0.23057929 -0.32792261 0.92185545 -0.24846213 0.17524736 0.95265681 0.24847586
-0.22194512 -0.33094934 0.91949415 -0.24846213 0.17524736 0.95265681 0.24847586
-0.4108521 -0.32018799 0.9227581 -4.2044969e-05 -1 4.664404e-05 0
-0.40427381 -0.32018799 0.9217158 -4.2044969e-05 -1 4.664404e-05 0
-0.39903414 -0.32018799 0.92620552 -3.0210291e-05 -1 5.7170018e-05 0
-0.4024283 -0.32018799 0.93463719 -3.0210291e-05 -1 5.7170018e-05 0
-0.20857413 -0.31721792 0.93787736 0.99715656 -0.069145925 -0.029961027 0.13367252
-0.20663129 -0.31505266 0.93038929 0.99210536 0.012017997 -0.12482948 0.1137304
-0.422627 -0.32018799 0.94486099 -4.2044969e-05 -1 4.664404e-05 0
-0.4154565 -0.32018799 0.94380808 -4.2044969e-05 -1 4.664404e-05 0
-0.3116498 -0.32018799 0.94806421 0 -1 0 0
-0.2974495 -0.32018799 0.94304287 -0.070937268 -0.99633312 0.047835682 0.0025037152
-0.2249887 -0.32586583 0.94596928 -0.24846213 0.17524736 0.95265681 0.24847586
-0.21198638 -0.32197046 0.94261485 0.99715656 -0.069145925 -0.029961027 0.13367252
-0.20742489 -0.31640109 0.94848788 0.99715656 -0.069145925 -0.029961027 0.13367252
-0.18964586 -0.31663132 0.94496572 0.99210536 0.012017997 -0.12482948 0.1137304
-0.4280414 -0.32018799 0.95292699 -4.2044969e-05 -1 4.664404e-05 0
-0.40229899 -0.32018799 0.95437253 -3.0210291e-05 -1 5.7170018e-05 0
-0.22206846 -0.32424062 0.95891654 -0.24846213 0.17524736 0.95265681 0.24847586
-0.20911291 -0.31907931 0.94585949 0.99715656 -0.069145925 -0.029961027 0.13367252
-0.4345544 -0.32018799 0.96862543 -6.1150262e-05 -1 6.2645563e-06 0
-0.21821003 -0.32232872 0.96571618 0.99715656 -0.069145925 -0.029961027 0.13367252
-0.1123893 -0.32252714 0.96521574 -0.28528124 -0.17239876 0.94281137 0.17190637
-0.098751545 -0.32033488 0.96991926 -0.28528124 -0.17239876 0.94281137 0.17190637
-0.43627095 -0.32018799 0.974738 -0.0001012096 -1 -1.0968855e-05 0
-0.34005976 -0.32018799 0.97227043 0 -1 0 0
-0.31788042 -0.32018799 0.97674727 0 -1 0 0
-0.2356589 -0.32321742 0.97586888 0.30128074 0.21380189 0.92925704 0.2126842
-0.10709368 -0.31922722 0.97196186 -0.28528124 -0.17239876 0.94281137 0.17190637
-0.30406651 -0.32018799 0.98042172 -0.031163106 -0.9993875 -0.015918918 0.0001252778
-0.041394286 -0.32034287 0.99115932 -0.40656254 -0.30068761 0.8627246 0.12686461
-0.20092851 -0.32413721 0.98491043 -0.72400576 0.25700876 0.64012676 0.16373889
-0.076881319 -0.3215183 0.99393666 -0.28101364 -0.18723653 0.94126183 0.15374872
-0.061110187 -0.32122597 1.001372 -0.28101364 -0.18723653 0.94126183 0.15374872
-0.047890015 -0.32118237 0.99464113 -0.37736261 -0.14722912 0.91428721 0.13954237
-0.042248953 -0.32063347 0.99426699 -0.37736261 -0.14722912 0.91428721 0.13954237
-0.10011966 -0.31828338 1.0039358 -0.28528124 -0.17239876 0.94281137 0.17190637
-0.095411211 -0.31909171 1.0079433 -0.2809504 -0.18728563 0.94127095 0.15371534
-0.12755238 -0.32019842 1.0109241 -0.31866241 -0.066251189 0.9455502 0.14363724
-0.064810164 -0.31590754 1.0059347 -0.28101364 -0.18723653 0.94126183 0.15374872
-0.077139184 -0.31279176 1.0105653 -0.28101364 -0.18723653 0.94126183 0.15374872
-0.44592729 -0.32018799 1.033236 0.00025757911 -0.99999994 9.3843773e-05 0
-0.46551591 -0.32018799 1.046393 -0.077768289 -0.99688148 -0.013393869 0.0013328895
-0.45214659 -0.32018799 1.0513901 0.00020032663 -0.99999994 0.00013269843 0
-0.5045737 -0.32018799 1.087665 0.76954055 0.3217316 0.5516305 0.027859956
-0.33021048 -0.31823757 1.0920072 -0.72910589 0.52055764 0.44432461 0.15397999
-0.31637892 -0.31369162 1.1014875 -0.16466609 -0.9530803 0.25401363 0.14836814
-0.23903599 -0.32018799 1.081019 -0.21700564 -0.9733032 -0.07476183 0.036126096
-0.33485451 -0.31924233 1.0954558 -0.68594968 0.59832937 0.4140954 0.17746779
-0.23939 -0.32018799 1.098778 0.097742714 0.12123276 0.98780006 0.18393497
-0.51746678 -0.31307074 1.1052519 0.83000553 0.21991192 0.51257163 0.03015374
-0.35162225 -0.32075152 1.1113503 -0.68594968 0.59832937 0.4140954 0.17746779
-0.33837536 -0.31384864 1.107494 -0.72910589 0.52055764 0.44432461 0.15397999
-0.519867 -0.31742373 1.119902 -0.88040584 -0.18953471 -0.43469781 0.070949674
-0.24289098 -0.32052138 1.1126667 0.21892542 0.066571087 0.97346801 0.1666975
-0.50038981 -0.32018799 1.122908 0.88040584 0.18953471 0.43469781 0.070949674
-0.30216846 -0.32002577 1.1304909 -0.16861869 -0.95139617 0.25770748 0.13187246
-0.30120009 -0.31619477 1.1225277 -0.14096808 -0.97462887 0.17385778 0.12010723
-0.28762797 -0.31473222 1.1309295 -0.14096415 -0.9746514 0.17373455 0.12011139
-0.3207624 -0.32018799 1.1337481 -0.50349504 0.003336515 0.86399168 0.15858072
-0.24610941 -0.32096875 1.1380014 -0.17589964 -0.96655494 0.18663022 0.15506952
-0.22809468 -0.31993237 1.131325 -0.15266171 -0.98533386 -0.076233722 0.038920172
-0.53314149 -0.32018799 1.147036 -0.88040584 -0.18953471 -0.43469781 0.070949674
-0.31047773 -0.31900534 1.1402428 -0.28326884 -0.81009167 0.51333255 0.16396978
-0.25518009 -0.32135662 1.1449549 0.39586723 0.51582211 0.75974774 0.16476288
-0.3309947 -0.32018799 1.168825 -0.26347858 -0.82476431 0.50034267 0.14957741
-0.076682478 -0.32018799 1.337334 nan nan nan nan
-0.07054247 -0.32018799 1.463737 -0.00046773101 -0.99999976 -0.00048513702 0
-0.097229108 -0.32018799 1.487283 -0.00046773101 -0.99999976 -0.00048513702 0
-0.085442923 -0.32018799 1.493956 -0.00046773101 -0.99999976 -0.00048513702 0
-0.2441528 -0.34498301 0.57702959 0.14179431 -0.98182172 0.12617634 0.023762221
-0.1986918 -0.33776641 0.51452208 0.012863263 -0.99193519 -0.12609132 0.015048473
-0.30404627 -0.28058833 1.1425327 -0.33069283 0.069009669 0.94121194 0.13214028
-0.34421399 -0.29867446 1.1033452 -0.72910589 0.52055764 0.44432461 0.15397999
-0.30863899 -0.26772371 1.145368 -0.44858107 0.044374183 0.89263988 0.11781185
-0.23900816 0.023333628 0.64377689 -0.94409931 0.28064215 -0.17296392 0.00015054677
-0.33756962 -0.29568547 1.0915164 -0.68126458 0.096731313 0.725618 0.11361147
-0.2307777 0.025158269 0.76546139 0.31517106 0.9451766 -0.085488327 6.8524387e-05
-0.2269651 0.02394535 0.76609528 0.31517106 0.9451766 -0.085488327 6.8524387e-05
-0.10003424 -0.37420484 1.0038471 -0.1866149 0.12377451 0.9746049 0.15995125
-0.21523812 -0.3715322 0.96728182 0.9989354 -0.028157135 -0.036541786 0.14799429
-0.099174336 -0.32824171 1.0072492 -0.2809504 -0.18728563 0.94127095 0.15371534
-0.33327016 -0.29249868 1.0873389 -0.68126458 0.096731313 0.725618 0.11361147
-0.2249333 0.02240387 0.75659579 0.31517106 0.9451766 -0.085488327 6.8524387e-05
-0.23369341 0.020467017 0.60942954 -0.94409931 0.28064215 -0.17296392 0.00015054677
-0.30312479 -0.22628631 1.128525 0.37038648 0.13028158 0.91969585 0.018067632
-0.074706055 -0.29861194 1.0200475 -0.27549449 -0.48840073 0.82799011 0.15891476
-0.0607806 -0.29378253 1.0162631 -0.23002368 -0.40071651 0.88685709 0.16167067
-0.11175837 -0.30302948 0.97311908 -0.34266961 -0.066906951 0.93707043 0.17694658
-0.05903976 -0.2906048 1.0138582 -0.18290263 -0.68620718 0.70403576 0.14837268
-0.20402774 -0.2835848 0.93819392 0.80946761 -0.58705086 0.011549873 0.13412733
-0.21195494 -0.36431155 0.94181496 0.9989354 -0.028157135 -0.036541786 0.14799429
-0.094540663 -0.30604199 0.49526942 0.76886904 -0.10908449 0.63003254 0.0067140721
-0.2433386 -0.3735708 0.9715414 -0.9947843 -0.071010493 0.07322409 0.12991895
-0.098604538 -0.30209905 0.40354982 0.87073743 0.47835806 -0.11397321 0.056418732
-0.092367545 -0.30081534 0.49267808 0.76886904 -0.10908449 0.63003254 0.0067140721
-0.12989204 -0.29769927 0.53156269 0.24710912 -0.81804311 0.51936746 0.064806432
-0.1164741 -0.29217255 0.52348959 0.76886904 -0.10908449 0.63003254 0.0067140721
-0.095491089 -0.30296326 0.49690631 0.76886904 -0.10908449 0.63003254 0.0067140721
-0.099081822 -0.32030082 0.96982956 -0.28528124 -0.17239876 0.94281137 0.17190637
-0.11288524 -0.29301614 0.51891142 0.76886904 -0.10908449 0.63003254 0.0067140721
-0.19082826 -0.36824772 0.94108444 0.9989354 -0.028157135 -0.036541786 0.14799429
-0.22848386 -0.37799013 0.9181211 0.99661231 0.013767732 0.081082709 0.15030117
-0.075127423 -0.36781085 0.99821657 -0.26675561 -0.14844185 0.95226383 0.16167271
-0.2049575 -0.37548935 0.95001584 0.9989354 -0.028157135 -0.036541786 0.14799429
-0.22433028 -0.3422125 0.91715318 0.99714416 -0.069142818 -0.030376457 0.13369332
-0.21733919 -0.34164545 0.94749081 0.99714416 -0.069142818 -0.030376457 0.13369332
-0.2092545 -0.3573271 0.99291492 0.9989354 -0.028157135 -0.036541786 0.14799429
-0.11143766 -0.33192882 0.96042085 -0.23108737 0.10565437 0.9671793 0.18472487
-0.092907898 -0.35928398 1.0039196 -0.28102273 -0.18746242 0.94121414 0.15376921
-0.20826104 -0.34196606 0.94032866 0.99714416 -0.069142818 -0.030376457 0.13369332
-0.062743098 -0.33950916 0.99703193 -0.28096741 -0.18720868 0.94128114 0.15372185
-0.22434601 -0.33311194 0.95717674 -0.24846213 0.17524736 0.95265681 0.24847586
-0.087085344 -0.3238194 0.47702062 0.69665605 0.70957464 0.1057076 0.027849192
-0.25177267 -0.32363889 0.83035338 0.20755193 0.93610078 0.28396761 0.11481262
-0.30423659 -0.21788171 1.1228107 0.37038648 0.13028158 0.91969585 0.018067632
-0.28680998 -0.29460418 1.1220757 -0.12247425 -0.07705567 0.98947585 0.15711749
-0.050355781 -0.38203341 0.99116522 0.26901779 -0.10679119 0.95719647 0.010499124
-0.18967521 -0.32733056 0.761213 0.43855253 -0.73679936 -0.51458573 0.21766087
-0.084100388 -0.31835014 0.40966314 0.87073743 0.47835806 -0.11397321 0.056418732
-0.042107545 -0.34780499 0.98980922 -0.33717373 -0.17927696 0.92421514 0.14547643
-0.043437071 -0.3332333 0.99118441 -0.37736261 -0.14722912 0.91428721 0.13954237
-0.20277165 -0.38874876 0.95520407 0.9989354 -0.028157135 -0.036541786 0.14799429
-0.080920316 -0.32455549 0.40133259 0.87073743 0.47835806 -0.11397321 0.056418732
-0.3207624 -0.20187309 1.1337481 0.58930504 0.26678014 0.76259297 0.0014280874
-0.28628033 -0.26345617 1.1285284 -0.25250027 -0.103786 0.96201462 0.099837206
-0.25136372 -0.31507334 0.43520162 0.51282316 -0.80185688 -0.30665591 0.15696347
-0.26775554 -0.26598766 0.45048541 0.72050929 0.25972059 -0.6429708 0.13252419
-0.2362413 0.032776576 0.64424384 -0.94409931 0.28064215 -0.17296392 0.00015054677
-0.25519547 -0.32136506 1.1451199 0.39586723 0.51582211 0.75974774 0.16476288
-0.22652555 0.024711937 0.46832711 0.11284086 0.99047399 -0.078918956 0.00028237398
-0.2235083 0.026908709 0.50592536 0.11284086 0.99047399 -0.078918956 0.00028237398
-0.30786124 -0.19750547 0.94947737 0.80623591 0.59060919 0.034123275 0.0081951683
-0.24290951 -0.24148419 1.1126699 0.45191646 0.070356287 0.88928145 0.016473657
-0.2080012 -0.2607646 0.79027301 0.39384991 0.91865104 0.031025155 0.24455376
-0.21597828 -0.32431605 0.78528631 -0.16754821 -0.94881171 -0.26773876 0.17596135
-0.23804331 -0.32637435 0.78929561 -0.16767624 -0.9488079 -0.2676717 0.17595464
-0.11019066 -0.27710259 0.38014409 0.81818861 0.30587348 -0.48683557 0.037844796
-0.19269286 -0.33302292 0.79686403 0.23710363 0.92095959 0.30921733 0.19349596
-0.12174798 -0.27534273 0.39658201 0.58172196 0.15837924 -0.79781932 0.05644466
-0.21269417 -0.35977644 0.81048 -0.23823495 -0.93652153 -0.25723824 0.09684816
-0.23028561 -0.33436531 0.81861603 -0.23823081 -0.936499 -0.25732407 0.096864551
-0.22762845 -0.32309121 0.79693371 -0.16767624 -0.9488079 -0.2676717 0.17595464
-0.20663163 -0.32425791 0.78606987 -0.16776179 -0.94884169 -0.26749867 0.17594574
-0.25124231 -0.3098807 0.74451011 -0.88694382 0.26962379 0.3750115 0.2604275
-0.24858885 0.027586596 0.47104216 0.11284086 0.99047399 -0.078918956 0.00028237398
-0.41613486 -0.20752792 0.94348037 0.87034351 -0.21451996 0.44326439 0.013344429
-0.46251461 -0.1053219 1.083606 -0.43365791 0.89977181 -0.048492115 0
-0.23371264 0.03212909 0.62906939 -0.94409931 0.28064215 -0.17296392 0.00015054677
-0.24021186 0.028421272 0.48595709 0.11284086 0.99047399 -0.078918956 0.00028237398
-0.25174612 0.028657665 0.47958502 0.11284086 0.99047399 -0.078918956 0.00028237398
-0.31555942 -0.14891556 0.39208975 -0.22746806 0.80128109 -0.55335963 0.090730622
-0.4383136 -0.16993548 0.97823644 0.85745633 -0.21222782 0.46875155 0.011374747
-0.29744354 -0.20143887 0.94304627 0.80623591 0.59060919 0.034123275 0.0081951683
-0.39842224 -0.14272258 0.92805135 -0.8586483 0.2520974 -0.44628462 0.018949851
-0.25770602 -0.24299346 0.46041268 0.88101918 0.16880213 -0.44194016 0.094723523
-0.22497682 -0.29854199 0.32831436 -0.15426888 0.87742907 -0.45422384 0.070691198
-0.43600157 -0.20238158 0.97407448 -0.87191832 0.21031214 -0.44218457 0.0161926
-0.21074489 -0.30576181 0.32168239 -0.23779844 0.60889292 -0.75677037 0.085586689
-0.22034343 -0.302513 0.32411712 -0.23776126 0.6089828 -0.75670969 0.085612707
-0.26947162 -0.20181404 0.49064738 0.94020146 0.11853691 -0.31932771 0.095350243
-0.24294108 -0.30429488 0.33268389 0.045141298 -0.9939968 0.099662073 0.077480689
-0.37621409 -0.0056637968 0.54965383 -0.94458199 0.32017496 0.072476447 0.03798857
-0.36344987 0.03142539 0.58592033 -0.94458199 0.32017496 0.072476447 0.03798857
-0.35536945 0.038335621 0.56683308 -0.94458199 0.32017496 0.072476447 0.03798857
-0.25294766 -0.21211684 0.47444272 0.91183448 0.27476361 -0.30506217 0.099237435
-0.30949274 -0.25538257 0.40545353 0.25419852 0.26072752 -0.9313454 0.16105963
-0.3295348 -0.24629435 0.41376036 -0.069195762 -0.10429594 -0.99213624 0.097890832
-0.41269991 -0.20468239 0.92216033 -0.87034351 0.21451996 -0.44326439 0.013344429
-0.28290629 -0.23918848 0.38942328 0.74120253 0.66120404 -0.11587921 0.1746953
-0.29403165 -0.28442633 0.39605021 -0.19316328 0.40135974 -0.89532024 0.22690767
-0.26280969 -0.30736634 0.31500784 -0.0038808943 -0.99105674 0.13338459 0.044665575
-0.32862076 -0.24204849 0.41236195 -0.05325019 -0.23640382 -0.97019464 0.07560131
-0.21420006 -0.30431786 0.3180953 -0.23779844 0.60889292 -0.75677037 0.085586689
-0.17817537 -0.30714378 0.31778872 -0.27893034 0.22769539 -0.93292689 0.038681678
-0.19841145 -0.3111493 0.31747234 -0.23779844 0.60889292 -0.75677037 0.085586689
-0.31104046 -0.1637089 0.37373173 -0.34638184 0.71378297 -0.60871458 0.18140921
-0.2753813 -0.20941393 0.49643561 -0.83453798 0.34639114 -0.4284384 0.063319787
-0.40976065 -0.18483463 0.41164672 -0.33622381 -0.47497377 -0.81323642 0.006686531
-0.35226208 0.040859528 0.56025416 -0.94458199 0.32017496 0.072476447 0.03798857
-0.37557596 -0.0028492308 0.5640291 -0.94458199 0.32017496 0.072476447 0.03798857
-0.31151509 -0.15219961 0.38612306 -0.22746806 0.80128109 -0.55335963 0.090730622
-0.31098583 -0.15957195 0.3769137 -0.34638184 0.71378297 -0.60871458 0.18140921
-0.29125297 -0.30006707 0.37154618 -0.17107308 0.95561159 -0.23987636 0.15212895
-0.24850294 -0.30292869 0.33450708 0.058812462 -0.9911164 0.11928675 0.06428045
-0.24814446 -0.28926581 0.3457509 -0.11405289 0.96124572 -0.25099531 0.092783384
-0.3714509 -0.26842329 0.40036711 -0.18409356 0.17337495 -0.96749711 0.041542277
-0.21946923 -0.30257654 0.32381383 -0.23776126 0.6089828 -0.75670969 0.085612707
-0.25669605 -0.24196564 0.45878991 0.81018031 0.24182676 -0.53397346 0.098392293
-0.2358875 -0.2820687 0.34402049 -0.05571828 0.97453815 -0.21718854 0.09921284
-0.24700327 -0.310707 0.33119342 0.056374874 -0.99307412 0.10308097 0.06067038
-0.25424147 -0.27567795 0.35153165 -0.25960425 0.88525945 -0.38590336 0.10221112
-0.2603482 -0.25807893 0.43629128 0.62665337 0.3230426 -0.70918906 0.10124476
-0.32056358 -0.15654263 0.38433248 0.10840619 -0.27073053 -0.95653176 0.2128471
-0.3340674 -0.15197015 0.39249289 -0.17718989 0.055487324 -0.98261124 0.19207661
-0.23420067 -0.30351552 0.32834578 0.029826231 -0.99155235 0.126231 0.07946904
-0.25480375 -0.20342119 0.48593733 0.9493708 0.13642345 -0.28299084 0.084934272
-0.24730863 -0.20253609 0.48156485 0.94943273 0.1363651 -0.28281102 0.084946826
-0.25800103 -0.25136337 0.43976557 0.61458153 0.31010091 -0.72534609 0.1073201
-0.31310603 -0.31191456 0.26559311 0.79370534 -0.22072205 -0.56684524 0.035452738
-0.3458122 -0.25601891 0.41147694 -0.19959545 0.10749321 -0.97396451 0.065581188
-0.36786547 -0.17230012 0.392189 -0.34513816 -0.12633041 -0.93001091 0.071023688
-0.39758378 -0.21137448 0.42180398 -0.31390798 -0.37077224 -0.8740651 0.025886923
-0.31102541 -0.18152127 0.35990545 0.13595021 -0.26159692 -0.95555454 0.14190021
-0.30806029 -0.17036779 0.36583132 0.097876467 0.069435775 -0.99277329 0.18889332
-0.34234425 -0.22401048 0.41205701 -0.29851732 -0.32039627 -0.89901817 0.030640075
-0.3337445 -0.18687896 0.37251437 -0.15779535 -0.29878756 -0.94118357 0.071309574
-0.34891295 -0.18260901 0.38027996 -0.24477655 -0.29807103 -0.92262566 0.045097079
-0.33739507 -0.1838752 0.37469506 -0.17107634 -0.30669919 -0.93630576 0.077407174
-0.34610355 -0.1789799 0.38063157 -0.18940578 -0.32051849 -0.92811286 0.075208917
-0.42581671 -0.19988397 0.95405525 -0.87034351 0.21451996 -0.44326439 0.013344429
-0.41037333 -0.20265077 0.91873866 -0.87034351 0.21451996 -0.44326439 0.013344429
-0.23609319 -0.20378427 0.47837946 -0.84404022 0.34660915 -0.40921646 0.053354166
-0.31776166 -0.16529608 0.3757135 0.10840619 -0.27073053 -0.95653176 0.2128471
-0.32135987 -0.14967057 0.38942879 -0.22746806 0.80128109 -0.55335963 0.090730622
-0.27167994 0.028457828 0.45473149 0.0826611 0.99363989 -0.076464459 0.0001680297
-0.18877631 -0.27844074 0.32476941 -0.2827352 0.40937611 -0.86745137 0.052460697
-0.2380418 -0.29750201 0.40780082 0.66036081 -0.75024933 0.03239657 0.15153275
-0.26545545 -0.20186149 0.48890546 0.94020146 0.11853691 -0.31932771 0.095350243
-0.4024345 -0.14083895 0.95434844 -0.87469137 0.23790027 -0.42227781 0.014486209
-0.5045737 -0.21292029 1.087665 nan nan nan nan
-0.40198976 -0.14952996 0.93471509 -0.87469137 0.23790027 -0.42227781 0.014486209
-0.25192237 -0.18390281 0.46251494 0.93908888 0.17596748 -0.29520765 0.10508516
-0.31785926 -0.18131958 0.97567737 0.80623591 0.59060919 0.034123275 0.0081951683
-0.24044944 -0.28420559 0.40126973 0.61147547 0.79125261 0.0041370732 0.16006884
-0.18791056 -0.27595922 0.32294494 -0.2827352 0.40937611 -0.86745137 0.052460697
-0.32189101 -0.24963737 0.41213214 0.21850577 0.038113613 -0.9750911 0.13370711
-0.2515153 -0.18356834 0.46197852 0.93908888 0.17596748 -0.29520765 0.10508516
-0.31782088 -0.18144536 0.97542906 0.80623591 0.59060919 0.034123275 0.0081951683
-0.24035375 -0.28420419 0.40201235 0.64242971 0.76634181 0.0021055525 0.16397443
-0.18777435 -0.27626777 0.32288939 -0.2827352 0.40937611 -0.86745137 0.052460697
-0.3177847 -0.18091018 0.97804636 0.80623591 0.59060919 0.034123275 0.0081951683
-0.32344294 -0.24983478 0.41266572 0.084643923 0.014398317 -0.99630719 0.12905687
-0.32770389 -0.24040963 0.41161725 -0.064761572 -0.2771304 -0.95864731 0.080331378
-0.15251902 -0.28065604 0.31581107 0.11510159 0.46706778 -0.87669796 0.10046227
-0.16500592 -0.30634913 0.3159104 -0.23982662 0.11611328 -0.96384692 0.046018731
-0.1771936 -0.30409139 0.31821513 -0.26358479 0.23992784 -0.93432206 0.037342153
-0.22810157 0.031859729 0.60032439 -0.94409931 0.28064215 -0.17296392 0.00015054677
-0.23005965 0.032715794 0.60813612 -0.94409931 0.28064215 -0.17296392 0.00015054677
-0.43452859 -0.16558731 0.9686352 -0.87469137 0.23790027 -0.42227781 0.014486209
-0.306766 -0.15387967 0.40279558 -0.34637865 0.71376467 -0.60873789 0.18141474
-0.40910417 -0.1894528 0.90247178 -0.87929893 0.22343004 -0.42060953 0.012827693
-0.39974019 -0.14836787 0.92434299 -0.86668891 0.2449898 -0.43454611 0.017142273
-0.30290407 -0.20389923 0.9804011 0.80623591 0.59060919 0.034123275 0.0081951683
-0.45101225 -0.10148278 1.0517216 -0.43365791 0.89977181 -0.048492115 0
-0.30902085 -0.1958994 0.94653726 0.80623591 0.59060919 0.034123275 0.0081951683
-0.40444005 -0.22683999 0.90533459 -0.91276264 0.07500314 -0.40154561 0.0099312691
-0.40414724 -0.16335897 0.92171538 -0.87032074 0.21450619 -0.44331574 0.013320734
-0.28775403 -0.16567591 0.43058273 0.73168117 -0.31764007 -0.60311484 0.042776886
-0.31269383 -0.16419576 0.3734237 0.10840619 -0.27073053 -0.95653176 0.2128471
-0.23577094 0.026043428 0.6312294 -0.94409931 0.28064215 -0.17296392 0.00015054677
-0.32322621 -0.14519668 0.39105156 -0.22746806 0.80128109 -0.55335963 0.090730622
-0.31108183 -0.15902035 0.37740567 -0.22746369 0.80126566 -0.55338377 0.090733737
-0.34095916 0.030191272 0.41514298 0.0068298317 0.99857301 -0.052965265 0.00093333767
-0.36352703 -0.1692138 0.39157155 -0.34513816 -0.12633041 -0.93001091 0.071023688
-0.32464603 -0.15419844 0.38792306 -0.17764363 0.056204058 -0.98248857 0.19205847
-0.34170869 -0.17614108 0.37938115 -0.18940578 -0.32051849 -0.92811286 0.075208917
-0.3752754 0.024943061 0.39707354 -0.054746244 0.9831239 -0.17455731 3.123366e-05
-0.32686535 -0.23931567 0.41103789 -0.133606 -0.3655197 -0.92116493 0.086844996
-0.32257608 -0.24898155 0.41215473 0.16999249 0.025922373 -0.98510438 0.12441898
-0.31804228 -0.18049657 0.97783452 0.80623591 0.59060919 0.034123275 0.0081951683
-0.36302444 0.028644828 0.41517749 -0.054746244 0.9831239 -0.17455731 3.123366e-05
-0.37532577 0.02804146 0.4148142 -0.054746244 0.9831239 -0.17455731 3.123366e-05
-0.36440092 0.028940074 0.41721243 -0.054746244 0.9831239 -0.17455731 3.123366e-05
-0.373555 0.027821623 0.41311172 -0.054746244 0.9831239 -0.17455731 3.123366e-05
-0.29004669 -0.29511094 0.36967206 -0.54327011 0.34600967 -0.7649411 0.16829592
-0.38397259 -0.16925745 0.39918527 -0.29303229 -0.21539648 -0.93152374 0.055282962
-0.41025937 -0.18372852 0.41123873 -0.33622381 -0.47497377 -0.81323642 0.006686531
-0.38471809 0.027923308 0.41673636 -0.054746244 0.9831239 -0.17455731 3.123366e-05
-0.3993468 0.028331364 0.42379835 -0.054746244 0.9831239 -0.17455731 3.123366e-05
-0.38818288 0.028833872 0.42275366 -0.054746244 0.9831239 -0.17455731 3.123366e-05
-0.39458364 -0.20829293 0.4198842 -0.33065876 -0.38341504 -0.86235589 0.026335891
-0.36590374 -0.16930304 0.39254749 -0.34513816 -0.12633041 -0.93001091 0.071023688
-0.3946557 -0.1795612 0.40475303 -0.35758042 -0.39023125 -0.84844321 0.035649292
-0.33018455 -0.29812247 0.23248421 0.91032809 0.19389822 -0.36565861 0.016809599
-0.32702348 -0.29808515 0.2213732 0.91032809 0.19389822 -0.36565861 0.016809599
-0.4243533 -0.3091037 0.4003866 -0.22559093 -0.61551881 -0.75514597 0.12866455
-0.39902282 -0.20923916 0.42103863 -0.31390798 -0.37077224 -0.8740651 0.025886923
-0.34839115 -0.18071721 0.3807314 -0.19034363 -0.31901026 -0.92844045 0.072236858
-0.34610403 -0.17660412 0.3812767 -0.18940578 -0.32051849 -0.92811286 0.075208917
-0.33134735 -0.1844309 0.37176806 -0.14612682 -0.30648595 -0.94059199 0.080402277
-0.33147091 -0.1813722 0.37305164 -0.14612682 -0.30648595 -0.94059199 0.080402277
-0.37903675 -0.21327811 0.41806403 -0.3508552 -0.41990668 -0.83700603 0.022116367
-0.38320529 -0.21379977 0.4208408 -0.35074612 -0.41996762 -0.83702117 0.023115892
-0.36013433 -0.22439322 0.41649464 -0.35139072 -0.41962722 -0.83692145 0.021198351
-0.33383983 -0.29801783 0.24533089 0.91032809 0.19389822 -0.36565861 0.016809599
-0.32730702 -0.30201733 0.24310647 0.91032809 0.19389822 -0.36565861 0.016809599
-0.32436341 -0.30445227 0.24920665 0.91032809 0.19389822 -0.36565861 0.016809599
-0.31303477 -0.30993551 0.26609564 0.79370534 -0.22072205 -0.56684524 0.035452738
-0.34719509 -0.25598192 0.41173375 -0.18087141 0.1044989 -0.97793943 0.063844867
-0.3070173 -0.30865791 0.28419787 0.23245691 0.95500439 -0.18420199 0.021673366
-0.30767521 -0.3104265 0.27976647 0.67196769 -0.49874052 -0.54746449 0.022827717
-0.23046346 -0.30511293 0.32518619 -0.15991282 0.85828179 -0.48762712 0.071578637
-0.17774874 -0.30504644 0.31808472 -0.26358479 0.23992784 -0.93432206 0.037342153
-0.32677975 -0.23978865 0.41112557 -0.12530254 -0.33472437 -0.93394798 0.086526312
-0.21876772 -0.32838222 0.80225497 -0.16776179 -0.94884169 -0.26749867 0.17594574
-0.23617236 -0.33858261 0.82697994 -0.20755193 -0.93610078 -0.28396761 0.11481262
-0.22255559 -0.27404529 0.43622461 0.99258327 0.065193161 0.10260663 0.10324255
-0.21828675 -0.29010618 0.79170966 0.16785175 0.94884801 0.26741958 0.17593507
-0.19808039 -0.33458716 0.81117666 0.54956222 0.65032262 0.52446336 0.18897091
-0.2332738 0.033626396 0.62894344 -0.94409931 0.28064215 -0.17296392 0.00015054677
-0.24089745 -0.20935106 0.48654768 -0.84404022 0.34660915 -0.40921646 0.053354166
-0.23227511 0.032831714 0.62162155 -0.94409931 0.28064215 -0.17296392 0.00015054677
-0.32381991 -0.14407206 0.39197761 -0.22746806 0.80128109 -0.55335963 0.090730622
-0.31721908 -0.16419712 0.37630576 0.10840619 -0.27073053 -0.95653176 0.2128471
-0.10762355 -0.28833228 0.40164232 0.58172196 0.15837924 -0.79781932 0.05644466
-0.46252251 -0.1050097 1.089082 -0.43365791 0.89977181 -0.048492115 0
-0.36826396 0.025519969 0.57533127 -0.94458199 0.32017496 0.072476447 0.03798857
-0.53314149 -0.30882409 1.147036 -0.88040584 -0.18953471 -0.43469781 0.070949674
-0.51774651 -0.28748879 1.1190565 -0.88040584 -0.18953471 -0.43469781 0.070949674
-0.36485729 -0.01025688 0.581195 -0.94458199 0.32017496 0.072476447 0.03798857
-0.31727996 -0.24544451 0.40836021 0.40601608 0.044589553 -0.91277742 0.117436
-0.32505274 -0.23761041 0.40995112 -0.20637023 -0.50936711 -0.83543789 0.084027514
-0.43623742 -0.20169391 0.9744671 -0.87576199 0.23472919 -0.42183301 0.018153124
-0.43492466 -0.20102002 0.97198302 -0.87224013 0.20958826 -0.44189361 0.014615079
-0.31416845 -0.16446052 0.37442181 0.10840619 -0.27073053 -0.95653176 0.2128471
-0.30525568 -0.15230414 0.40856814 -0.2412381 0.80473185 -0.54241204 0.10459224
-0.23753652 -0.28369275 0.38118106 -0.26930806 0.94612628 -0.17977281 0.10733496
-0.21599701 -0.29890147 0.32148337 -0.23776126 0.6089828 -0.75670969 0.085612707
-0.2875658 -0.30427614 0.36970371 0.10200687 -0.99096763 0.08705046 0.13616589
-0.23877124 -0.30198792 0.33344141 0.035164919 -0.99338758 0.1092914 0.07771863
-0.2691159 -0.29721713 0.35012701 -0.18023178 0.97395873 -0.13755304 0.069918588
-0.34355062 -0.22552302 0.4128249 -0.31923535 -0.34118193 -0.88412875 0.024968294
-0.31285095 -0.25566143 0.40748069 0.30678695 0.26166421 -0.91510308 0.1332673
-0.31532112 -0.31644857 0.43288788 0.44634357 0.033803914 -0.89422297 0.18984102
-0.33528563 -0.25230387 0.41735885 -0.058759965 0.14656052 -0.98745489 0.091715991
-0.23037179 -0.28472441 0.34915382 -0.039053429 0.99220955 -0.11830104 0.075452462
-0.2415181 -0.28656131 0.35469392 -0.015522097 0.99223453 -0.12340881 0.095310181
-0.26039192 -0.29803613 0.34624362 -0.21954417 0.95890105 -0.17974786 0.077600092
-0.25629821 -0.25984913 0.42952573 0.69316417 0.40193895 -0.59830463 0.13374554
-0.42389706 -0.1984612 0.94424742 -0.87034351 0.21451996 -0.44326439 0.013344429
