# .PCD v0.7 - Point Cloud Data file format
VERSION 0.7
FIELDS x y z
SIZE 4 4 4
TYPE F F F
COUNT 1 1 1
WIDTH 328
HEIGHT 1
VIEWPOINT 0 0 0 1 0 0 0
POINTS 328
DATA ascii
-0.56950688 -0.4778834 1.48654
-0.4324047 -0.94240558 1.485257
-0.43088529 -0.90859091 1.377666
-0.63574439 -0.96219468 1.368391
-0.55235618 -0.9968555 1.4222569
-0.72348273 -0.98599797 1.450071
-0.076682478 -0.87332249 1.337334
-0.07054247 -0.84151387 1.463737
-0.085442923 -0.83925879 1.493956
-0.1158315 -0.88911247 1.2726589
-0.1032393 -0.80122799 1.328728
-0.097229108 -0.79648721 1.487283
0.02660148 -0.95748401 1.447264
-0.25264251 -0.90834153 1.373033
-0.064442918 -0.90237558 1.301335
-0.36345431 -0.83011281 1.481302
-0.1342034 -0.78193438 1.411216
-0.30850869 -0.8208493 1.2484961
-0.70053762 -0.4105362 1.347509
-0.3215864 -0.2404144 1.203688
-0.25052759 -0.3888258 1.007764
-0.23939 -0.36601949 1.098778
-0.2441528 -0.34498301 0.57702959
-0.3309947 -0.2307177 1.168825
-0.370886 -0.2127544 1.15853
-0.22808149 -0.45353511 1.131321
-0.1986918 -0.33776641 0.51452208
-0.4015063 -0.36021221 1.244485
-0.4975481 -0.25239351 1.29975
-0.4732489 -0.25666839 1.261757
-0.30378219 -0.28060439 1.142797
-0.3414425 -0.29887071 1.104941
-0.30863899 -0.26772371 1.145368
0.1101964 -0.60166651 0.89058071
-0.23823801 -0.2280422 0.62393838
-0.2375458 0.022891421 0.64405447
-0.33749679 -0.29565939 1.091622
-0.2307777 0.025158269 0.76546139
-0.2269651 0.02394535 0.76609528
-0.41737351 -0.1746313 1.118845
-0.48100239 -0.18639269 1.205026
-0.55049181 -0.26486221 1.288322
-0.1000214 -0.37421969 1.003865
-0.21874531 -0.3753207 0.96541798
-0.099367879 -0.33007789 1.006635
-0.234024 -0.2233855 0.61241603
-0.33566019 -0.29339051 1.0841
-0.2249333 0.02240387 0.75659579
-0.2347459 0.02076073 0.60925412
-0.3552441 -0.2058291 1.1089931
-0.30312479 -0.22628631 1.128525
-0.074114934 -0.3006461 1.0228
-0.06153867 -0.29325941 1.015383
-0.1132002 -0.30348331 0.97354639
-0.060611989 -0.2898533 1.012723
-0.3092359 -0.216711 1.087504
-0.2039721 -0.28358379 0.93821257
-0.21474829 -0.3648895 0.94241369
-0.1109895 -0.35604599 0.89099288
-0.09914273 -0.30570519 0.49208939
-0.2433386 -0.3735708 0.9715414
-0.1022909 -0.3024396 0.40937489
-0.09107545 -0.30090991 0.49357089
-0.1303478 -0.29769179 0.53071117
-0.113394 -0.29222649 0.52741712
-0.090124473 -0.30314109 0.50027812
-0.098737448 -0.31671309 0.96992308
-0.1130879 -0.29300591 0.51872689
-0.18817469 -0.36528751 0.94720799
-0.2288218 -0.37790689 0.91836751
-0.076824367 -0.36700061 0.99313682
-0.20266999 -0.38194501 0.94817239
-0.055269621 -0.32669619 0.56688088
-0.2194999 -0.34284729 0.91464132
-0.2257688 -0.34211409 0.94475508
-0.2092545 -0.3573271 0.99291492
-0.1275014 -0.38905621 1.011238
-0.1115135 -0.33213139 0.96080297
-0.091297932 -0.35999921 1.009353
-0.039964531 -0.32321769 0.46708509
-0.1986742 -0.34174499 0.93096888
-0.061643641 -0.34020251 0.99940407
-0.2230818 -0.33432809 0.95835203
-0.086161382 -0.32371959 0.47722089
-0.25143611 -0.32365781 0.83082902
-0.29859409 -0.2124719 1.122463
-0.28723979 -0.2945208 1.121693
-0.050355781 -0.38203341 0.99116522
-0.19097 -0.33349171 0.76103258
-0.085184917 -0.32216629 0.41514531
-0.042402469 -0.34771529 0.98864198
-0.042696189 -0.33334711 0.9930343
-0.2039399 -0.38984069 0.95246488
-0.1722047 -0.4022499 1.003058
-0.080663271 -0.32382801 0.40109169
-0.3207624 -0.20187309 1.1337481
-0.28595129 -0.26353589 1.128899
-0.25268069 -0.30329439 0.4387224
-0.34002319 -0.2784715 0.97440177
-0.2678898 -0.26592311 0.45045131
-0.34009629 -0.27839121 0.97013909
-0.2355369 0.032563571 0.64437753
-0.2551856 -0.3234556 1.145014
-0.2264322 0.025267011 0.46828279
-0.2233898 0.02753276 0.50588453
-0.27493349 -0.16720439 1.284857
-0.18923099 -0.2694658 0.81305361
-0.31170201 -0.2001539 0.9495455
-0.24290951 -0.24148419 1.1126699
-0.2080012 -0.2607646 0.79027301
-0.1095341 -0.3335987 0.8211056
-0.2172752 -0.33503351 0.78408593
-0.2368484 -0.333318 0.78822708
-0.1101637 -0.27707431 0.38016
-0.1945159 -0.33831069 0.79484898
-0.1223208 -0.27594379 0.3962436
-0.2100732 -0.35939389 0.81617582
-0.2322776 -0.33688581 0.81688958
-0.2290273 -0.31581229 0.79746193
-0.2052673 -0.3182545 0.78584462
-0.2495386 -0.30857709 0.74306399
-0.2485891 0.02758415 0.47104251
-0.4154565 -0.20697489 0.94380808
-0.46251461 -0.1053219 1.083606
-0.23468859 0.032401439 0.62890673
-0.31459391 0.02989478 0.70997387
-0.2405059 0.02667276 0.48609671
-0.2514253 0.031714499 0.4792811
-0.3142401 -0.14658859 0.39068231
-0.4381302 -0.16993169 0.97831452
-0.2974495 -0.2014652 0.94304287
-0.39814201 -0.1428207 0.92810112
-0.25354829 -0.24550851 0.46140739
-0.46551591 -0.1376504 1.046393
-0.22700579 -0.29287779 0.32109579
-0.43714339 -0.2024224 0.97346002
-0.2117649 -0.30654129 0.3149423
-0.22174069 -0.3012214 0.31981921
-0.26999429 -0.20316 0.48947901
-0.2412238 -0.30628809 0.33571029
-0.37621409 -0.0056637968 0.54965383
-0.36319679 0.030851601 0.58581972
-0.35638869 0.040646538 0.56723821
-0.2947695 -0.1709027 0.44610989
-0.2439386 -0.214702 0.47963619
-0.30992141 -0.25544989 0.4046025
-0.32990199 -0.24654821 0.41274959
-0.4108521 -0.20419259 0.9227581
-0.2828258 -0.2391312 0.38960129
-0.2845898 -0.2803916 0.3941032
-0.2593393 -0.29994389 0.3038615
-0.51422548 -0.22767889 1.053041
-0.3276861 -0.2414023 0.41493481
-0.2158469 -0.30921811 0.31069389
-0.1781203 -0.30779389 0.32231551
-0.19873139 -0.3110472 0.31105971
-0.31057119 -0.16446739 0.37467891
-0.27320549 -0.2089766 0.50213909
-0.4099353 -0.18521801 0.41082081
-0.35151169 0.039158151 0.55995589
-0.45682439 0.024753051 0.67266232
-0.38328421 -0.003605884 0.56723481
-0.31152159 -0.1525235 0.3864893
-0.31215131 -0.1577381 0.37463009
-0.30079621 -0.292036 0.3679218
-0.25415689 -0.29820961 0.3262392
-0.25452459 -0.28322509 0.33901531
-0.3714509 -0.26842329 0.40036711
-0.2210484 -0.30111679 0.3189564
-0.26214781 -0.2386678 0.45748559
-0.2351694 -0.28249189 0.3446556
-0.25068441 -0.3068445 0.3254548
-0.25464839 -0.27099299 0.34452221
-0.26000431 -0.25824431 0.4363786
-0.32153001 -0.1551145 0.38256791
-0.3345668 -0.1509902 0.39114821
-0.2373807 -0.29967001 0.32295439
-0.25413731 -0.20170499 0.48742709
-0.24536359 -0.1975272 0.48591289
-0.26107869 -0.2498834 0.4389841
-0.3095856 -0.3115519 0.2636658
-0.34568939 -0.25653049 0.4150061
-0.36821631 -0.17197099 0.3913573
-0.39774689 -0.21182179 0.4208627
-0.31030089 -0.1821337 0.36093989
-0.31010759 -0.1685892 0.36230451
-0.34353429 -0.2250831 0.40807459
-0.33244869 -0.1878963 0.37524179
-0.34882471 -0.1826946 0.38053659
-0.33504191 -0.1859708 0.38028449
-0.34681869 -0.1784413 0.37865439
-0.4280414 -0.200029 0.95292699
-0.408223 -0.202764 0.91958261
-0.44592729 -0.1046935 1.033236
-0.2362493 -0.2042198 0.47798941
-0.31847009 -0.1642492 0.37441999
-0.32175231 -0.1448222 0.38497889
-0.27191371 0.026933299 0.45504841
-0.18687961 -0.27918011 0.3338989
-0.2295429 -0.29832429 0.40697491
-0.27928671 0.026956949 0.43665081
-0.26597449 -0.20319811 0.4877452
-0.40229899 -0.1408864 0.95437253
-0.32963529 -0.17676049 0.90343177
-0.5045737 -0.21292029 1.087665
-0.4024283 -0.14937641 0.93463719
-0.2520074 -0.18414 0.46230251
-0.31766301 -0.1812102 0.97565228
-0.24451759 -0.28475761 0.401795
-0.1877415 -0.27543741 0.32046211
-0.32183379 -0.249584 0.41231829
-0.25175041 -0.18422429 0.46139109
-0.31746569 -0.1812474 0.9753837
-0.2447889 -0.28480601 0.402585
-0.1875592 -0.27560371 0.31972969
-0.3184298 -0.18126971 0.97812879
-0.3229005 -0.2493289 0.41443059
-0.32713091 -0.2400135 0.41319451
-0.094610937 -0.29428059 0.29272541
-0.1520137 -0.28087631 0.3179982
-0.1662246 -0.30636331 0.30430609
-0.12759189 -0.3004145 0.22273161
-0.17720591 -0.30394611 0.3172034
-0.2298238 0.03246649 0.59993899
-0.2269505 0.031848151 0.60865438
-0.4345544 -0.1655878 0.96862543
-0.30295351 -0.14987899 0.40079781
-0.41247129 -0.1894822 0.90274519
-0.3999263 -0.1483027 0.92430991
-0.30406651 -0.2047008 0.98042172
-0.45214659 -0.1009827 1.0513901
-0.23903599 -0.23238599 1.081019
-0.31159759 -0.1976762 0.94658297
-0.40450269 -0.22685321 0.9053334
-0.40427381 -0.16333669 0.9217158
-0.28772211 -0.1655384 0.43064171
-0.31510681 -0.1609682 0.36832991
-0.2356804 0.026018159 0.63124448
-0.31989661 -0.13932399 0.38749951
-0.46585861 0.023828421 0.67005378
-0.31242779 -0.15690251 0.37476841
-0.34087759 0.029308811 0.41521049
-0.36499459 -0.1678561 0.38799399
-0.3285538 -0.14616799 0.3797029
-0.34383059 -0.17432851 0.37429389
-0.37533069 0.026202731 0.39685339
-0.32655221 -0.2390992 0.41189981
-0.32211539 -0.24855191 0.41365361
-0.31796321 -0.1804525 0.97782439
-0.2461497 -0.2422535 1.138014
-0.36301401 0.028407291 0.41521901
-0.3752926 0.02728574 0.41494629
-0.3644962 0.031111009 0.41683301
-0.37338299 0.023902381 0.41379669
-0.29726231 -0.28950751 0.3647241
-0.38397789 -0.169257 0.3991749
-0.41019499 -0.18358719 0.41154319
-0.38473681 0.02824368 0.41667709
-0.399259 0.026877901 0.42406771
-0.38837019 0.032037571 0.42216101
-0.52603823 0.019261289 0.65750033
-0.42784941 0.02716695 0.4270055
-0.39489099 -0.2093084 0.41771689
-0.36652789 -0.1687175 0.3910678
-0.39432251 -0.1789507 0.40589049
-0.33342561 -0.29813081 0.23156209
-0.32548749 -0.29808119 0.22181021
-0.4227539 -0.3012304 0.4040342
-0.39863849 -0.2081852 0.42325649
-0.3479889 -0.1811073 0.38190109
-0.34642291 -0.17636091 0.38039011
-0.3303501 -0.18533669 0.37380901
-0.33067349 -0.1821488 0.3749271
-0.3786546 -0.2126821 0.41914409
-0.38314739 -0.213595 0.42126939
-0.3587361 -0.2229113 0.42224401
-0.34300959 -0.2980414 0.242722
-0.32847151 -0.30219561 0.2438881
-0.46291101 -0.2683928 0.45732531
-0.32399729 -0.30435339 0.24899641
-0.30823839 -0.30944139 0.26346979
-0.3472372 -0.25691089 0.42035741
-0.30871239 -0.30933061 0.28471801
-0.3035726 -0.3087984 0.27850759
-0.2316815 -0.30062649 0.32008249
-0.1777259 -0.305316 0.3199617
-0.32637119 -0.2395062 0.41225019
-0.2190962 -0.3385722 0.79833341
-0.1947896 -0.27301949 0.37379041
-0.2438022 -0.34429979 0.82319927
-0.22255559 -0.27404529 0.43622461
-0.21828181 -0.29008359 0.79204643
-0.1949821 -0.3407864 0.80567908
-0.2363577 0.03448699 0.62842941
-0.23987021 -0.2067057 0.48884401
-0.2310749 0.03249678 0.62182158
-0.3238579 -0.14413691 0.3920182
-0.31814489 -0.162829 0.37461531
-0.49475411 0.02952227 0.70223123
-0.1105892 -0.2877529 0.40439999
-0.46252251 -0.1050097 1.089082
-0.37354371 0.02909448 0.57357192
-0.53314149 -0.30882409 1.147036
-0.5282802 -0.23478089 1.105867
-0.50038981 -0.2580213 1.122908
-0.52667832 -0.28362331 1.117017
-0.41639891 0.028128861 0.76016092
-0.36485729 -0.01025688 0.581195
-0.3177512 -0.24584851 0.40717959
-0.32524061 -0.23774029 0.40943399
-0.43580651 -0.2016785 0.97469902
-0.43400371 -0.2009871 0.97247863
-0.31570831 -0.162185 0.37161019
-0.3046028 -0.1516349 0.40821889
-0.2386554 -0.28378391 0.38102189
-0.2194306 -0.29552811 0.31382751
-0.2900967 -0.3018232 0.36792731
-0.2339019 -0.30365399 0.34023231
-0.27221349 -0.29620281 0.34504449
-0.34389099 -0.2258298 0.41168591
-0.31174821 -0.2554518 0.40987059
-0.3148697 -0.29992819 0.43009371
-0.33242461 -0.25032589 0.42523441
-0.231693 -0.27819851 0.34575319
-0.22923359 -0.28250819 0.35522631
-0.25923601 -0.29885319 0.3499018
-0.25254381 -0.2519927 0.42628089
-0.422627 -0.1974258 0.94486099
