# .PCD v0.7 - Point Cloud Data file format
VERSION 0.7
FIELDS x y z normal_x normal_y normal_z curvature
SIZE 4 4 4 4 4 4 4
TYPE F F F F F F F
COUNT 1 1 1 1 1 1 1
WIDTH 585
HEIGHT 1
VIEWPOINT 0 0 0 1 0 0 0
POINTS 585
DATA ascii
0.11191998 0.0040175505 0.33669776 0.61248052 0.49606046 -0.61546052 0.084389783
0.1332805 0.0089101791 0.3378664 0.64031291 0.43889788 -0.63037145 0.064350709
0.1018548 0.019216556 0.33810151 0.50981194 0.71952689 -0.47156438 0.085944057
-0.010220139 0.022357371 0.33564714 -0.18677905 0.96278328 -0.19535081 0.050425317
0.018098334 0.020929903 0.33338934 -0.12330645 0.97154158 -0.20224373 0.055766374
0.024963675 0.021806486 0.3354024 -0.064286619 0.97582817 -0.20886986 0.05971602
0.036414564 0.021336803 0.33479738 0.01590169 0.97511929 -0.22110948 0.061655447
0.067088097 0.020221854 0.33092293 0.26974761 0.90086937 -0.34010401 0.072608016
0.096064948 0.023394462 0.33500171 0.45123798 0.77220297 -0.44731075 0.074715868
-0.023555813 -0.2645205 0.34365755 -0.12267638 -0.96902418 -0.21434215 0.050699372
-0.018516004 -0.26340795 0.34419703 -0.18535194 -0.93541741 -0.30106297 0.068308502
0.01920205 -0.26576719 0.34783369 -0.16045597 -0.9616909 -0.22227137 0.070443638
0.047108319 -0.26576719 0.3413277 0.015424999 -0.97541541 -0.21983373 0.07864929
0.070370384 -0.26576719 0.3483026 0.13023357 -0.97502327 -0.17991364 0.063117154
0.10700911 -0.26550686 0.34363189 0.30891705 -0.8857612 -0.34640634 0.087834328
0.11476439 -0.26464713 0.34437159 0.2788257 -0.89726007 -0.34231648 0.085364431
0.12267538 -0.26360586 0.34202471 0.47136137 -0.73758548 -0.48351443 0.097603358
0.12201604 -0.23313478 0.34475547 0.63089734 -0.45545819 -0.62811339 0.086774662
-0.020105792 -0.14877358 0.34144226 -0.7169438 -0.012232875 -0.69702369 0.0043001799
0.10623135 -0.078348212 0.34058115 0.69540006 0.0099373283 -0.71855408 0.0021643571
0.11769333 -0.065980516 0.34576333 0.69406235 -0.0035916818 -0.71990597 0.0027694819
0.11818553 -0.050119247 0.34764454 0.69873971 0.058683224 -0.71296507 0.010158021
0.10814777 -0.035435751 0.3400529 0.6742118 0.21168099 -0.70755184 0.052705206
0.11505909 -0.03326809 0.34666753 0.68228722 0.23938373 -0.69078183 0.053045947
-0.019727755 -0.0094865616 0.34406492 -0.55393195 0.72932953 -0.40154427 0.089865744
-0.0220969 0.0071831765 0.34979492 -0.46400404 0.8094427 -0.3598648 0.097440608
-0.01955542 0.0061437162 0.34659567 -0.40371346 0.8519482 -0.33346623 0.081222631
-0.017527785 0.018885829 0.34612316 -0.25159588 0.93766963 -0.23973972 0.063144602
0.11019234 0.018230835 0.34459776 0.52270925 0.65255088 -0.54859126 0.08415591
-0.016609371 0.024706565 0.34643045 -0.24569951 0.94643635 -0.2094996 0.065177001
0.019004749 0.022259956 0.34785908 -0.11751212 0.97975248 -0.16209899 0.04502663
0.045856342 0.020206468 0.34278026 0.03017235 0.9731431 -0.22821528 0.052359629
0.070334665 0.021788122 0.34832078 0.24361894 0.93605185 -0.25388351 0.068791933
0.10898157 0.022577813 0.34756327 0.49417803 0.71438885 -0.49541569 0.079638802
-0.031119719 -0.26261741 0.35594809 -0.089725688 -0.98110938 -0.17138767 0.035003077
-0.02587492 -0.26480323 0.35378966 -0.086229749 -0.98424995 -0.15432598 0.036002979
-0.010130019 -0.26625788 0.35085154 -0.10072671 -0.97895437 -0.17748936 0.045121558
0.0558847 -0.26576719 0.35048449 0.052327268 -0.98500764 -0.1643832 0.061139625
0.11452313 -0.26511353 0.35273206 0.29879382 -0.89734286 -0.32480478 0.083903112
0.12581524 -0.26477739 0.35547456 0.46438804 -0.77644998 -0.42599213 0.10644063
0.13158014 -0.2635265 0.3564252 0.52021635 -0.71014249 -0.47441828 0.10435319
0.14719215 -0.25583032 0.35984692 0.61467564 -0.52802259 -0.5859744 0.091796137
-0.03827728 -0.24873173 0.35397726 -0.16374433 -0.94547015 -0.28155637 0.054108474
0.1148695 -0.2314328 0.35522819 0.58950597 -0.56055665 -0.58160031 0.099310689
0.1242916 -0.070902422 0.35080975 0.69385302 0.0077573303 -0.72007489 0.0015908269
0.12552036 -0.056789432 0.35331056 0.69701773 0.030719135 -0.71639562 0.0047680209
0.13186358 -0.054965492 0.35895497 0.69698364 0.051279034 -0.71525127 0.0073694731
0.12942412 -0.041494094 0.35851961 0.70774901 0.16403228 -0.68715703 0.02923575
0.13136558 -0.048469596 0.35890833 0.70153302 0.094906762 -0.70628899 0.013444129
0.12088184 -0.027113289 0.35216501 0.67529869 0.28041384 -0.68215817 0.058685359
-0.028248962 -0.0007398905 0.35704011 -0.56257367 0.70189625 -0.43686676 0.11352863
0.12717722 0.0073004803 0.35528773 0.60220879 0.58495694 -0.54329532 0.07777331
0.12681015 0.011372693 0.35630172 0.58467478 0.60389447 -0.54172599 0.076658286
-0.024557799 0.021148462 0.35574216 -0.2672303 0.93164092 -0.24623804 0.069671981
0.055969831 0.020883132 0.35058001 0.13214235 0.96931493 -0.20728469 0.045745257
-0.040301293 -0.26064765 0.36428234 -0.073204011 -0.98797226 -0.13620548 0.021346865
-0.034722049 -0.26566389 0.36373436 -0.066526458 -0.98993152 -0.12493952 0.019978354
0.040217038 -0.26576719 0.3680957 -0.02386222 -0.9954077 -0.092704631 0.026036341
0.06801334 -0.26576719 0.36063379 0.10347218 -0.98752916 -0.11865778 0.039870292
0.11463042 -0.26568165 0.36995378 0.28064406 -0.93287247 -0.22580501 0.086692974
0.1272829 -0.26497766 0.36133051 0.47363809 -0.77367866 -0.42081854 0.10041508
0.13571745 -0.26377591 0.36726421 0.50103152 -0.74291712 -0.44389361 0.099390097
0.1412669 -0.2627283 0.36717713 0.53150868 -0.69107467 -0.48981047 0.099459179
-0.043903206 -0.25149295 0.3602697 -0.088578582 -0.98301315 -0.16074507 0.023340838
-0.050567739 -0.24735925 0.36605904 -0.34604037 -0.87666917 -0.33422643 0.078406326
0.13918655 -0.18861794 0.36631101 0.69753706 -0.027108531 -0.71603572 0.0083678756
0.14191914 -0.042819079 0.36826298 0.70334828 0.13493639 -0.6979208 0.019356446
0.13668916 -0.02542923 0.36789477 0.69867659 0.34259927 -0.62807393 0.063927963
-0.031496398 -0.013325728 0.36093652 -0.59610772 0.60039532 -0.5330863 0.10603157
0.13480082 -0.018003132 0.36874554 0.6596086 0.41917819 -0.62386388 0.071938127
-0.034967609 -0.0071348795 0.36669657 -0.56638175 0.6317324 -0.52926922 0.099490978
-0.034582578 0.014872233 0.36709243 -0.38791245 0.84945863 -0.35769269 0.0897047
0.12456068 0.014175669 0.36295891 0.52705127 0.68265277 -0.50616419 0.079715364
-0.035063263 0.02426311 0.36873862 -0.30477208 0.90021431 -0.3110117 0.081286952
-0.029920168 0.022170726 0.3621797 -0.28002438 0.91350579 -0.29511616 0.07521534
0.040217038 0.0213097 0.3680957 -0.011317636 0.98813558 -0.15316655 0.034545332
0.068027146 0.022740446 0.36060047 0.22159989 0.95278865 -0.20757477 0.061300371
-0.056074381 -0.26423979 0.37767062 -0.0636191 -0.99404663 -0.08845301 0.018289186
-0.047335669 -0.26270247 0.37388527 -0.045529835 -0.99154586 -0.12150683 0.017179461
-0.034710947 -0.26702273 0.37066686 -0.05037161 -0.99229866 -0.11316425 0.01844619
0.028518889 -0.26576719 0.37750909 -0.042843122 -0.99572635 -0.081813991 0.022026764
0.057213891 -0.26576719 0.3773917 0.070292182 -0.99558949 -0.062133528 0.019425189
0.069054648 -0.26576719 0.37797549 0.073657848 -0.99417764 -0.07864733 0.022661196
0.070759617 -0.26576719 0.37624171 0.07434912 -0.99402279 -0.079943575 0.022054823
0.098366633 -0.26576719 0.37611699 0.12879662 -0.98465478 -0.11775562 0.045718666
0.1080849 -0.26576719 0.37950751 0.17616853 -0.97351694 -0.14570305 0.060448419
0.11702622 -0.26573581 0.37489411 0.27542964 -0.93760264 -0.21222566 0.082893133
0.1279317 -0.26507181 0.37771931 0.37315515 -0.87893933 -0.29701999 0.092941456
0.13655849 -0.26460269 0.37293574 0.48116076 -0.75703526 -0.44202039 0.099880457
0.14605746 -0.26336539 0.37467265 0.54400629 -0.65765178 -0.52110595 0.097917087
0.15456451 -0.26287332 0.37689018 0.59846395 -0.5648644 -0.56812769 0.09195751
0.17108588 -0.2619845 0.37924829 0.63671201 -0.49193075 -0.59380299 0.083677419
0.15477948 -0.2231258 0.37361875 0.69568992 -0.23100558 -0.68018526 0.066244692
0.1542642 -0.21722941 0.37580207 0.70096755 -0.22716115 -0.67604899 0.06784787
0.15581477 -0.20424475 0.37862766 0.73400527 -0.095002957 -0.67246622 0.030117292
0.15600711 -0.18902349 0.37615174 0.7324236 -0.015324569 -0.68067676 0.010338867
0.14991131 -0.16228113 0.37664467 0.70999122 0.043230761 -0.70288241 0.0037863806
0.15320809 -0.16002269 0.37990907 0.72102118 0.033142343 -0.69212002 0.004812845
0.15266985 -0.15834618 0.37546253 0.70595068 0.034001194 -0.70744443 0.0034097498
-0.04921091 -0.05674826 0.37599123 -0.73816776 0.059520971 -0.6719864 0.0015297259
0.14520359 -0.041437272 0.37178278 0.69812024 0.14102972 -0.70195359 0.020161239
-0.050424818 -0.038371176 0.37809145 -0.75785285 0.22057712 -0.61400717 0.038984403
-0.04936355 -0.03424105 0.37765539 -0.7580173 0.24848707 -0.60304558 0.043353584
0.13905349 -0.021947669 0.3703115 0.68068296 0.3835049 -0.62417519 0.06805256
0.14372993 -0.024145095 0.37352473 0.68525428 0.35932028 -0.63349473 0.064191096
-0.037429012 -0.0031735725 0.37082869 -0.54666018 0.65970248 -0.51570857 0.1066651
0.11403055 0.019659875 0.37097374 0.44066757 0.79563528 -0.41566414 0.083876796
0.12026506 0.019046992 0.37100866 0.45994982 0.76943576 -0.443187 0.083655067
0.13706584 0.017834546 0.37559015 0.48049814 0.72978336 -0.48635152 0.079376705
-0.041946843 0.023231246 0.3773399 -0.29893437 0.89957374 -0.31844217 0.085066833
0.028518889 0.02735254 0.37750909 -0.085432082 0.99417651 -0.065684207 0.022499083
0.057189602 0.022922937 0.37738532 0.097160369 0.98688084 -0.12894237 0.020254664
0.069069646 0.024674114 0.37798649 0.12764999 0.97814214 -0.16414461 0.029033979
0.070749082 0.024769237 0.37623405 0.15618041 0.96909875 -0.19093299 0.040877555
0.09834034 0.022149656 0.37610987 0.2713064 0.91753781 -0.29071844 0.071829371
0.10804036 0.02195289 0.37962794 0.27870438 0.90215236 -0.32930994 0.074817322
0.11580148 0.021236941 0.37648624 0.38150066 0.84345543 -0.37820646 0.077862948
0.12827656 0.020310825 0.37753901 0.41369581 0.80804902 -0.41941941 0.080013201
-0.072467543 -0.26507962 0.38969368 -0.24978854 -0.95462704 -0.16215114 0.056439314
-0.062180161 -0.26366809 0.38641769 -0.18731755 -0.97269964 -0.13699475 0.051864974
-0.057835769 -0.26525655 0.38540998 -0.064307667 -0.994012 -0.088344045 0.016005276
-0.048938468 -0.26535174 0.38653144 -0.046643551 -0.99613214 -0.074466348 0.014065919
0.04946655 -0.26576719 0.38715109 0.01052571 -0.99978 -0.018145841 0.0042815665
0.095380127 -0.26576719 0.38962489 0.11507501 -0.98460025 -0.13160582 0.045505885
0.1003304 -0.26576719 0.38946399 0.12055244 -0.98287874 -0.13934323 0.046195887
0.1546039 -0.26369894 0.38505566 0.53713113 -0.67528158 -0.50545514 0.099879265
0.16218221 -0.26334804 0.38273853 0.58773166 -0.58304822 -0.56091559 0.094032414
0.17176399 -0.2630344 0.38835219 0.61709458 -0.56121904 -0.55156815 0.098021984
-0.063560352 -0.24617389 0.38053313 -0.56836784 -0.70134228 -0.43020573 0.099443972
0.16867545 -0.21292342 0.38349187 0.74394351 -0.11589205 -0.6581164 0.041555721
0.15754122 -0.20353192 0.38022354 0.73627013 -0.096841536 -0.66972232 0.031284064
0.17463955 -0.2088854 0.38999203 0.75785381 -0.10324171 -0.64420396 0.038303688
0.15698509 -0.19751786 0.3805398 0.72693086 -0.073068604 -0.68281221 0.025490971
0.15450366 -0.15915567 0.38123113 0.72571498 0.026359711 -0.68749028 0.0050152615
-0.062553823 -0.062677309 0.38699466 -0.78309846 0.05024353 -0.61986488 0.011251472
0.15707976 -0.064314455 0.38779575 0.7008211 0.030056849 -0.71270353 0.004459545
-0.061782401 -0.047714941 0.38911569 -0.78767407 0.13869271 -0.60027826 0.02542356
-0.058045801 -0.046250384 0.38540685 -0.77095813 0.1669295 -0.61462033 0.02876392
0.15789399 -0.044749897 0.38522452 0.70164376 0.14028531 -0.69858146 0.020513507
0.15657263 -0.02274134 0.38470888 0.67883098 0.33876693 -0.65147942 0.060194418
0.16258001 -0.00013528464 0.38715008 0.56526154 0.58882034 -0.57772833 0.080878191
-0.05475552 0.023267359 0.38889799 -0.35294467 0.86552268 -0.35538796 0.10172356
-0.048721738 0.026223244 0.38743708 -0.25796062 0.90398449 -0.34098154 0.087542832
0.049742322 0.021882052 0.38738376 0.022256915 0.99888134 -0.041721504 0.0053927288
0.095383726 0.022991553 0.38962111 0.20684107 0.94386572 -0.25755459 0.059235901
0.10030646 0.02274826 0.38940921 0.2138733 0.94113982 -0.26175198 0.058402207
-0.080798388 -0.26576719 0.39997509 -0.39911297 -0.89967006 -0.17692544 0.090271965
-0.072048664 -0.26539689 0.39381552 -0.21265836 -0.96912074 -0.12482551 0.057531733
-0.066134043 -0.26565915 0.39381865 -0.20252506 -0.97090709 -0.12776153 0.051722515
-0.045307532 -0.26563165 0.39018893 -0.038477171 -0.99708849 -0.065834098 0.012674576
-0.032326791 -0.26576719 0.39505151 -0.020969514 -0.99770153 -0.064435437 0.0080195433
-0.02186444 -0.26576719 0.3962526 -0.025732618 -0.99803209 -0.05718182 0.0081756813
-0.01384029 -0.26576719 0.39652839 -0.028780246 -0.99814647 -0.053622562 0.0080653476
0.00889045 -0.26576719 0.3934207 -0.042674497 -0.99838459 -0.037513085 0.0071433247
0.0181002 -0.26576719 0.39647219 -0.030305272 -0.99900067 -0.032852616 0.0056806109
0.027811244 -0.26576719 0.39375347 -0.016798517 -0.99974281 -0.015236906 0.0020423662
0.033540852 -0.26576719 0.39849344 -0.0035325272 -0.99998075 -0.0051038908 9.5543503e-05
0.063997693 -0.26576719 0.39771861 0.016554989 -0.99967825 -0.019216832 0.0053273593
0.09702152 -0.26576719 0.39921519 0.11148128 -0.98376119 -0.14066248 0.042468484
0.1030245 -0.26576719 0.39655006 0.11523082 -0.98356557 -0.13899876 0.04277217
0.14488797 -0.26369315 0.39499405 0.44235358 -0.79889303 -0.40754533 0.10010241
0.15311116 -0.26459756 0.39636934 0.50631434 -0.74746561 -0.43004766 0.10098673
0.1666767 -0.2645264 0.39551878 0.5619514 -0.67556155 -0.47731251 0.10770347
0.17271133 -0.26316163 0.39257517 0.63465095 -0.54556143 -0.5473398 0.099390663
0.17419115 -0.20797403 0.39028618 0.75785381 -0.10324171 -0.64420396 0.038303688
0.16632722 -0.19811982 0.39105102 0.74738175 -0.059161115 -0.66175568 0.025453525
0.17334592 -0.19476573 0.39619076 0.77514631 -0.041556362 -0.63041365 0.022944307
-0.080798388 -0.1790154 0.39997509 -0.97960329 -0.069847345 -0.1884111 0.049126372
-0.072028279 -0.17689115 0.3916879 -0.85148978 -0.031585474 -0.52341902 0.023345159
0.17276928 -0.17563285 0.39345288 0.79461086 0.017260922 -0.60687369 0.011170089
0.17393307 -0.084014989 0.39806208 0.83354992 0.067944907 -0.54825002 0.039135754
0.17128031 -0.062573537 0.39750549 0.80656552 0.021057392 -0.59076959 0.046673711
-0.068097226 -0.05883158 0.39107618 -0.79791665 0.04285451 -0.60124242 0.013983171
0.16946144 -0.048409771 0.39497104 0.75972062 0.10610905 -0.64153367 0.031733882
0.17164327 -0.043739997 0.39671832 0.76992422 0.12124534 -0.62651122 0.036795534
-0.066010065 -0.038490258 0.39719269 -0.79960537 0.21384639 -0.56116039 0.051364094
0.16591369 -0.039212935 0.39231282 0.74612087 0.18392439 -0.63990271 0.041301791
0.16834354 -0.026100574 0.39520845 0.74122769 0.28607839 -0.6072402 0.070348553
0.16606978 -0.010448882 0.39380479 0.66339856 0.45060399 -0.59737623 0.083323956
0.16754557 -0.0099803256 0.39545652 0.6594153 0.46034619 -0.59435087 0.084377564
-0.063590214 0.01402144 0.39408797 -0.64643526 0.58617347 -0.48838729 0.10428125
-0.01384029 0.015990499 0.39652839 -0.14953305 0.9678793 -0.20211279 0.061678018
0.018049795 0.018848691 0.39719144 -0.060345612 0.99549812 -0.073088311 0.018730773
0.026139734 0.015898515 0.3969554 -0.055303227 0.99685854 -0.056697018 0.014622834
0.03379868 0.010858405 0.39949828 -0.064101174 0.99651587 -0.05335841 0.019910781
0.16606638 0.018844187 0.39757651 0.4478198 0.78217596 -0.43319544 0.090458892
-0.061596248 0.026476614 0.39562503 -0.40281773 0.8530429 -0.33174652 0.099797897
-0.045405678 0.026767276 0.39002591 -0.21457572 0.93172514 -0.29299414 0.085749157
-0.031676922 0.028183738 0.39347023 -0.18026544 0.95035857 -0.25361976 0.07004077
-0.023685101 0.029235298 0.39249662 -0.10215752 0.97694939 -0.18744017 0.048205957
0.0089787655 0.020862976 0.39352286 -0.092383951 0.98862123 -0.11871517 0.029786043
0.028943 0.023827747 0.39147165 -0.055980232 0.99691087 -0.055090856 0.014506095
0.031705543 0.025683329 0.39801407 -0.02598094 0.99916774 -0.031445969 0.0067516966
0.09710905 0.023119254 0.39917806 0.18408309 0.95770895 -0.22114928 0.048902385
0.10378235 0.022875495 0.396552 0.20564134 0.94533497 -0.25308791 0.05664058
0.14383771 0.021848937 0.39368778 0.38934347 0.82716632 -0.40522534 0.07706444
0.15273446 0.021466441 0.3979632 0.42236945 0.81275028 -0.40129915 0.084505916
-0.092277452 -0.26599121 0.40981233 -0.43243733 -0.89003044 -0.14437367 0.10054401
-0.083190687 -0.26559529 0.40630057 -0.44076604 -0.8831951 -0.16028646 0.094500966
-0.074422538 -0.26570848 0.40522808 -0.34253392 -0.9338997 -0.10247906 0.088671893
-0.027557191 -0.26576719 0.40368009 -0.019969575 -0.99753755 -0.067231752 0.007703694
0.0062042549 -0.26576719 0.40101391 -0.036207084 -0.9983198 -0.045240775 0.0074557732
0.029296311 -0.26576719 0.40142739 -0.0055203545 -0.99996567 -0.0061853849 0.00016943809
0.035454929 -0.26576719 0.40297189 -0.00010330515 -0.99999964 -0.00084843254 1.8985476e-05
0.084497809 -0.26576719 0.40135661 0.037893318 -0.99523723 -0.089816123 0.01746835
0.095119521 -0.26576719 0.40990549 0.035490509 -0.99781084 -0.055802941 0.011848869
0.1067597 -0.26576719 0.40005299 0.11181148 -0.98348176 -0.14234391 0.042872846
0.14336251 -0.26515642 0.40618423 0.34658998 -0.8906939 -0.29417652 0.09790311
0.16605954 -0.26458803 0.4019694 0.52154189 -0.73784286 -0.42846474 0.11868382
0.17217433 -0.26402539 0.40467361 0.56788576 -0.68808079 -0.4517197 0.12594879
0.1843002 -0.26270545 0.40623885 0.70932531 -0.50605875 -0.49067533 0.12141529
0.17202193 -0.24549218 0.4055309 0.66117924 -0.47868627 -0.57766896 0.11754424
0.18299474 -0.23814991 0.40963611 0.79320383 -0.32720971 -0.51357722 0.10744321
0.18628216 -0.22847725 0.40886003 0.81434256 -0.26254547 -0.51760626 0.097518705
-0.080729008 -0.1901242 0.40304771 -0.9468801 -0.04572621 -0.31831929 0.026038861
0.17697823 -0.19547057 0.40271699 0.78871465 -0.043910079 -0.61318934 0.023419738
0.18176462 -0.175978 0.40535524 0.80671024 0.032136377 -0.59007281 0.015812844
-0.085659377 -0.1532027 0.40955541 -0.98493356 -0.0010739117 0.17293023 0.058981605
0.18487877 -0.14438039 0.40807343 0.85007656 -0.0095559843 -0.52657253 0.026486883
0.18325251 -0.13962856 0.40123904 0.83245534 -0.016493695 -0.55384672 0.017961396
0.1809537 -0.090745978 0.40378779 0.91636652 0.051283408 -0.3970421 0.061758496
0.17583077 -0.084669694 0.40044865 0.86822116 0.071856141 -0.49094674 0.049092378
0.1836859 -0.078526177 0.40994582 0.94952542 0.13620211 -0.28257847 0.060694922
0.18043102 -0.055183008 0.40333012 0.85232794 0.014740422 -0.52280009 0.051076356
-0.078467667 -0.032291502 0.4080869 -0.81303114 0.23407525 -0.53309393 0.063019477
0.18716531 -0.037529793 0.40724617 0.86798763 0.14596596 -0.47464883 0.069083065
0.18618841 0.0073481374 0.40727055 0.69599241 0.5424276 -0.47049645 0.11282164
-0.071627699 0.015957728 0.40257719 -0.67821407 0.58654147 -0.44271305 0.10292699
-0.02508036 0.019319659 0.4060621 -0.17583017 0.95654809 -0.23259296 0.074776024
0.0062042549 0.019353479 0.40101391 -0.062901005 0.99327213 -0.097231872 0.021132898
0.16670781 0.01919535 0.40040222 0.45458347 0.79106236 -0.40935829 0.093759753
0.1729545 0.015375031 0.40061763 0.50661284 0.73135906 -0.45657146 0.098343566
-0.067755312 0.023235979 0.40004757 -0.44417262 0.83206463 -0.33223352 0.10724545
0.033307511 0.025666961 0.40446979 -0.0060730954 0.99985802 -0.015721083 0.002463629
0.084437601 0.024365027 0.40135098 0.099352129 0.98523325 -0.13944402 0.02967314
0.095102184 0.023263004 0.40989345 0.090429895 0.98789531 -0.12603693 0.02996284
0.10530776 0.022964343 0.40004689 0.17811304 0.95681882 -0.22972502 0.050760403
0.14411728 0.022495275 0.40670887 0.33616892 0.88647419 -0.31804717 0.085395917
0.1622601 0.020852488 0.40408596 0.43518209 0.82055885 -0.37053964 0.090717398
-0.092180558 -0.26563454 0.41756722 -0.51041096 -0.84925395 -0.13508633 0.11283681
-0.084497601 -0.26555577 0.416201 -0.46906486 -0.8736062 -0.12957799 0.10672077
-0.077379875 -0.26567942 0.4176029 -0.31953642 -0.94587582 -0.056704216 0.098868594
-0.043653101 -0.26576719 0.41844299 -0.078176983 -0.99688339 -0.010576523 0.021571605
-0.03497079 -0.26576719 0.41353017 -0.037989791 -0.99908209 -0.019792518 0.0086078309
0.094048224 -0.26576719 0.41261137 0.021518838 -0.99898791 -0.039497912 0.0074035018
0.13499252 -0.264947 0.41144586 0.25501239 -0.94109136 -0.22207139 0.077183247
0.14030617 -0.26538089 0.41244486 0.29686022 -0.92286229 -0.24535549 0.088124715
0.15597521 -0.26545873 0.41962558 0.407177 -0.87559825 -0.25987417 0.11857762
0.17434925 -0.2636525 0.415887 0.51221585 -0.78711236 -0.34364092 0.13209626
0.18679857 -0.26261109 0.41382879 0.72652626 -0.55857247 -0.40019548 0.13194291
0.19950077 -0.26640829 0.41576776 0.76744771 -0.51048374 -0.38785353 0.1397326
0.18594234 -0.25738013 0.41437009 0.73144764 -0.56250226 -0.38545501 0.13486177
0.19233043 -0.25923419 0.41705358 0.73448056 -0.55116332 -0.395926 0.14073396
0.19152969 -0.24296124 0.41611284 0.82457995 -0.35709843 -0.43880364 0.11809398
0.18944983 -0.22950934 0.4115634 0.82491761 -0.28241742 -0.48964414 0.10231845
0.19111271 -0.22265649 0.41317025 0.85392308 -0.17153786 -0.49131474 0.082411043
-0.095222279 -0.16586524 0.41742265 -0.98628902 0.018915731 0.16393983 0.058375925
0.1863903 -0.1449175 0.4112905 0.84921896 -0.0067936052 -0.52799726 0.026341666
0.19144796 -0.13953197 0.4167228 0.86722004 -0.0087385718 -0.49784842 0.028379964
-0.086673677 -0.122677 0.41780159 -0.99760079 -0.030157426 0.062314473 0.059397802
0.19751774 -0.1215966 0.41982198 0.93264055 0.056307446 -0.35638621 0.0632862
0.19145885 -0.11370013 0.41500384 0.93487072 0.05205752 -0.35115069 0.062736988
0.19156311 -0.094911851 0.41521195 0.98331648 0.12014624 -0.13657789 0.060385566
-0.090539478 -0.069979735 0.41568014 -0.9021042 0.077229999 -0.4245511 0.034284528
-0.085676558 -0.062267531 0.41892201 -0.89857692 0.029418586 -0.4378289 0.042725947
-0.086733587 -0.059081949 0.41386026 -0.87986726 0.062023252 -0.47115463 0.026266126
-0.081938349 -0.047361165 0.41380408 -0.85833621 0.08511994 -0.50597781 0.027596489
0.19574085 -0.028796753 0.41451758 0.88596302 0.17101793 -0.43107128 0.081480816
-0.084770679 -0.01562524 0.41889369 -0.87229073 0.34396905 -0.34755462 0.096585304
-0.091853857 -0.0059078163 0.41770741 -0.85814136 0.33954808 -0.3850981 0.093524322
-0.086289681 -0.0027068183 0.41766429 -0.8489638 0.37361994 -0.37372261 0.0956273
0.18935215 0.0068667769 0.4119508 0.66106313 0.59087145 -0.46245712 0.13380001
-0.08208219 0.010495597 0.41685873 -0.80774522 0.4685156 -0.35782799 0.11010886
-0.077181518 0.019674925 0.41905957 -0.60914677 0.7505511 -0.25615078 0.14276424
0.17324623 0.01933958 0.41676325 0.47997725 0.8176927 -0.31780574 0.11000219
0.18700369 0.010062363 0.41365159 0.66466498 0.59768957 -0.44831648 0.12895495
-0.07007096 0.022345228 0.41019168 -0.44464481 0.85777718 -0.25789395 0.12257104
-0.043561857 0.023294508 0.41832095 -0.23795892 0.95793021 -0.16045368 0.07994131
-0.034653798 0.02272157 0.41385305 -0.1953108 0.95885712 -0.20602597 0.075309962
0.058740031 0.027244572 0.41587818 -0.0026354138 0.99982125 -0.018721092 0.0023097997
0.094034269 0.023291148 0.41258988 0.083766818 0.99096406 -0.1047537 0.026902243
0.13470347 0.022875894 0.41128862 0.28902262 0.9162361 -0.277448 0.079085514
0.14043219 0.022508355 0.41242421 0.32614112 0.90606922 -0.26957491 0.085821226
-0.1029255 -0.26711428 0.42227629 -0.43647757 -0.89897722 -0.036432981 0.11414706
-0.096484698 -0.26570731 0.42328918 -0.50361204 -0.85894126 -0.092708938 0.12679799
-0.086535744 -0.26538515 0.4203333 -0.45408469 -0.88520938 -0.10105195 0.10761748
-0.07893081 -0.26540682 0.42336765 -0.31003889 -0.95042461 -0.023853976 0.098139599
-0.067171007 -0.2658602 0.42535487 -0.20010757 -0.97974247 0.0078561576 0.068132229
-0.045803841 -0.26576719 0.42913541 -0.081241257 -0.99669015 0.0029408678 0.023406202
-0.036739711 -0.26576719 0.42315131 -0.055969171 -0.99843132 -0.0015502932 0.014890997
0.11576966 -0.26576719 0.42588577 0.082187481 -0.99288535 -0.086162634 0.028937982
0.1245802 -0.26576719 0.42821938 0.14072925 -0.9853673 -0.09615925 0.038605981
0.13526313 -0.26576719 0.42557359 0.21543558 -0.96575975 -0.14455314 0.066817254
0.15826471 -0.2655541 0.42627916 0.41437092 -0.88162947 -0.22588985 0.11974578
0.17566839 -0.26406839 0.42357752 0.52326208 -0.80881327 -0.26836163 0.14431876
0.1883115 -0.26293412 0.42343855 0.68893707 -0.65558171 -0.30915764 0.14355572
0.19516841 -0.26183963 0.4248285 0.71380091 -0.63642794 -0.29231465 0.1482635
0.20310962 -0.26249442 0.4246389 0.77364522 -0.58873779 -0.23422422 0.15288171
0.22084294 -0.26514241 0.42869419 0.85583204 -0.50603068 -0.10716597 0.13923903
0.20114492 -0.25835872 0.42924893 0.79292643 -0.58677769 -0.16419408 0.1601589
0.19839364 -0.2434794 0.42559901 0.90317005 -0.32482776 -0.28066128 0.13344182
0.20072901 -0.23182654 0.42841375 0.91357756 -0.27283317 -0.30155963 0.12418112
0.1976375 -0.20583996 0.42104498 0.89795202 -0.059935778 -0.43599293 0.059117716
0.2050675 -0.16976984 0.42722809 0.87811863 0.028142465 -0.47761455 0.036996763
-0.096062332 -0.14911449 0.42225394 -0.97148085 0.019165158 0.23634219 0.053135533
-0.094811812 -0.13141355 0.42286673 -0.98015565 -0.016898276 0.19750786 0.046626862
0.19504474 -0.13708754 0.42276573 0.91367066 0.023802482 -0.40575784 0.051871825
-0.099284366 -0.11615697 0.42396602 -0.99903125 -0.031522162 0.030707018 0.057260841
-0.096433997 -0.1034696 0.42049071 -0.98255128 0.04963075 -0.17924774 0.065912627
-0.094396591 -0.087179571 0.42327419 -0.96321201 0.057488233 -0.26252192 0.065789297
0.19697058 -0.082814068 0.42326885 0.98896807 0.12446365 -0.080318101 0.064760342
0.20191799 -0.030082922 0.42399767 0.95687658 0.09266375 -0.27531922 0.075892441
0.19818088 -0.027060749 0.42183599 0.90295029 0.16713992 -0.3959105 0.084126882
0.19507721 0.0068780966 0.42370135 0.81002706 0.5401631 -0.2282104 0.15680605
-0.07916832 0.019858584 0.4222692 -0.6546374 0.70989025 -0.25981882 0.13854109
0.17527348 0.019622928 0.42400965 0.50177938 0.82966954 -0.24467523 0.12468886
0.18849882 0.013448005 0.42292556 0.68486917 0.67170441 -0.28243113 0.15126771
-0.078185335 0.021437032 0.42465231 -0.53043556 0.83850247 -0.12470652 0.13190489
-0.066881225 0.023617666 0.42537808 -0.3498151 0.93316185 -0.082694128 0.11120239
-0.045837235 0.0237823 0.42929634 -0.22779189 0.97133237 -0.068002254 0.074195087
-0.036539353 0.022975605 0.42286837 -0.16496319 0.98215336 -0.090343043 0.059141271
0.044668525 0.023376785 0.42566085 -0.002852835 0.99968398 -0.02497717 0.0024406225
0.11579293 0.023073709 0.42594281 0.15109503 0.97816718 -0.14268628 0.044527918
0.12472029 0.020990975 0.42934784 0.19037129 0.97485149 -0.11585922 0.056856006
0.13509683 0.022173563 0.42548379 0.25074491 0.95526773 -0.15681387 0.071612775
0.15687555 0.022776861 0.42315012 0.35860083 0.91033936 -0.20660993 0.091624975
-0.10510536 -0.2659077 0.43513453 -0.46784109 -0.8831917 0.033122584 0.12046288
-0.094317496 -0.26513773 0.43289554 -0.44824681 -0.89292103 0.042033266 0.1190256
-0.083350375 -0.26524135 0.43384311 -0.30972561 -0.94989651 0.042032111 0.098451287
-0.075139664 -0.26538804 0.43108347 -0.27270305 -0.96163666 0.029799916 0.088744082
-0.05780625 -0.26576719 0.43360409 -0.18923573 -0.98152566 0.02823556 0.061227381
-0.042898599 -0.26576719 0.43758371 -0.081676885 -0.9965893 0.011776221 0.019920744
-0.03101211 -0.26576719 0.4332034 -0.041070063 -0.9991219 0.0082937842 0.0087090051
-0.0043496639 -0.26576719 0.43593431 -0.014215538 -0.99988401 0.0054733008 0.00042316545
0.0097573847 -0.26576719 0.4321343 0.00054426736 -0.99999976 -0.00042479762 2.0671083e-05
0.077617779 -0.26576719 0.43048641 0.0026054557 -0.99999595 -0.0011402738 1.9393949e-05
0.096426673 -0.26576719 0.4325172 0.010480537 -0.99993461 -0.00457484 9.6758289e-05
0.10438355 -0.26576719 0.4380236 0.024307767 -0.99969923 -0.0032630744 0.0014514193
0.1484336 -0.26576719 0.43750891 0.27783987 -0.95777297 -0.074000143 0.087414242
0.16114694 -0.26556873 0.43436489 0.3707726 -0.9189617 -0.13430236 0.10434431
0.18747997 -0.26403397 0.43315741 0.64792508 -0.74925768 -0.13713506 0.15373912
0.19560891 -0.26175797 0.43702149 0.73273289 -0.67960203 -0.035264611 0.15446904
0.19847941 -0.25966063 0.43439263 0.77926046 -0.61833417 -0.10205874 0.15473744
0.20227781 -0.25777677 0.4312996 0.78177178 -0.61137098 -0.12271304 0.15781441
0.20156804 -0.24670589 0.43296492 0.90238172 -0.399387 -0.1618557 0.14288002
-0.1015326 -0.23045909 0.43038511 -0.93325263 -0.32202849 -0.15917692 0.15375784
-0.10213333 -0.21886131 0.43634018 -0.98594129 -0.16698475 0.0059907711 0.10352091
0.1977194 -0.20915917 0.43652219 0.96462387 -0.10125862 -0.24340798 0.085694283
0.1935775 -0.19940749 0.43203843 0.93745208 -0.050972886 -0.34436232 0.069517501
0.20377219 -0.16710263 0.43375155 0.92519659 0.0095010968 -0.37936932 0.049654286
0.2020646 -0.15969966 0.43594021 0.94299412 -0.026766792 -0.33173129 0.053907096
-0.10133226 -0.14552653 0.43463102 -0.96225232 -0.0048203277 0.27211624 0.049459491
0.19837873 -0.14298005 0.43391696 0.93069321 0.05386465 -0.36181322 0.058299694
0.19901343 -0.13967909 0.43841204 0.95852709 0.060650058 -0.27847332 0.058831207
0.20206964 -0.093609624 0.43129641 0.98870575 0.14768335 -0.02550697 0.060676109
0.19732988 -0.055299327 0.43387309 0.99782902 0.0052016475 -0.065652974 0.063359119
-0.10627405 -0.04959194 0.43514726 -0.91076773 0.068270311 -0.40723616 0.025595538
0.20134769 -0.025286639 0.43875089 0.98164988 0.093020827 -0.16646549 0.079920873
-0.1051843 -0.017874228 0.43497786 -0.95887977 0.27488154 -0.070638493 0.093731403
0.19869438 0.0046997722 0.43368447 0.83369529 0.5438509 -0.095803738 0.16286024
0.18609157 0.017237239 0.43372065 0.65227741 0.75731134 -0.031839218 0.14103287
0.19315526 0.013137622 0.43230939 0.71936798 0.68957323 -0.083656818 0.15861297
-0.10509486 0.022320984 0.43869346 -0.7535339 0.65542889 0.050986793 0.12238668
-0.085042879 0.0224583 0.43364877 -0.60509866 0.79480696 0.046233971 0.11722913
-0.074875407 0.02358526 0.43108654 -0.45563787 0.89016223 -0.0023297619 0.11478138
-0.057808552 0.024454242 0.43366003 -0.30036229 0.95362562 -0.019511627 0.086288929
-0.043064989 0.024219375 0.43773654 -0.23274744 0.9725371 -0.00053495122 0.061806966
-0.031100005 0.022960056 0.43329415 -0.13330367 0.99006683 -0.044697601 0.040534258
-0.004467383 0.020377651 0.4355942 -0.040196616 0.99892861 -0.022935066 0.011077528
0.0097640902 0.020948322 0.43214703 0.0077048424 0.99943221 -0.032801397 0.002888384
0.082529418 0.02506222 0.43974611 0.013629459 0.99976796 -0.016683444 0.0023333528
0.09643653 0.02307806 0.43259066 0.022631476 0.99956405 -0.018961878 0.0029380226
0.10431374 0.022114802 0.43791163 0.056042407 0.99840331 0.007083578 0.00568581
0.14827606 0.02227563 0.43753982 0.29284734 0.9536165 -0.0696854 0.07304807
0.16088077 0.023162659 0.43427044 0.36995837 0.92640448 -0.070039935 0.091660812
-0.10655619 -0.26285216 0.44413128 -0.62365133 -0.76966238 0.13667069 0.14550945
-0.097474843 -0.26408711 0.44545701 -0.55701113 -0.82134157 0.12303092 0.12545545
-0.083196908 -0.26506299 0.44952404 -0.44318807 -0.87901747 0.17581992 0.12008959
-0.071238518 -0.26568958 0.44552052 -0.27980706 -0.95223337 0.12230962 0.093236841
-0.044136699 -0.26576719 0.44551551 -0.1018988 -0.99262851 0.065614238 0.034318358
-0.0019851625 -0.26576719 0.44395539 -0.02235087 -0.99959087 0.017846854 0.0016460534
0.01043248 -0.26576719 0.44399509 -0.0005579514 -0.99999964 0.00061580975 9.1828979e-06
0.077821553 -0.26576719 0.44332364 0.0012598968 -0.99999923 -2.3987421e-05 1.2685107e-06
0.080414347 -0.26576719 0.44034889 0.0024386581 -0.99999666 -0.0008623781 6.6486309e-06
0.10489025 -0.26576719 0.44707325 0.029523311 -0.99930215 0.022882232 0.0071705696
0.1333573 -0.26576719 0.4482953 0.15685385 -0.98344529 0.090732135 0.050918095
0.1444356 -0.26576719 0.44776329 0.19477794 -0.97758549 0.079926215 0.061593659
0.1617842 -0.26576719 0.44091329 0.39066833 -0.92051297 0.0058527077 0.10780644
0.18811594 -0.2653895 0.44528621 0.54842645 -0.82843363 0.11369331 0.10863736
0.19128948 -0.26178002 0.44717246 0.61538357 -0.77669603 0.1343368 0.12351544
0.19941433 -0.23454431 0.44029233 0.95393932 -0.29928079 0.020757698 0.13586059
-0.099735044 -0.22005206 0.4404757 -0.9777872 -0.18905129 0.090508923 0.10903899
-0.10394695 -0.20318943 0.44413644 -0.96915019 -0.046213809 0.24209976 0.054319855
-0.09839645 -0.2067515 0.44899487 -0.94736153 -0.055427823 0.3153314 0.057580341
0.19201732 -0.20161168 0.44170323 0.98201907 -0.068342045 -0.17597732 0.084401876
0.18799387 -0.19771759 0.44629422 0.99858654 -0.05095125 0.015130105 0.085420206
0.20366602 -0.1755949 0.44267043 0.99295926 -0.03240411 -0.11393797 0.053319011
0.20276956 -0.1683562 0.44199461 0.96409518 0.0061715916 -0.26548541 0.051472649
-0.10617153 -0.15979083 0.44592306 -0.95277274 0.016809348 0.30321878 0.055661872
-0.10394628 -0.14323354 0.44371444 -0.96207124 -0.01263279 0.27250573 0.047331829
0.2000905 -0.14000547 0.44988951 0.99679059 0.066840835 -0.044055287 0.048235778
-0.10588191 -0.12393294 0.44079939 -0.96332377 -0.032610036 0.26635295 0.04476529
0.19808701 -0.12742594 0.44652027 0.99678773 0.068014309 -0.042288821 0.054058027
-0.098821163 -0.1113498 0.44797921 -0.93568188 -0.0056667551 0.35279924 0.037506897
0.19718568 -0.10989502 0.44900683 0.96964204 0.18238255 0.1628834 0.05240798
0.2081276 -0.1086346 0.44136149 0.97765183 0.19256984 0.084343575 0.048997439
-0.097955897 -0.072926767 0.4424096 -0.99003661 0.023346938 -0.13886148 0.060328506
-0.10017142 -0.066517524 0.44030327 -0.97816533 0.0094367107 -0.207614 0.059159592
-0.097217858 -0.066026486 0.44897553 -0.98407984 -0.01939466 -0.17666554 0.063339829
0.20358419 -0.06026572 0.44012281 0.99989021 -0.0065090246 -0.01331127 0.060309872
-0.097623728 -0.046912175 0.44963107 -0.9957965 0.091244422 0.0079893097 0.063252069
0.19281811 -0.047645029 0.44684291 0.99853319 0.010152397 0.053182859 0.071398117
-0.10109176 -0.034995969 0.44305226 -0.98203146 0.18508428 -0.036851384 0.068503633
-0.10276641 -0.004244938 0.44427714 -0.90511268 0.41773504 0.079174198 0.10946616
-0.097087562 -0.0080590276 0.44935703 -0.89082485 0.42357305 0.16436844 0.10238071
-0.10746676 0.0079220859 0.44407615 -0.89764667 0.42280135 0.12437607 0.11268806
0.1976009 0.0042219535 0.44111314 0.80644751 0.59121621 -0.010292057 0.15414575
0.077636451 0.015010995 0.44322154 0.01579611 0.99973309 -0.016859472 0.0024301785
0.10585544 0.01609087 0.44893396 0.10735711 0.99331015 0.042537164 0.016385311
0.14700575 0.012241257 0.44903189 0.35305682 0.93532795 0.022640325 0.087574273
0.18711025 0.016113499 0.44725949 0.62273818 0.77199322 0.12737194 0.127749
-0.083465979 0.02465274 0.44981849 -0.53609455 0.82989967 0.1544968 0.091998108
-0.071353748 0.02510855 0.44543526 -0.39715999 0.91300559 0.093192153 0.093828678
-0.044085614 0.024634633 0.44558617 -0.22986318 0.97071105 0.06987901 0.051327605
-0.0020481667 0.021853756 0.4444018 -0.041328367 0.99902576 0.015476824 0.010495079
0.01038715 0.022110764 0.4437547 -0.0080750808 0.999834 -0.016333675 0.0033881534
0.080554672 0.020166306 0.44053945 0.015104339 0.99976599 -0.01549013 0.0023989845
0.1064312 0.02413152 0.44364446 0.08209914 0.99590486 0.037858784 0.012043212
0.13612948 0.023938511 0.44843677 0.18345971 0.98216695 0.041117687 0.03390399
0.16184108 0.024415534 0.44091898 0.35072267 0.93645924 0.0061435164 0.086461999
0.079670943 0.03055081 0.44330579 0.015991027 0.99974245 -0.016102845 0.0024803244
-0.10148163 -0.26249826 0.45235854 -0.62314099 -0.73808849 0.25869051 0.13773441
-0.095021419 -0.26398677 0.45427477 -0.6220997 -0.73866856 0.25953946 0.12827574
-0.085064024 -0.26468676 0.45514625 -0.44576082 -0.87401611 0.19337311 0.11682761
-0.04161929 -0.26576719 0.45041659 -0.10919154 -0.9904651 0.084000602 0.038508572
-0.01007688 -0.26576719 0.4511984 -0.038821694 -0.99875802 0.031231152 0.0046051028
-0.0075577199 -0.26576719 0.45518717 -0.041137565 -0.9982686 0.042042091 0.0083452016
0.0044656019 -0.26576719 0.45212159 -0.021051262 -0.99967301 0.014517545 0.0016529488
0.13673158 -0.26576719 0.45583209 0.16519721 -0.98243558 0.086777262 0.051467869
0.17763568 -0.26816365 0.45575663 0.55719352 -0.79786843 0.2300898 0.10878959
0.18429838 -0.26502314 0.45439607 0.57517874 -0.78876084 0.21685411 0.10646783
-0.11462679 -0.25856048 0.45488352 -0.75299066 -0.58244747 0.30620265 0.14365304
0.19148976 -0.24919125 0.45010078 0.82978463 -0.51384258 0.21776909 0.1394026
-0.093170419 -0.1986344 0.45728594 -0.89516634 -0.030792728 0.44466737 0.048775975
-0.10249411 -0.13726667 0.45267376 -0.9479714 -0.051862136 0.31410271 0.041404739
0.19905742 -0.13452759 0.45160097 0.99658257 0.076383971 -0.031443831 0.04728191
-0.094324201 -0.1039466 0.45397881 -0.93774527 -0.019472852 0.34677738 0.034702104
-0.099767581 -0.089537308 0.45379367 -0.96561325 0.0047411844 0.25993958 0.045484848
-0.09658163 -0.070533395 0.45636401 -0.99815696 0.056960221 0.020934045 0.065623589
-0.096402735 -0.060292412 0.45531631 -0.99514055 0.061522696 0.076878801 0.075543456
-0.091458261 -0.031203847 0.45591831 -0.96360689 0.24797042 0.09986157 0.090149552
0.18596479 -0.01448378 0.45520541 0.88444722 0.42475516 0.19322582 0.13474354
0.19345349 0.0086522968 0.45062828 0.68796349 0.69932336 0.1940444 0.11970594
0.18470791 0.014219765 0.45602924 0.58734143 0.7860803 0.19263393 0.1062506
-0.082220495 0.025080664 0.45436585 -0.49311212 0.85720378 0.14846618 0.085959896
-0.04161929 0.024713719 0.45041659 -0.23238154 0.9687857 0.086331859 0.050728932
-0.010329924 0.024282804 0.45450425 -0.048470262 0.99761933 0.049054168 0.016417036
-0.0076769474 0.023499817 0.45363119 -0.04924069 0.99771714 0.046215322 0.016980452
0.0045966571 0.021959499 0.45187145 -0.049223717 0.99856329 0.021176571 0.013819851
0.13678549 0.022446433 0.45417133 0.19334769 0.97991359 0.048846837 0.032846358
-0.096136183 -0.26250413 0.46077839 -0.64070362 -0.70604104 0.3016704 0.12975757
-0.083958939 -0.26342088 0.46530858 -0.55993712 -0.761953 0.32541978 0.11139425
-0.073160954 -0.26484481 0.46510211 -0.34457842 -0.90712953 0.24162315 0.093209162
-0.060612723 -0.26615763 0.46472704 -0.27166811 -0.94008422 0.20600508 0.083872825
-0.059291694 -0.2662397 0.46544933 -0.2690042 -0.93984234 0.21055445 0.083466657
-0.002481282 -0.26576719 0.46267241 -0.051935304 -0.99756557 0.046537392 0.011382655
0.034697268 -0.26576719 0.46315241 -3.7590118e-05 -0.99999994 0.00043047193 1.3275986e-05
0.1241506 -0.26576719 0.46888971 0.11729138 -0.98422635 0.13244346 0.053472068
0.16964111 -0.26516879 0.46820927 0.57486045 -0.76492858 0.29055083 0.095860384
0.17504637 -0.26376849 0.46698403 0.59168583 -0.75322658 0.28732851 0.10622463
0.18254836 -0.26178738 0.46123639 0.61171973 -0.73294377 0.29764476 0.10945962
-0.094527595 -0.25645059 0.46177283 -0.63882774 -0.68764365 0.34502947 0.12318552
-0.084724098 -0.25947022 0.46937311 -0.57992613 -0.70818239 0.40269527 0.11257726
0.18180111 -0.25693634 0.46287721 0.62098181 -0.72211081 0.30485684 0.10752205
-0.081919551 -0.1961551 0.46946329 -0.82557076 -0.0061185211 0.56426543 0.032521598
-0.091883294 -0.18638289 0.46016586 -0.88057053 0.077146426 0.46759388 0.035694513
-0.088606387 -0.1724426 0.46451759 -0.89088529 0.0033733426 0.45421585 0.048878297
-0.08217907 -0.13245711 0.46572489 -0.85291719 -0.00083325407 0.52204555 0.026714284
0.1830586 -0.12687349 0.46764311 0.94739366 0.11019903 0.300502 0.048616122
0.18494229 -0.10871209 0.46121237 0.96113539 0.18809685 0.20208499 0.054088637
0.1752215 -0.053855389 0.4682152 0.95669979 -0.043464839 0.28781298 0.058780294
-0.084112048 -0.03454408 0.46833885 -0.86519068 0.1876968 0.46498924 0.057221249
0.18692717 -0.031477723 0.4604941 0.91553754 0.14786421 0.37406853 0.083364815
-0.085792437 -0.016273594 0.46110851 -0.87807852 0.3759611 0.29602608 0.087696262
0.1856301 -0.0155175 0.4611918 0.85764652 0.38650548 0.33919913 0.12100701
0.1695018 0.0099281007 0.4682118 0.53074324 0.82310897 0.20199814 0.092228815
0.17822981 0.014937255 0.4674477 0.52076077 0.82742363 0.2101865 0.090453997
-0.084986322 0.02587457 0.4659332 -0.51556671 0.82082909 0.24582654 0.080653474
-0.072501801 0.025102241 0.46133119 -0.38687977 0.90842646 0.15838397 0.070830874
-0.060516842 0.024077345 0.46538308 -0.30098224 0.94164085 0.15073898 0.05469422
-0.0022604803 0.022798857 0.46264297 -0.069194205 0.99689877 0.037483845 0.019452862
0.034697268 0.02638614 0.46315241 0.0072144251 0.99966413 -0.024891326 0.0027200487
0.12438272 0.021144791 0.46932223 0.15200995 0.98628694 0.064273626 0.020022633
0.13542676 0.021811577 0.46015444 0.20564632 0.97593862 0.072480537 0.03372249
-0.074616119 -0.26153216 0.47379601 -0.48328096 -0.78756803 0.38232985 0.10506924
-0.06836772 -0.26211065 0.47726101 -0.41615555 -0.8444975 0.33710316 0.10004286
-0.057894252 -0.26561573 0.47463992 -0.27850631 -0.92742068 0.24965033 0.084819905
0.025888899 -0.26576719 0.47122011 -0.009451787 -0.99994332 0.0049009891 0.00019724826
0.1120259 -0.26576719 0.4799259 0.12780033 -0.98354441 0.12770127 0.056315452
0.1217023 -0.26576719 0.473589 0.13708225 -0.98125803 0.13542962 0.058822285
0.14097634 -0.26578459 0.47782809 0.20964524 -0.95719266 0.19957747 0.059819233
0.15537287 -0.26575735 0.4741441 0.30711043 -0.92506087 0.22348513 0.070697673
0.16608995 -0.26466617 0.47609526 0.56516004 -0.75605661 0.33011004 0.091897897
0.17236494 -0.26305196 0.47353896 0.57266814 -0.75992966 0.30750316 0.097357452
-0.08947929 -0.24260759 0.47126356 -0.72176367 -0.48881304 0.49001944 0.10493408
-0.076637179 -0.16155772 0.47738498 -0.8593933 -0.02462749 0.51072168 0.040547907
-0.081822179 -0.15543331 0.47011074 -0.87328809 -0.019714944 0.4868052 0.040647909
-0.075491615 -0.14624937 0.47563407 -0.8244096 0.032991149 0.56503141 0.026259821
-0.06986253 -0.13404112 0.47994986 -0.84696192 -0.025950007 0.53101999 0.026250539
-0.074895561 -0.1135438 0.47687569 -0.88646984 -0.021295093 0.46229619 0.03352081
0.1750126 -0.1153973 0.47708499 0.85106629 0.041942038 0.5233804 0.038870286
0.16705675 -0.090582907 0.4792172 0.85477865 0.0097753974 0.51890081 0.037690602
0.17084497 -0.081184432 0.47653976 0.89284247 0.020597074 0.44989783 0.052541923
0.1704683 -0.077864259 0.47186029 0.93124974 0.04314848 0.36181796 0.061684575
0.1707263 -0.05654287 0.47213751 0.94262856 -0.026533198 0.33278748 0.058389183
0.17924242 -0.043308366 0.47447765 0.85657078 0.075092748 0.51053673 0.044890143
-0.076840244 -0.021176321 0.47135809 -0.84909517 0.28794989 0.442857 0.073437437
0.16395897 -0.026767552 0.47488692 0.77468836 0.32637462 0.54160649 0.093302704
0.16633761 -0.012137961 0.47544944 0.72820014 0.47160846 0.49730271 0.11333327
0.11196821 0.014158364 0.47997671 0.14724644 0.98745537 0.05701201 0.023095775
-0.067103803 0.024017038 0.47105667 -0.33836871 0.9245913 0.17503591 0.061174497
-0.058201723 0.021719502 0.47455662 -0.33073765 0.92185766 0.20196803 0.060631946
0.026078846 0.027006241 0.47130975 -0.023559028 0.9997102 -0.0049566613 0.011846843
0.12479681 0.021745898 0.47659224 0.16526926 0.98382074 0.069158532 0.024210192
0.14098062 0.023711283 0.47781241 0.22840206 0.96722573 0.11093652 0.035385113
-0.062285215 -0.26253325 0.48348802 -0.34474307 -0.88184291 0.32172239 0.084504023
-0.056191027 -0.264633 0.48603615 -0.23863362 -0.93548506 0.26061797 0.069244877
-0.016261039 -0.26576719 0.48598799 -0.18876734 -0.9671064 0.17050549 0.060321454
0.0033618209 -0.26576719 0.48313811 -0.073461697 -0.99225193 0.10019726 0.020740524
0.016982339 -0.26576719 0.4886198 -0.063570902 -0.99505383 0.076332845 0.020644302
0.025750101 -0.26576719 0.486996 -0.066376105 -0.99555135 0.066871285 0.022532731
0.03087613 -0.26576719 0.48062411 -0.010045971 -0.9998216 0.015995702 0.0013809125
0.06493023 -0.26576719 0.48505744 0.028063772 -0.99925917 0.026334796 0.0077811908
0.084453903 -0.26576719 0.48804411 0.10353607 -0.99140757 0.079945371 0.038852878
0.1266817 -0.26576719 0.48045301 0.18628609 -0.96672183 0.17534636 0.073034145
0.14507906 -0.26557907 0.48218235 0.23818803 -0.94584793 0.22054099 0.066959485
0.15605944 -0.26450357 0.48543131 0.31834254 -0.90906316 0.26881641 0.065310955
0.16340041 -0.26333588 0.48652592 0.39088726 -0.86284637 0.32047361 0.069321461
-0.071667895 -0.25218317 0.48395678 -0.5866186 -0.64624 0.48811111 0.095105521
-0.075034782 -0.24959378 0.4802261 -0.62012762 -0.61086094 0.49223024 0.105584
0.1600311 -0.22359785 0.48769116 0.76231617 -0.30256543 0.57212609 0.062635928
0.16544546 -0.20501412 0.48663244 0.78200859 -0.18063855 0.59651691 0.045769457
-0.06902986 -0.16006659 0.48558366 -0.79677916 0.038108561 0.60306782 0.023455292
-0.069900662 -0.14940935 0.48297295 -0.82148099 0.022694867 0.5697841 0.026502004
-0.064284615 -0.12028453 0.48358566 -0.82329571 -0.0063715726 0.567577 0.02246912
-0.064924657 -0.1074836 0.48254001 -0.82274091 -0.0052906065 0.56839204 0.022932325
0.1641947 -0.097663581 0.48146439 0.83740586 0.0059723826 0.54654902 0.034584478
0.15580712 -0.070583791 0.48711967 0.7484076 0.018772261 0.6629734 0.0065646605
0.1553584 -0.01662958 0.48887581 0.72641736 0.37570381 0.5754689 0.085231498
-0.059241485 -0.0020732787 0.48475301 -0.50591767 0.75874007 0.41031802 0.084196799
-0.056901842 0.0041943085 0.48721451 -0.48569047 0.77995294 0.3946875 0.080924362
-0.055051196 0.017204085 0.48522967 -0.35424462 0.88801372 0.29315946 0.06740135
-0.056058004 0.022382479 0.4817186 -0.34903082 0.89933586 0.26338676 0.068762429
0.0034808367 0.029103968 0.48343328 -0.11140313 0.98787779 0.10810598 0.033455882
0.016926667 0.026682146 0.48874998 -0.081962332 0.99511546 0.055021584 0.025183618
0.025945133 0.026197694 0.48698676 -0.061720736 0.99725306 0.040949803 0.018089281
0.03091697 0.02618942 0.48057449 -0.040407345 0.99904281 0.016756602 0.011781798
0.055916712 0.02501763 0.4884612 0.02783851 0.99958211 -0.0077882959 0.0021628048
0.064545557 0.023740929 0.4859826 0.037894215 0.99928045 0.0016380673 0.0029359565
0.084442012 0.021425812 0.48782468 0.052069675 0.99850595 0.016571932 0.0040997704
0.1302738 0.021679478 0.48997763 0.1835783 0.97992748 0.077725068 0.027228333
0.14509052 0.023769855 0.48202235 0.23865563 0.96398836 0.1173456 0.037358195
0.1594253 0.02524039 0.48070449 0.31117037 0.93846321 0.14986621 0.04340471
-0.055213396 -0.2620427 0.49151015 -0.30576751 -0.88292223 0.35630688 0.079737261
-0.045843799 -0.26498231 0.49612796 -0.21442927 -0.93425441 0.28493655 0.067519985
-0.038836818 -0.26636675 0.49222189 -0.2000452 -0.94930929 0.24247433 0.069485553
-0.0088357627 -0.26576719 0.49293119 -0.1460871 -0.97668904 0.15728034 0.054128785
0.023862779 -0.26576719 0.4977718 -0.082657315 -0.99472111 0.06080826 0.022527125
0.032239079 -0.26576719 0.49796209 -0.073000073 -0.99577093 0.055778392 0.021198079
0.077228777 -0.26576719 0.49440259 0.06552121 -0.99576914 0.064427227 0.022288736
0.083282679 -0.26576719 0.49601489 0.1065843 -0.99040306 0.08798667 0.038755618
0.12857234 -0.2653839 0.49065107 0.22200638 -0.95793009 0.18188782 0.073193446
0.13042839 -0.26544687 0.49026775 0.21705945 -0.95701432 0.19237682 0.076823324
0.14477532 -0.26312757 0.4956094 0.30390149 -0.91077524 0.27952185 0.078893557
0.15163255 -0.26239181 0.49562883 0.35332814 -0.87788785 0.32322153 0.084339976
0.16242501 -0.26285845 0.49179208 0.41783124 -0.82903671 0.37163854 0.071813889
-0.057466198 -0.25109276 0.49869308 -0.50761265 -0.68376273 0.52421188 0.098395579
0.14587092 -0.22170638 0.49969921 0.67148429 -0.5217489 0.52620041 0.10313334
-0.058804482 -0.21362381 0.49648449 -0.71324879 -0.13153353 0.68845844 0.031566981
0.15151337 -0.21122299 0.49750677 0.76151836 -0.26846156 0.58993071 0.068174668
-0.063155524 -0.20506451 0.49159518 -0.7404477 -0.097063065 0.66506845 0.023335183
0.1636655 -0.19920909 0.49269989 0.76202106 -0.076265723 0.64304549 0.016335715
-0.060991459 -0.1448767 0.49444541 -0.73291594 0.026552152 0.67980093 0.0018783461
0.15190741 -0.0823953 0.49727356 0.72238064 0.040018022 0.6903367 0.0023919223
0.14284451 -0.070231676 0.49997041 0.72227412 0.033524681 0.69079387 0.0023972229
