# .PCD v0.7 - Point Cloud Data file format
VERSION 0.7
FIELDS x y z
SIZE 4 4 4
TYPE F F F
COUNT 1 1 1
WIDTH 1028
HEIGHT 1
VIEWPOINT 0 0 0 1 0 0 0
POINTS 1028
DATA ascii
0.033624601 -0.1087006 0.27724069
0.025636289 -0.085685022 0.2860716
0.017774209 -0.088507801 0.30185521
0.084140413 -0.0067590768 0.31763929
0.06313251 -0.068146721 0.28996509
0.032293141 -0.053055149 0.28537789
0.1060714 -0.001037374 0.33419099
0.034963962 -0.1713912 0.2818298
0.0084974766 -0.1221308 0.30844161
0.0061426391 -0.1648269 0.31076199
0.0110855 -0.1368522 0.30454549
0.01482371 -0.2057147 0.3017315
0.0080121011 -0.13111021 0.30795041
0.015955299 -0.146311 0.30221221
0.008686997 -0.1740382 0.30780721
0.040955778 -0.114631 0.27369961
0.02840317 -0.15065581 0.28273079
0.01000744 -0.1791257 0.3060813
0.02174251 -0.2008547 0.2929616
-0.004512351 -0.23913141 0.31779799
-0.0051427521 -0.22940619 0.31826439
0.03057641 -0.15843619 0.2848317
0.037905332 -0.2149777 0.27921331
0.049264051 -0.2231717 0.27676249
0.098539881 -0.0039680381 0.3219009
0.069672249 -0.2191243 0.28894731
0.023110131 -0.2162504 0.29236761
0.066080473 -0.087717094 0.29376671
0.070631549 -0.2164409 0.2912226
0.1014375 -0.1152659 0.32385859
0.052147228 -0.02223745 0.27728859
0.0142842 -0.20238531 0.3010684
0.079478793 -0.2196072 0.29998559
0.1090165 -0.1267989 0.33723399
0.069311082 -0.16623969 0.29297799
0.060046721 -0.2010757 0.27974471
0.03551726 -0.1133691 0.27733779
0.1093092 0.0036802141 0.3314684
0.065049358 -0.040488608 0.2941635
0.08676248 -0.0050377701 0.314733
0.06140152 -0.1721117 0.2857168
0.089369707 -0.033631358 0.3110989
0.1065521 0.007536903 0.3342146
0.090796828 -0.060345888 0.31877679
0.055267729 -0.054796431 0.28157011
0.098970637 -0.2045528 0.31755981
0.1014582 -0.1180411 0.32332179
0.071825713 -0.20553529 0.2932516
0.1130283 0.0048025101 0.33512661
0.099843264 -0.0058341511 0.31768471
0.08607956 -0.018304961 0.3141107
-0.01532127 -0.21309561 0.32907331
0.084353462 -0.018067131 0.3164854
-0.006331841 -0.1888116 0.31659701
0.1436647 -0.042212069 0.3651624
0.1080764 -0.246592 0.3251546
0.14988589 -0.02603633 0.37292591
0.022278219 -0.2381243 0.28970271
0.099094659 -0.081240579 0.32282549
0.06583821 -0.1930625 0.29207301
0.1087616 -0.22892959 0.33202109
0.2004997 0.01915076 0.42623499
0.033738799 -0.1204872 0.27822569
0.2009909 0.01952664 0.42654189
-0.1036573 -0.17981011 0.42139331
0.23875199 -0.26026821 0.45727801
0.18827491 -0.14592309 0.41012779
0.1992209 -0.081037477 0.416641
0.1884788 -0.2282953 0.40742591
0.18309949 -0.17525411 0.40302789
0.2040703 -0.2428354 0.4229829
0.17183959 -0.2555767 0.3894718
0.1771656 -0.1944838 0.3951683
0.20110869 -0.2087678 0.42020419
0.174527 -0.2077655 0.3900561
0.13974939 -0.1874868 0.3648971
0.1527534 -0.2221628 0.37302041
0.1153506 -0.2385623 0.32706311
0.1236942 -0.229747 0.3418799
0.1553714 -0.2159449 0.37166291
0.082859397 -0.25352931 0.30046681
0.1155196 -0.24577419 0.33079171
0.1760572 -0.083977327 0.39994511
0.1888434 -0.22734471 0.40679869
0.19367731 -0.2423137 0.41150761
0.1588538 -0.1890132 0.37939599
0.1861237 0.0069582309 0.40727559
0.1868487 -0.03751019 0.40766591
0.1821034 -0.090207778 0.4027203
0.16908491 -0.047812369 0.3963716
0.1996766 -0.02577661 0.42141339
0.1566603 -0.0222835 0.3820937
0.1014834 -0.1187448 0.33136761
0.13564201 -0.024527561 0.3668451
0.1140807 -0.03421057 0.34756669
0.1165463 -0.032080561 0.3455697
0.15203729 -0.1102569 0.3803952
0.1056878 0.00016058241 0.3307108
0.14137881 -0.021212989 0.36799529
0.1002271 -0.0052612652 0.32808051
0.1530329 -0.159877 0.37998521
0.15475971 -0.02305508 0.38781449
0.1666459 0.020759899 0.39605349
0.164749 -0.01077904 0.3940042
0.1898507 0.01441754 0.42295691
0.1849912 0.0067761992 0.41576451
0.1364993 -0.026766971 0.37162799
0.1029799 0.001248017 0.33709189
0.1018531 -0.0090692341 0.327732
0.13902511 -0.021816419 0.37094349
0.085519947 0.002460524 0.31862259
0.088883892 -0.03120649 0.31735599
0.09142819 0.021001181 0.32317021
0.063997693 0.01370393 0.39771861
0.1016336 -0.1210473 0.33496511
0.05803458 -0.165479 0.28923839
0.06685032 -0.1004181 0.302183
0.03103018 -0.2144171 0.2743977
0.067795783 -0.1675586 0.2992582
0.046114892 -0.1360784 0.27734041
0.01374772 -0.2364841 0.30957979
0.01254392 -0.20639031 0.3071534
0.06122962 -0.1866188 0.29322681
0.1065472 -0.075988129 0.33510181
0.093513884 0.0099378973 0.32280421
0.063633397 -0.1044272 0.3018451
0.078196213 -0.048398759 0.31369999
0.060442369 -0.1718317 0.29311839
0.025750101 0.022834031 0.486996
0.1318457 -0.016505839 0.36771089
0.047925521 0.02260061 0.4298524
0.03522465 -0.2089694 0.27398559
0.12885 0.0083808601 0.35924959
0.078424379 0.022746321 0.31167659
0.1243035 0.0057705939 0.3518208
0.1273706 0.01332279 0.36050859
0.09702152 0.021530639 0.39921519
0.1112407 0.019306591 0.3427861
0.08854799 0.019207019 0.52425963
0.1379827 0.018076429 0.37462741
0.063830361 -0.089203186 0.3033686
0.12566879 0.02230826 0.35986519
0.053114839 0.02435611 0.54588407
0.1026534 0.019581361 0.3373633
0.069054648 0.02476925 0.37797549
0.04007471 -0.0083327517 0.2820299
0.0277065 0.003337651 0.29774761
-0.021602741 0.0070325881 0.35027471
-0.02425706 0.02110167 0.3414852
-0.0077896561 -0.047324311 0.32790369
0.059536159 -0.1607891 0.28295279
0.052886691 -0.02166005 0.28130609
0.061327361 -0.1872831 0.2954427
0.01386773 -0.2132445 0.31906611
0.17889971 -0.086497784 0.39528671
0.01556674 -0.091171078 0.30622649
0.1142868 -0.03074524 0.35006589
0.1556903 -0.2247296 0.37496829
0.098267123 -0.0054303412 0.32895139
0.088372529 -0.06152517 0.32368791
0.20523269 -0.26051721 0.4262045
0.1063182 -0.078410089 0.3405607
0.129245 -0.05464473 0.36265031
0.15840741 -0.062861107 0.38751721
0.15415169 -0.15969069 0.37821701
0.1071168 -0.036880851 0.3417328
0.1163683 -0.065271758 0.34647739
0.1666794 0.01907384 0.40047649
0.1453077 -0.041499302 0.37189811
0.18044271 -0.1767019 0.40755251
0.1234163 -0.056286041 0.3542271
0.1921207 -0.2441173 0.4173114
0.18734729 -0.2294744 0.4136056
0.1747586 -0.1996208 0.40505549
0.19791301 -0.1381602 0.4212459
0.19353481 -0.093044162 0.41612631
0.19794279 -0.083728127 0.42648759
0.16194931 -0.25934431 0.38140649
0.1509693 -0.20485529 0.38382611
0.091190413 -0.075235978 0.32074019
0.1999345 -0.093711093 0.43245551
0.1555322 -0.023101689 0.38638341
0.1657984 -0.1984309 0.3916457
0.1839322 -0.25942639 0.40864959
0.2047288 -0.2464665 0.43322489
0.1498882 -0.1622619 0.37665471
0.1034421 0.0054300581 0.33325991
0.154237 -0.15893149 0.38154179
0.1842038 -0.23870359 0.40683731
0.1536772 -0.25686279 0.37922761
0.1937028 0.0069684829 0.42465031
0.19117761 -0.1145698 0.41647619
0.1969004 0.018579191 0.4338598
0.18603741 -0.25612211 0.4148128
0.1018587 0.035531402 0.52296728
0.1837004 -0.1459069 0.4101139
0.103852 0.0026540461 0.3366017
0.1663361 -0.039238561 0.39130101
0.1374602 -0.019270429 0.37155831
0.1991432 0.0053980802 0.42094341
0.191902 -0.097576506 0.4142783
0.1848439 -0.22912019 0.40942481
0.19139791 -0.2227111 0.41294879
0.1901799 -0.1390976 0.4175705
0.1721973 -0.1575941 0.39135161
0.2055975 -0.25791869 0.43528551
0.1535942 -0.046605989 0.39064029
0.1157526 -0.1354754 0.33962271
0.17419019 -0.1924489 0.4057391
0.1218603 -0.02707386 0.35108411
0.1091023 -0.073362283 0.33347499
0.17123391 -0.24534971 0.40758631
0.1880428 0.01196654 0.41204911
0.17826159 0.021107441 0.42546049
0.1558786 -0.065704152 0.38793221
0.1329775 -0.1185018 0.35964179
0.13269 -0.049237501 0.35804161
0.1146647 -0.034527529 0.34322721
0.1871502 0.01240352 0.423219
0.17226291 -0.1714793 0.38978219
0.1422344 -0.06707795 0.37205091
0.094334081 0.0239846 0.3306697
0.1327302 -0.089659907 0.37461171
0.16478761 -0.0096591413 0.39837861
0.090104513 -0.082174912 0.31837019
0.086898863 -0.072585568 0.32307041
0.158227 -0.2013464 0.37825939
0.1054034 -0.03577663 0.33557951
0.093719073 -0.087002739 0.32450879
0.1730929 0.01558681 0.4005464
0.190954 0.0088248998 0.4111495
0.16257469 -0.0001387447 0.38714719
0.1013388 0.022708479 0.52951437
0.050184771 0.020879811 0.5803386
0.16614109 -0.01006302 0.39473119
0.07578367 0.022836691 0.55433422
0.1053286 0.02519691 0.50862843
0.14336561 0.01525018 0.4061324
0.152931 0.02117404 0.39976591
0.083282679 0.026723679 0.49601489
0.1362713 0.02298918 0.45256421
0.1383349 0.02191958 0.41136679
0.1253929 0.021855921 0.3607479
-0.0088357627 0.02763385 0.49293119
0.1080849 0.025312191 0.37950751
0.025888899 0.026164981 0.47122011
-0.04457422 0.025279021 0.49816889
0.02491769 0.02025336 0.33525461
0.05318534 0.022903441 0.56493682
0.0092619658 -0.1230409 0.3066833
0.01685125 0.02269059 0.4217405
0.028091161 0.022584019 0.32013771
-0.045803841 0.025517549 0.42913541
0.1003304 0.020778811 0.38946399
-0.05923498 0.026469801 0.4653993
-0.083272293 0.026613209 0.44958249
0.037619501 -0.15260971 0.27833581
0.0044656019 0.020725129 0.45212159
-0.005738318 0.02381465 0.45722681
0.06244551 0.0094088614 0.29734561
-0.082754403 0.025858071 0.4159666
0.1067597 0.02217057 0.40005299
0.13232221 0.02479321 0.42252621
0.0181002 0.01895022 0.39647219
-0.071240313 0.02380687 0.4455198
0.084453903 0.02088299 0.48804411
0.0292823 0.02356106 0.3913134
0.041450169 -0.20642769 0.28695491
0.031080719 -0.0040854812 0.28805321
0.1669486 0.02200979 0.3978909
-0.027066231 -0.1008125 0.3495107
-0.033318371 0.02247444 0.41562799
-0.086673677 -0.122677 0.41780159
0.043019611 0.02255014 0.28772229
-0.00045667589 -0.155159 0.31790939
-0.048942331 0.028957751 0.38649079
0.029296311 0.02606714 0.40142739
0.036866792 -0.1798384 0.28474799
0.15598761 0.02605379 0.41961929
-0.017903021 -0.2464962 0.33710471
-0.07675302 -0.08054629 0.40279919
0.0029892621 -0.18768381 0.3131448
-0.0083877146 0.01970044 0.4156746
0.02634019 0.01596427 0.3961935
-0.043653101 0.022381449 0.41844299
0.1217023 0.023564041 0.473589
0.095119521 0.02354705 0.40990549
0.069319613 0.02410173 0.51756233
0.1617842 0.024847301 0.44091329
-0.088254653 0.023330839 0.4302904
-0.01366358 -0.023019049 0.33539689
-0.07200098 0.01618728 0.40244141
-0.072480738 -0.14271981 0.38964209
-0.092284858 -0.2241189 0.40980861
-0.080798388 -0.1790154 0.39997509
-0.01300836 -0.016745539 0.3345359
-0.080729008 -0.1901242 0.40304771
0.038515151 -0.0084117046 0.28575939
0.1594253 0.02524039 0.48070449
-0.033250049 -0.01332417 0.36004001
-0.091417968 -0.069519937 0.41622609
0.0062042549 0.019353479 0.40101391
-0.019884011 0.006208539 0.34630939
-0.06430757 0.01337966 0.39289901
-0.03040291 -0.043539379 0.35354379
0.03791175 0.02123001 0.33339459
-0.1051874 0.02218589 0.43846551
0.1363194 0.01991117 0.45894691
0.077617779 0.024267821 0.43048641
0.064544767 0.021482831 0.50527132
0.099089339 -0.15165029 0.32317191
0.03087613 0.02792594 0.48062411
0.035184018 0.017671941 0.33453289
0.03988206 0.023867911 0.29981509
-0.096584983 -0.03685588 0.42789209
-0.078467667 -0.032291502 0.4080869
0.033979371 0.02347466 0.30681419
-0.055911049 0.0236322 0.38689479
0.03692998 0.02407423 0.50155568
-0.060652848 -0.062498119 0.38929179
-0.085659377 -0.1532027 0.40955541
-0.072669677 0.023335369 0.396696
-0.068491459 -0.05894655 0.3901898
-0.098818809 -0.1490752 0.420028
-0.050812181 -0.038337082 0.37762809
-0.094396591 -0.087179571 0.42327419
-0.032001439 0.02424705 0.36023089
0.04820599 0.026203509 0.28545451
-0.03101211 0.024189889 0.4332034
-0.0086652189 0.029752521 0.45486379
0.0087755919 -0.1244133 0.30992201
-0.017378621 -0.1236265 0.33654219
-0.071555853 -0.1533588 0.39288279
0.0083916783 -0.1652308 0.30945069
-0.071941778 -0.1768654 0.3917844
-0.022382339 -0.21689621 0.33823699
0.044090509 -0.1373249 0.28221771
0.01482631 -0.23117021 0.30225751
0.01279608 -0.1995073 0.30341211
-0.1069674 -0.203905 0.442765
-0.0083007067 -0.2294828 0.31934401
0.008367829 -0.13776331 0.3106744
0.0077976659 -0.1531191 0.3114084
-0.03506596 -0.002772301 0.3719064
-0.0097918659 -0.1457985 0.32657471
-0.04936355 -0.03424105 0.37765539
0.072435498 -0.2262526 0.30033281
-0.059796911 -0.045981791 0.38379329
-0.019808199 -0.17996889 0.33310241
-0.084003873 0.01102754 0.4153755
0.057213891 0.022700701 0.3773917
0.03029616 -0.1408153 0.28930661
0.1287647 0.01123938 0.35707891
0.070759617 0.0247024 0.37624171
0.130439 0.02399924 0.49027911
0.031435531 0.007051677 0.29130509
0.1149253 0.02201071 0.42584279
-0.038451359 -0.2486729 0.35370949
0.1683941 -0.026105341 0.39516711
0.040917251 -0.1864102 0.28805149
0.02620649 0.021183191 0.29972041
-0.04161929 0.024713719 0.45041659
0.046393309 0.0247637 0.5009377
0.098366633 0.02182785 0.37611699
-0.049631041 -0.05678409 0.37557501
0.021536861 -0.2140763 0.29503179
-0.018608799 -0.1661633 0.3343502
-0.01009984 0.022944059 0.35090491
0.02209628 -0.2387595 0.29444689
-0.051479019 -0.247436 0.36518469
0.034697268 0.02638614 0.46315241
-0.01159805 -0.04880235 0.33688661
-0.085362293 -0.059714202 0.41322079
-0.1007812 -0.14395089 0.44260839
0.05731656 0.022256341 0.2943919
-0.059814949 -0.1150027 0.37772319
-0.02060819 -0.0093480349 0.34328869
-0.091776073 -0.0059981639 0.41703311
-0.029445911 -0.00075221062 0.3561807
0.02839054 -0.01316422 0.29008561
-0.01022038 0.02236009 0.3356469
0.0558847 0.02194312 0.35048449
0.0095642284 0.02662742 0.31475231
-0.097470157 -0.1159408 0.42664811
0.01632827 0.028967051 0.52131528
0.2026343 -0.02950922 0.42380679
0.1484336 0.021070451 0.43750891
-0.0042714481 0.01767212 0.43638229
-0.017231051 -0.025574271 0.33824611
-0.042542279 0.02384853 0.37674811
-0.079815 0.02193832 0.42265859
0.049820241 0.0223985 0.59113491
-0.075164497 0.027811879 0.43109739
-0.1029531 -0.20910899 0.45161259
-0.066670358 0.03077754 0.47204509
0.1038057 0.02057025 0.43631729
0.016966339 0.01677257 0.32618079
-0.045777861 0.0228281 0.4945493
-0.03875944 0.02551493 0.49212
-0.085027188 0.02630353 0.4658868
-0.027068321 0.020547779 0.35689151
-0.0161677 0.024333719 0.3468183
-0.0092737079 -0.13345329 0.3399508
-0.039036151 0.01479036 0.3642756
-0.028071521 -0.028752301 0.35533759
0.1071765 0.022391049 0.52397048
-0.057836682 0.0079064667 0.49249619
0.028820099 0.01894453 0.30493891
-0.1067675 -0.14277589 0.44487461
-0.064116299 -0.047272772 0.38728881
-0.065610766 -0.03977159 0.39834839
-0.027303699 -0.1570521 0.35043031
0.070904143 0.01830068 0.52646059
-0.080834508 0.022757949 0.43810681
0.0040370822 0.02572057 0.51814097
0.079777062 0.02472141 0.52797329
-0.058615621 -0.002092808 0.4842968
-0.1098763 -0.089489788 0.43777901
-0.096433997 -0.1034696 0.42049071
-0.055656761 -0.1242566 0.49181631
-0.085348189 -0.062419031 0.41876891
0.01022565 -0.0043973331 0.55359697
-0.094624579 -0.25260511 0.43049449
0.001869291 -0.07300809 0.55479228
-0.093605518 -0.1659209 0.4196974
0.1319128 0.018583771 0.4492121
0.122592 0.018288171 0.42837459
-0.01007688 0.017334551 0.4511984
-0.1008984 -0.066829771 0.4405745
0.02637193 0.0068606441 0.57514
-0.0552026 -0.055185288 0.48859209
-0.061619431 -0.20514309 0.49016121
0.031468332 -0.1229644 0.57741302
-0.097337157 -0.1966808 0.46012661
0.0330199 0.03297374 0.57321239
-0.03604275 0.02470744 0.51079929
-0.08506453 0.01205045 0.41583821
-0.1021504 -0.1371987 0.4525857
-0.031410038 -0.042321771 0.51566619
-0.033586409 0.023078499 0.37009051
0.02172089 -0.080652587 0.5701555
-0.082942717 -0.090124458 0.4639979
-0.1019309 -0.034783449 0.44294849
-0.060991459 -0.1448767 0.49444541
-0.085173607 -0.016316621 0.4606005
0.024579789 -0.1674258 0.57443547
-0.01515597 -0.1874028 0.53557062
-0.081919551 -0.1961551 0.46946329
0.01257616 -0.2480751 0.56871021
-0.05780625 0.025061579 0.43360409
-0.108878 -0.049814671 0.43691829
-0.00089758629 -0.061326802 0.54881322
0.01652056 0.02373782 0.56763941
-0.0045985281 -0.1494685 0.54908192
-0.052868068 -0.039205998 0.49659511
-0.017632511 -0.1705697 0.54153723
-0.1038107 -0.004824698 0.44514519
0.037928041 -0.1544655 0.5814749
-0.08217907 -0.13245711 0.46572489
-0.1030341 -0.01779804 0.4340159
-0.0040932889 -0.2498668 0.55371529
-0.01554084 -0.231667 0.53927338
0.03159963 -0.1934859 0.58278078
0.03608023 -0.2546587 0.59338927
0.1060442 0.016116381 0.44891971
-0.01901776 -0.071607709 0.52377552
-0.03490603 -0.1451713 0.517138
-0.098821163 -0.1113498 0.44797921
-0.05437937 0.016579241 0.4883045
-0.017327961 -0.0068432991 0.52345228
-0.098145783 -0.219643 0.44029379
-0.031236229 -0.0081323683 0.51363641
-0.100975 -0.089616507 0.45602009
-0.03806987 -0.01061067 0.51203948
-0.074895561 -0.1135438 0.47687569
-0.01541793 -0.047327161 0.53521663
-0.039448138 -0.059647441 0.50864172
-0.01486978 0.015729729 0.52881438
-0.052628521 -0.1977431 0.50493872
-0.030728331 -0.23356099 0.52808642
0.066749632 0.01948637 0.48395839
-0.00095462799 -0.2176673 0.55246729
-0.094834879 -0.060038 0.45487261
-0.099353023 -0.04685026 0.45079389
-0.058302041 0.00038927791 0.48506999
-0.094774961 -0.072006881 0.44143561
-0.088923447 -0.24232601 0.4704735
-0.088606387 -0.1724426 0.46451759
-0.043259919 -0.1478883 0.5045892
-0.074472308 -0.146465 0.47448349
0.01987721 -0.0062302048 0.56588238
-0.094324201 -0.1039466 0.45397881
-0.037305038 0.0081685781 0.50972629
-0.073985279 -0.022526469 0.46904811
-0.0071561779 -0.069054224 0.5409677
-0.02673912 0.02615994 0.50296217
-0.1077398 -0.1236429 0.44200629
-0.064924657 -0.1074836 0.48254001
0.0347929 -0.1109859 0.58622962
-0.036739711 0.0210332 0.42315131
0.1120259 0.01405826 0.4799259
0.053283099 0.01320052 0.6010682
-0.02986726 -0.077408373 0.5215072
0.02786842 -0.1631729 0.57940841
-0.048576791 0.0077803731 0.49723369
0.041937899 -0.1064647 0.58062309
0.01206768 -0.01336354 0.56334949
-0.0251956 -0.1163015 0.53068572
-0.029323161 0.0056283181 0.52263898
0.026521349 -0.21184111 0.57409072
-0.032005548 -0.22933459 0.52132678
-0.038905799 -0.1933118 0.52110553
0.017955041 -0.1401269 0.57200468
-0.072058618 -0.25226009 0.48428819
-0.08384195 -0.1552297 0.47220331
-0.06120101 -0.2135012 0.49872169
-0.054316401 -0.01264724 0.49174741
-0.028042531 -0.053649191 0.52341348
0.067098558 0.019580569 0.3309674
0.02499396 -0.05970991 0.56869388
-0.1051815 -0.1456423 0.43363139
-0.02319455 -0.03191185 0.53274721
0.02702044 -0.087235957 0.57798833
-0.1062195 0.0092472136 0.44777191
-0.02837202 -0.19974419 0.53144997
0.02954156 0.01119021 0.58040041
0.081650972 0.018008379 0.3242546
-0.0042616129 0.01432186 0.3777701
0.070370384 0.021947321 0.3483026
0.058322191 0.019303709 0.31616929
-0.02273345 -0.1471848 0.3401387
0.01319259 -0.06687969 0.3068721
-0.082013428 -0.047342841 0.41380799
0.1364765 0.023665611 0.45992371
0.1882764 0.01919076 0.4356539
0.220783 0.00093373662 0.42890051
0.077228777 0.019977961 0.49440259
-0.027805829 0.0262965 0.51673752
0.037460949 0.023254421 0.58599073
0.076496303 0.01515406 0.44331929
-0.044051409 -0.1815998 0.5127573
-0.041730821 -0.1755227 0.51273203
0.01951329 -0.069168977 0.56721228
-0.047359411 -0.16260719 0.50478578
0.049609479 -0.1003856 0.58869618
-0.076410592 -0.1616365 0.47702301
-0.05118734 -0.016780561 0.4960281
-0.032335639 -0.0073010921 0.36498481
-0.064233012 -0.246113 0.37998629
-0.064591169 -0.1202828 0.48405901
-0.086611331 -0.0023365021 0.42040369
0.00889045 0.020442611 0.3934207
-0.018492799 -0.22632959 0.53718418
0.0352518 -0.2011949 0.28915691
-0.1103569 -0.1742541 0.44493389
-0.085015766 -0.03403005 0.4694193
0.017756021 -0.1737823 0.57045817
-0.0117783 -0.12935971 0.54078221
0.02704774 -0.017006841 0.57580411
-0.1039992 -0.1602174 0.44562009
-0.096325673 -0.0076833959 0.44880459
-0.072108567 -0.02098551 0.48068729
0.032078389 -0.14437179 0.28686249
0.020148691 0.01109034 0.56989431
-0.069702931 -0.1340657 0.47981051
0.04169381 -0.2474627 0.59247053
-0.099465907 -0.066516548 0.44973779
0.0063445792 -0.1777616 0.55673659
0.003298104 0.01000777 0.32227889
-0.048751891 -0.25047749 0.50737083
-0.1016834 -0.20252851 0.4447023
-0.06570828 -0.085351199 0.487831
-0.01400787 -0.15662891 0.5443939
0.04633069 -0.2267921 0.59211648
0.0096438527 -0.1260372 0.5571115
-0.024748441 -0.1655857 0.5315488
-0.067179069 -0.1602447 0.48415959
-0.0259012 -0.033593211 0.52218747
0.033932209 0.01085842 0.39916939
0.1552207 -0.004484057 0.33000109
-0.038042549 -0.006845593 0.36822599
0.01043248 0.0203855 0.44399509
-0.095657349 -0.13142709 0.4221023
-0.027058121 -0.18034799 0.35154289
-0.084770679 -0.01562524 0.41889369
-0.1015326 -0.23045909 0.43038511
-0.05839717 -0.17837059 0.37979391
-0.054188911 -0.15214209 0.37627459
-0.093909167 -0.070992678 0.45589989
-0.074549139 -0.1131693 0.4029673
0.023862779 0.02722016 0.4977718
0.01439697 0.023609219 0.4896358
-0.01137936 0.02362561 0.51023912
0.021003431 0.02844161 0.51843601
0.006912529 0.02294651 0.5065009
0.053926568 0.02413192 0.48629451
0.044352408 -0.037638519 0.58307987
-0.02409271 -0.03183201 0.53070509
-0.03005445 -0.1032675 0.52143759
-0.044370789 -0.1112169 0.50869638
0.05317181 -0.1074332 0.58225018
-0.0098850727 -0.093051523 0.54038441
-0.069132611 -0.14951511 0.48228061
-0.049221579 -0.21014699 0.50244761
0.02105136 -0.24020571 0.57431853
-0.098438799 -0.2177926 0.4354358
-0.074294552 -0.2493341 0.47972021
-0.057561278 -0.22953831 0.37592649
-0.043835908 -0.2384863 0.51686561
-0.075574309 -0.063007377 0.47292659
-0.089596637 -0.23146521 0.47580799
0.009991467 -0.037317961 0.31018111
0.019320371 -0.1985361 0.57215172
0.04946655 0.021120099 0.38715109
0.050565422 -0.193819 0.58407837
-0.095645487 -0.2564621 0.46244231
0.037558731 -0.0601671 0.5870415
-0.00041431189 -0.2372703 0.55438042
-0.05587244 -0.06850186 0.49168211
-0.056493521 -0.2505953 0.49783599
0.042930719 -0.084746808 0.58643031
-0.035163879 -0.1060805 0.46647841
-0.088104837 -0.18675859 0.45586881
-0.12873609 -0.25726789 0.57874179
0.040217038 0.0213097 0.3680957
-0.093685031 -0.03063977 0.45730191
0.076077938 0.02470905 0.56066197
0.09919399 0.022297259 0.529989
0.051189359 0.027510971 0.59136492
0.03658497 0.031574961 0.57429689
0.047084991 -0.1063941 0.59701568
0.13480181 0.02521285 0.44737849
0.1014306 0.02137628 0.52207989
0.1536015 0.024709729 0.39884761
0.1283938 0.0215404 0.52209789
-0.02586448 0.028000981 0.51076603
0.115734 0.024587721 0.53874081
0.19788989 -0.20994809 0.43662
0.20358419 -0.06026572 0.44012281
0.050066531 -0.17548589 0.59511173
0.006340981 0.02651429 0.54377049
0.1112255 -0.103409 0.54413539
0.2081276 -0.1086346 0.44136149
0.1750126 -0.1153973 0.47708499
0.1381432 0.001178354 0.50693601
0.2008944 -0.1390845 0.43821421
0.1516774 -0.081939757 0.4991242
0.1510381 -0.045179009 0.49851191
0.2007571 -0.2347374 0.4408415
0.1171486 0.0266211 0.3767058
0.135805 0.01905298 0.42544889
0.096426673 0.02415085 0.4325172
0.2050155 -0.1669137 0.4444778
0.20134769 -0.025286639 0.43875089
0.1069185 -0.079879582 0.54733658
0.071928501 -0.25183931 0.58317852
0.01920205 0.02268797 0.34783369
0.14598671 0.017476499 0.50408822
0.085897513 0.01705486 0.56127661
0.1288534 0.01717544 0.52416629
0.1898101 -0.19680659 0.44728169
0.1939871 -0.1095855 0.44487101
0.1626479 -0.1592506 0.48597431
0.1787599 0.017989749 0.46706191
0.1920633 0.016186681 0.4546726
0.118766 -0.086555481 0.52950299
0.088261068 -0.2074427 0.56553841
0.1636655 -0.19920909 0.49269989
0.086778641 -0.17146289 0.56529969
0.083425052 -0.16689619 0.57541382
0.085973442 -0.1334018 0.56670529
0.1881032 -0.031268001 0.4612712
0.1236112 -0.1234639 0.53531039
0.089211941 -0.25228259 0.56254929
0.122223 -0.1053218 0.5298326
0.1449188 -0.2164478 0.50735408
0.2054877 0.0057017212 0.44415149
0.066868417 -0.1026433 0.58826822
0.074760437 -0.0012923779 0.57797688
0.02743572 0.01594973 0.51945108
0.20759469 -0.165939 0.43497261
0.2047257 -0.17536481 0.44291109
0.072393723 0.020107839 0.57558662
0.1422502 -0.25595981 0.51025498
0.1239057 -0.21659119 0.5308404
0.081700496 -0.027651761 0.56848401
0.1635678 -0.25726309 0.48769331
0.18740889 -0.074398912 0.45633101
0.1856301 -0.0155175 0.4611918
0.1572628 -0.1191123 0.49438661
0.127489 -0.031441841 0.5248493
0.170552 -0.081038482 0.47666159
0.16274901 -0.2233855 0.48923129
0.1222466 -0.25610179 0.53010333
-0.0052184458 0.02845183 0.50242299
0.1266817 0.024561429 0.48045301
0.19281811 -0.047645029 0.44684291
0.1525818 -0.2113304 0.4987708
0.197116 -0.12758569 0.44648701
0.048403259 -0.20977899 0.59795898
0.097139359 -0.1205311 0.55986547
0.075583577 0.0292238 0.50824893
0.045924012 -0.1792317 0.5975607
0.1057659 -0.072188653 0.55105668
0.092709959 0.02168235 0.41482851
0.2008778 -0.1598866 0.43544009
0.081020832 -0.058635712 0.56763083
0.077160299 -0.23461559 0.57254469
0.1682051 -0.01282662 0.47266719
0.083485842 -0.1174904 0.56649768
0.039641801 -0.2493168 0.59751499
0.085706532 -0.1770625 0.56304032
0.095380127 0.02286062 0.38962489
0.089997292 0.028435919 0.52484041
-0.002297699 0.024874421 0.44495109
0.1376622 0.02309552 0.4287456
-0.060945932 0.02512932 0.48575199
0.1969689 -0.1351895 0.45148841
0.1830586 -0.12687349 0.46764311
-0.069251359 0.02818054 0.42350179
-0.01749015 0.02715015 0.52443099
0.16490529 -0.01153904 0.4785606
0.2017532 -0.1394981 0.4499065
-0.021624271 0.021597121 0.354963
0.1163469 0.023023929 0.42828211
0.062658548 0.02325955 0.52816278
0.043092009 -0.1492539 0.59224969
0.042887568 -0.145614 0.59679818
0.039776798 -0.26074889 0.61007071
0.1611553 0.02543929 0.43436319
0.1793588 -0.1866685 0.4688313
0.1827445 -0.094702423 0.4605138
0.070753038 -0.170232 0.57372499
0.01600826 0.029938219 0.5700174
0.069477379 -0.13133 0.58896881
0.16404609 -0.026785521 0.47495279
-0.070342958 0.025047241 0.4098472
0.1320447 -0.23866761 0.5174045
0.03590494 0.028327409 0.59643012
0.13153151 0.02529043 0.41135079
0.046432789 -0.09986195 0.59344387
0.049411949 -0.1213171 0.59997612
0.17577191 0.02239782 0.42258069
0.14559411 0.026786709 0.3971588
0.2052262 -0.23205809 0.42713919
-0.077383101 0.01645362 0.42340729
0.1641947 -0.097663581 0.48146439
0.19372921 0.0086879432 0.45060989
0.1704683 -0.077864259 0.47186029
0.1037363 0.02490115 0.44522679
0.081341267 -0.1307085 0.56102449
0.1154456 -0.1373796 0.53367949
0.1077383 0.021739841 0.34864539
0.18648811 0.02112833 0.44910559
0.05020893 -0.15249459 0.58944738
0.059123158 -0.1187198 0.591335
0.1918264 -0.24919041 0.4505181
0.1298254 -0.053923849 0.50866097
0.1403669 -0.071701683 0.49752769
0.1048284 -0.17503209 0.54051328
0.076683097 -0.1213652 0.5785287
0.1361755 0.009437561 0.50851512
0.079006366 -0.1246929 0.57431078
0.061923981 0.0034116211 0.58013213
0.067788959 -0.223565 0.5846616
-0.001672626 0.02414212 0.4429597
0.04845101 -0.077911884 0.5975185
0.080632873 -0.0089401295 0.56491983
0.080414347 0.020350309 0.44034889
0.035454929 0.02586955 0.40297189
0.076099217 -0.044243161 0.57711291
0.1335225 -0.027210919 0.51176077
0.067017078 -0.1265171 0.57928318
0.09169662 -0.25450891 0.57408762
0.1327768 0.02517873 0.50729471
0.16976769 0.0096235871 0.46826041
0.1553584 -0.01662958 0.48887581
-0.016261039 0.046567261 0.48598799
0.0033618209 0.02791366 0.48313811
-0.002481282 0.021818791 0.46267241
0.01406097 0.01960599 0.51007968
0.1726159 0.02296886 0.41385579
0.1622836 0.02075335 0.40407571
0.02894312 0.029381931 0.33019859
0.01596624 0.02397445 0.3310886
0.063110828 0.02769825 0.48615649
0.01923329 0.017898619 0.33581889
0.20060331 -0.206818 0.4373993
0.084497809 0.024805279 0.40135661
0.118862 0.015965519 0.37168601
0.058543321 0.02645031 0.4154346
0.1444356 0.01031202 0.44776329
0.1707263 -0.05654287 0.47213751
0.1719169 -0.1902608 0.4672623
0.1797872 -0.043629169 0.47454679
0.041252431 0.027958751 0.42190921
0.1872147 0.025938001 0.43040401
0.0097573847 0.02124441 0.4321343
0.1146306 0.02435228 0.3699525
0.039222181 0.032390859 0.31998351
0.1558968 -0.070487767 0.48726529
0.051487889 -0.1756625 0.59277529
0.1008348 0.02274159 0.3931269
0.1582752 0.025412019 0.42627549
0.084622763 0.01707661 0.56018692
0.084359393 0.02176353 0.56003171
0.14468969 0.01614845 0.4975394
0.19600581 0.0048084562 0.4358193
0.2013064 -0.1425864 0.43309891
0.1965519 -0.056051578 0.4340103
0.197046 -0.1707617 0.4385016
0.1908856 0.01569647 0.4473913
0.088801317 -0.1222236 0.55952632
0.1453611 -0.2214094 0.49894601
0.049755778 -0.048465881 0.59475982
0.088756964 -0.171988 0.56346482
0.1752215 -0.053855389 0.4682152
0.1351742 -0.06772849 0.50736129
0.1346648 -0.1088609 0.5127762
0.092236742 -0.172977 0.56235558
0.18596479 -0.01448378 0.45520541
0.187933 -0.07522127 0.451406
0.005924284 0.026516439 0.51849532
0.13785911 0.02368453 0.4518936
-0.00442788 0.01892248 0.43548629
0.12613399 0.02051243 0.51716352
0.1078005 -0.1060989 0.53803188
0.14977761 -0.047793839 0.49069941
0.087057859 -0.1294674 0.56435359
0.12626719 0.01557913 0.51809222
0.1610571 -0.20452259 0.4832013
0.072272308 -0.25491381 0.57783991
0.15403789 -0.1220685 0.4852179
0.077031508 -0.1729967 0.57079822
0.094010793 -0.2517367 0.55519408
0.091933183 -0.2478358 0.56182122
0.1613456 -0.22744741 0.48197129
0.1823699 -0.25694111 0.4634414
0.1438667 -0.25279859 0.50652611
0.079285271 -0.2346638 0.56901252
0.13697191 -0.163535 0.50373209
0.066766083 0.021286041 0.58282101
-0.043225318 0.02240717 0.50185782
0.09538649 0.023918061 0.41039419
-0.045312818 0.02629355 0.3901895
0.18888921 -0.2031806 0.44000211
0.1227688 -0.22265621 0.5221532
0.085431322 -0.055379812 0.56518799
0.073487453 0.023359001 0.55430597
0.1438057 0.02212381 0.50045413
0.019567709 0.028532891 0.48760381
0.047114789 -0.1085574 0.58939379
0.12656841 0.0183399 0.4280642
0.1403113 0.025184659 0.41241241
0.1756629 0.01687905 0.4677906
0.03147031 0.021529591 0.27934289
-0.079655036 0.027292849 0.42408329
0.1371794 -0.2135857 0.50547248
0.032239079 0.024486629 0.49796209
-0.03662321 0.02282363 0.41143239
0.089648083 -0.05323777 0.56572932
-0.082237057 0.022606939 0.45462981
-0.0082696229 0.024945561 0.45347089
0.015849801 0.02618167 0.32640931
0.1521173 -0.082872421 0.49539021
0.058218472 -0.1909909 0.59165049
0.052912649 0.026851561 0.58952439
-0.090142787 0.024917809 0.43213609
0.1767005 0.022198619 0.41797009
0.1677995 -0.090952903 0.47890839
0.18293139 -0.1090479 0.45985439
0.1232309 -0.2261427 0.51694047
0.033149499 0.025025399 0.39781749
0.062408391 0.02412346 0.56638169
0.069679208 0.02845365 0.52492827
0.02348863 0.029172091 0.50278401
-0.032326791 0.031057751 0.39505151
-0.042898599 0.02641559 0.43758371
0.005061388 0.02157983 0.53472102
-0.081217781 0.020154631 0.43315619
0.0460045 0.027020071 0.50916028
-0.027557191 0.01684019 0.40368009
-0.044136699 0.02299935 0.44551551
0.1049614 0.02459082 0.4397299
0.067454033 0.02295002 0.36092579
0.079146802 0.030616909 0.44332799
0.06857264 0.021926491 0.36034179
0.1285805 0.018945931 0.49066451
0.1332805 0.0089101791 0.3378664
0.1052142 0.02438244 0.39997321
0.082283624 0.02175373 0.3214899
0.15215591 0.023467479 0.395322
0.096421458 0.023718679 0.34002939
0.2070516 -0.1689871 0.42723271
-0.028332669 0.02698463 0.50324112
-0.065085977 0.0231483 0.42720139
0.051809341 0.02395582 0.31352469
0.20110551 -0.00062438851 0.4299272
0.034462448 0.021351781 0.3109124
0.0599657 0.030937221 0.41025779
-0.01384029 0.015990499 0.39652839
0.059513301 -0.1167822 0.58832419
0.079912201 -0.1761086 0.56479043
0.1016231 -0.070464127 0.53757811
0.1241506 0.02988955 0.46888971
0.1160368 0.02401543 0.4235324
0.1419142 0.02137062 0.39080721
0.047108319 0.018675679 0.3413277
0.028518889 0.02735254 0.37750909
0.1210068 -0.1106043 0.5220052
0.0580041 -0.056694031 0.59120381
0.1279756 0.01894805 0.37772349
0.1382589 -0.14149641 0.50394958
-0.0061950982 0.02895296 0.5434075
0.1766147 0.01469302 0.45487079
-0.066410817 0.027157521 0.38998991
-0.077383131 0.021860899 0.41760471
-0.006894052 0.02384543 0.50530881
-0.02186444 0.031826969 0.3962526
-0.0084391534 0.03065416 0.50076169
0.068390258 0.030493589 0.54690641
-0.060565859 0.024736021 0.46468571
0.045179501 0.024966059 0.59109151
0.04942432 0.02039787 0.59659451
0.064846963 0.018920541 0.57619882
0.040986899 0.00189361 0.58411431
-0.1160856 -0.25583521 0.4557395
0.14097629 0.024488751 0.47782731
0.14508671 0.02437523 0.48220399
0.2027635 0.020487281 0.43284521
0.1247917 -0.1381119 0.52828681
0.1553697 -0.17926119 0.4739829
-0.072449088 0.025905009 0.46132931
-0.113038 -0.2453496 0.45353791
-0.061985999 0.02043906 0.48742121
0.08352612 -0.0076548462 0.56585872
0.048912998 -0.25142369 0.28715119
0.039506301 -0.1565557 0.28291279
0.1133617 -0.1774897 0.34135249
0.15174 -0.1574607 0.37246811
0.1585039 -0.04228631 0.3850745
0.090950198 -0.075593382 0.32254139
0.042298809 -0.138831 0.28308019
0.066269889 -0.194507 0.27977881
0.079073459 -0.25568971 0.30706421
0.1019679 -0.080104679 0.32619601
0.06884034 -0.2300147 0.2985957
0.1707418 -0.085437208 0.40517151
0.098016292 -0.2057457 0.3228339
0.155376 -0.2221389 0.37164769
0.097926773 -0.1755054 0.3181504
0.15441661 -0.15908571 0.38107419
0.048277799 -0.25242671 0.28041461
0.1719645 -0.209364 0.37862119
0.1221398 -0.2295296 0.34459209
0.099441558 -0.2422633 0.32185891
0.17330191 -0.043859869 0.39418399
0.1986949 -0.1218357 0.41784459
0.078625828 -0.19145259 0.3034977
0.17357861 -0.2093157 0.39040649
0.1845112 -0.2290532 0.40896389
0.1848425 -0.1422125 0.4067761
0.1476043 -0.1212994 0.37050301
-0.01588452 -0.2363732 0.33023009
0.079355016 -0.125277 0.2909233
0.04195917 -0.2064968 0.28556499
0.1916703 -0.1127785 0.41404971
0.18977021 -0.2562741 0.41758281
0.1702171 -0.062330902 0.39931491
0.1980744 -0.03033966 0.41333309
0.20081189 -0.1629262 0.41401291
0.05807757 -0.16615079 0.28917909
0.1017498 -0.1919463 0.3198913
0.1696777 -0.1084314 0.4012697
0.174776 -0.19555061 0.4018521
0.1523446 -0.20950501 0.38869601
0.077596433 -0.2182449 0.3047691
0.1176789 -0.17675009 0.3431412
0.083805136 -0.1143846 0.30983531
0.04038072 -0.2076713 0.28225881
0.1844653 -0.078256764 0.4092015
0.1822499 -0.055433389 0.40063101
0.1386237 -0.18974911 0.3677249
0.19259889 -0.09403953 0.412543
0.1955739 -0.19837201 0.4326351
0.02854402 -0.1457077 0.292826
-0.00044631961 -0.25913721 0.32010329
0.0029712771 -0.18147629 0.31327009
0.1086404 -0.24843469 0.33288059
-0.04479019 -0.25197691 0.35915509
0.044059511 -0.1398344 0.26980469
0.16909631 -0.081297547 0.39783779
0.040766601 -0.18471999 0.28786319
0.1148695 -0.2314328 0.35522819
0.1834642 -0.1396766 0.40114519
0.1549743 -0.216709 0.37083891
0.1541007 -0.19103549 0.37023059
0.1209574 -0.25414151 0.3402552
0.1453955 -0.25306621 0.3615199
0.2015551 -0.2469236 0.4325245
0.1044422 -0.1138261 0.3272129
0.19896241 -0.059565961 0.41646191
0.1457787 -0.2142287 0.377166
0.090898469 -0.2320642 0.32876039
0.1733797 -0.17980459 0.39641389
0.069963053 -0.18189821 0.30126399
0.072995529 -0.20666049 0.30213121
0.15146691 -0.1935921 0.38577139
0.2014828 -0.20320681 0.42240971
0.12909269 -0.0414997 0.35896659
0.1244075 -0.070884727 0.35069489
0.1311654 -0.2044106 0.35093659
0.030171961 -0.16332249 0.27378309
0.1245164 -0.049663749 0.34055459
0.1165059 -0.094184726 0.33288109
0.01366632 -0.2605083 0.30387729
0.1007412 -0.1581243 0.33009341
-0.01040283 0.02239695 0.5039326
0.099697903 -0.24111781 0.32177231
0.1150685 0.020543519 0.37629089
0.030288979 -0.1400253 0.28779849
-0.042745478 0.023175331 0.50003362
-0.058548551 0.019410759 0.47570539
0.098005079 0.003987283 0.33762461
0.1062229 -0.1178702 0.33381161
0.040608119 -0.057756871 0.28471899
0.05572433 -0.041034129 0.294406
0.1761227 0.02281433 0.42016211
