# .PCD v0.7 - Point Cloud Data file format
VERSION 0.7
FIELDS x y z
SIZE 4 4 4
TYPE F F F
COUNT 1 1 1
WIDTH 1431
HEIGHT 1
VIEWPOINT 0 0 0 1 0 0 0
POINTS 1431
DATA ascii
0.053628389 -0.2004385 0.29710609
0.06289909 -0.1424267 0.30449331
0.065441221 -0.1468734 0.30697981
0.048104148 -0.134541 0.28580669
0.04718969 -0.1350864 0.28312939
-0.073908597 -0.17468791 0.73609501
-0.079450049 -0.18972071 0.76078612
-0.093843199 -0.1912349 0.74726552
-0.1834397 -0.1909631 0.61083049
-0.062500857 -0.1858369 0.78946471
-0.1562648 -0.1917837 0.73605043
0.037606589 -0.21148381 0.4855316
0.022628831 -0.2153676 0.53290331
0.082894653 -0.2106645 0.44193199
0.033155691 -0.21334881 0.51422387
0.062952392 -0.20955651 0.4796665
0.032556321 -0.099263303 0.3330341
-0.0095766932 -0.2123529 0.60710281
0.023582051 -0.20942231 0.5270198
0.091977283 -0.2107361 0.41528431
0.051223092 -0.209977 0.47303879
0.093166143 -0.20919821 0.39631
0.050599311 -0.2043 0.29351789
-0.1859569 -0.1931036 0.61268592
-0.18334959 -0.20840479 0.60561669
0.071633726 -0.20774449 0.35583389
0.048281871 -0.1339318 0.288326
0.064944632 -0.1455985 0.30648679
0.049448282 -0.1465838 0.28967929
0.065770023 -0.2102799 0.27909121
0.043553051 -0.1546945 0.2935527
-0.32305619 -0.2038161 0.73819733
0.02311774 -0.098927803 0.3340942
0.064291783 -0.1859988 0.30189061
0.062975347 -0.1412334 0.3034147
0.046087589 -0.1350674 0.28740549
0.063874081 -0.1285651 0.30115399
0.047579549 -0.19787081 0.29318959
0.078085102 -0.21086919 0.34235221
0.073743723 -0.2130969 0.35989821
0.01913568 -0.1667688 0.27735391
0.051785119 -0.2089082 0.2428928
0.065878339 -0.1746871 0.3004193
0.078018308 -0.2110623 0.302715
0.03974444 -0.2113574 0.2415628
-0.1466673 -0.1965781 0.72134221
-0.13563611 -0.1965017 0.72337592
-0.39699239 -0.1926796 0.80945998
0.034114551 -0.2115164 0.2649605
0.066594139 -0.16944081 0.3163642
-0.31131101 -0.1918848 0.87530369
-0.30624449 -0.18296321 0.87912941
0.079531834 -0.2094707 0.30136791
0.1020576 -0.209969 0.2332601
0.064551957 -0.2095513 0.27124491
0.03063789 -0.2090563 0.24894109
0.044233199 -0.21009021 0.27893981
-0.0051827282 -0.1073069 0.29035911
-0.19103611 -0.20133249 0.48878521
0.056681432 -0.1881623 0.29119051
0.074295953 -0.21276741 0.29306009
0.1731528 -0.1933116 0.85884267
0.1405087 -0.20119371 1.003598
-0.01768014 -0.2082932 0.84014219
0.05579659 -0.18534151 0.90647137
0.17530219 -0.20745599 0.86599648
0.085929468 -0.2074108 1.035535
0.058095541 -0.19463649 0.79874271
0.04181686 -0.1843892 0.96826088
-0.002207458 -0.1850294 0.80802703
0.34229001 -0.15546571 0.90712851
0.24004529 -0.18863 1.080595
0.1674359 -0.1948024 0.87032259
0.078253143 -0.209831 0.34094971
-0.040562481 -0.2038269 0.80416781
0.02769509 -0.2112207 0.27475289
0.038367879 -0.2149529 0.28121269
0.34289289 -0.1374156 0.88763243
0.3328298 -0.085544713 0.87647891
0.03607969 -0.2141757 0.2678898
0.079144001 -0.2119395 0.30535591
0.001296051 -0.17755631 0.28468221
0.32534039 -0.097046673 0.90432799
0.3697108 -0.1364326 0.88047838
0.3450534 -0.20421299 0.86398202
0.1469623 -0.1973253 0.97236842
0.4118275 -0.17601851 0.87864929
0.378905 -0.20122761 0.86494333
0.33216429 -0.093047202 0.85549718
0.38759661 -0.1708719 0.8544662
0.1716074 -0.21389531 0.31963319
-0.043035001 -0.16791441 0.78760397
0.063554123 -0.1953195 0.87014347
0.0053561931 -0.2155657 0.2389573
0.05849319 -0.2141764 0.2301358
0.074961469 -0.21506061 0.29602179
0.34541541 -0.1085148 0.86691958
-0.003986273 -0.21610419 0.2379498
0.3775028 -0.137316 0.89741337
-0.0088537782 -0.2117388 0.23864269
0.43433991 -0.18730269 0.85496467
0.1899564 -0.2104336 0.33106011
0.45670459 -0.1449125 0.91557813
0.0081076287 -0.16692799 0.27978641
0.13023029 -0.208675 0.33494601
0.41790909 -0.1614114 0.87722129
0.2489109 -0.18037909 1.084893
0.430437 -0.2088594 0.88047642
0.4018099 -0.18856069 0.86006129
0.39102301 -0.2089165 0.4644506
0.03316747 -0.09949103 0.31122741
0.51653409 -0.1625917 0.79277998
0.2935037 -0.20657951 0.42070991
0.3983497 -0.1779702 0.45209721
0.02437604 -0.098036893 0.3302927
0.34529629 -0.20518249 0.86949497
0.37094939 -0.211569 0.8714624
0.3592144 -0.1985226 0.86489791
0.38239759 -0.1969651 0.49265811
0.38324299 -0.1958503 0.49934971
0.34279269 -0.20736431 0.40930659
0.32181761 -0.2034176 0.44847471
0.2911323 -0.2056195 0.41932249
0.3552371 -0.19588479 0.8581056
0.044802692 -0.13597199 0.2922428
0.40837091 -0.1725232 0.8713783
0.01338951 -0.097625829 0.31736141
-0.05837683 -0.21527649 0.33294651
-0.043783691 -0.21533491 0.30973539
-0.039595071 -0.21544141 0.31044579
-0.05827542 -0.2158588 0.32922459
-0.062246021 -0.2152734 0.33298501
-0.008312894 -0.1822536 0.29299441
-0.060987789 -0.2160935 0.27215889
-0.001914121 -0.2111219 0.27269071
0.0080461614 -0.2113273 0.2650516
-0.01449476 -0.17710251 0.3001911
-0.05368774 -0.214606 0.3372404
-0.027327521 -0.2138975 0.3717325
0.41234139 -0.190401 0.87646037
0.040042002 -0.15141059 0.28725111
0.04593122 -0.14935111 0.28968519
0.048581909 -0.1328615 0.2891261
0.04869242 -0.14540771 0.28961831
0.03286146 -0.2120816 0.26911679
0.02355713 -0.21101481 0.2693978
-0.15898509 -0.19589999 0.7434817
-0.043620359 -0.1744694 0.80736482
-0.01731563 -0.191597 0.78715998
-0.038194939 -0.20512681 0.77628708
0.01265855 -0.16964179 0.28079191
0.049963862 -0.211556 0.25186849
-0.003546566 -0.18678211 0.82009542
0.04309627 -0.19299559 0.84777439
0.0334608 -0.19522621 0.83362138
0.045601919 -0.1908624 0.28908011
0.047509331 -0.1960233 0.29061061
-0.046243209 -0.1647329 0.80511111
-0.232981 -0.1690505 0.98942667
-0.01052637 -0.1585732 0.3043364
0.01071943 -0.2146733 0.28017369
0.077054016 -0.21166921 0.3450301
0.072739176 -0.21151499 0.2937192
0.062945627 -0.13179339 0.30653939
0.063894317 -0.13472 0.3101283
-0.144536 -0.1974726 0.71851927
-0.31628349 -0.1989854 0.89262003
-0.2964507 -0.19687019 0.87597227
-0.1708615 -0.1947144 0.74270833
-0.2291386 -0.1702463 0.99875969
-0.01581016 -0.15642349 0.83489972
-0.1413914 -0.2142725 0.27879131
-0.089868367 -0.2120648 0.27902651
-0.020827141 -0.2100039 0.29758841
0.078799836 -0.2124128 0.30613291
0.056940511 -0.21399181 0.2307739
-0.39506319 -0.2019449 0.83655149
-0.39856201 -0.19663879 0.81704992
-0.3204194 -0.18793841 0.8480922
-0.2698164 -0.1863323 1.002115
0.06291312 -0.1796665 0.31195861
-0.02108207 -0.18577249 0.78371477
-0.1228908 -0.1988332 0.70413721
0.066063493 -0.15544631 0.3244423
0.025866959 -0.2103525 0.25842291
-0.3341105 -0.20220549 0.51903129
0.061418042 -0.1759952 0.35513189
-0.32591629 -0.2095373 0.52149159
0.01090783 -0.01841427 0.84489661
-0.1725495 -0.01454467 1.003922
0.001014024 -0.17383289 0.85774601
-0.017007019 -0.2133382 0.29906949
0.047202408 -0.1966387 0.29266101
0.0442545 -0.19373889 0.29396629
0.072950378 -0.214736 0.29982111
0.05634306 -0.2132943 0.2319454
0.078539491 -0.2095394 0.30363941
0.03246966 -0.2146045 0.27192599
0.080789097 -0.2131923 0.2997697
0.071281724 -0.2138586 0.28475901
0.063843802 -0.1785492 0.3316071
0.05467226 -0.1995346 0.30566379
0.06155885 -0.19476929 0.31733719
0.061073061 -0.1891167 0.3235895
0.04135979 -0.2144907 0.28618681
0.077207357 -0.2103752 0.3442086
0.1160723 -0.2097691 0.35817951
-0.26219681 -0.2108909 0.40843949
-0.25438961 -0.20368171 0.3975842
-0.35550281 -0.2101239 0.51461869
-0.36345211 -0.21082629 0.93055183
0.1760961 -0.1977189 0.867805
0.1356134 -0.1971194 0.97612238
0.164349 -0.19872729 0.97739279
0.1282002 -0.2088217 1.000445
0.15571029 -0.21496309 0.89741057
-0.1215819 -0.1870473 0.72704452
-0.01129685 -0.16465519 0.7823087
0.057826389 -0.2100312 0.84892482
0.1549345 -0.2137105 0.3507089
-0.32361731 -0.2058046 0.73810118
-0.24013589 -0.19615 0.91489083
0.001800895 -0.1978033 0.28956509
-0.008362934 -0.1971036 0.80448937
0.02886026 -0.2149723 0.76946592
0.079442658 -0.2004019 0.43580341
0.02891124 -0.2106107 0.27336699
0.1606122 -0.21107849 0.33306631
-0.087331697 -0.21349759 0.37855661
0.17054179 -0.20783161 0.8389461
0.074254677 -0.1747001 0.99881548
-0.1536876 -0.21000931 0.34106091
0.02367151 -0.1728449 0.2822912
0.08040335 -0.21250381 0.3195703
-0.1718577 -0.21262001 0.3373017
0.04543278 -0.149563 0.29012549
0.01165296 -0.099329703 0.3123242
0.0039357692 -0.17248911 0.28916919
0.085207552 -0.2157996 0.30366981
-0.161493 -0.20023809 0.75350147
0.075559244 -0.1983944 0.82972997
-0.2378677 -0.17566019 0.9981752
-0.23119719 -0.16945051 0.98205978
-0.0140453 -0.1908 0.78159833
-0.041974481 -0.1768761 0.81060529
-0.1727104 -0.1987174 0.74836892
-0.1367785 -0.1999367 0.72752267
-0.0095522217 -0.154754 0.81011373
0.062808052 -0.19597439 0.86124092
0.047082931 -0.13592879 0.29002801
-0.1951216 -0.202401 0.90314358
0.081554607 -0.20106 0.81031942
0.03738676 -0.1936819 1.000712
-0.27727789 -0.1921884 1.026329
0.044380661 -0.1768306 0.98083168
0.062722012 -0.1932549 0.31246039
0.04740895 -0.1994987 0.29480711
0.01273444 -0.21066859 0.27506241
0.039086308 -0.1840757 0.29081681
0.1408515 -0.21209911 0.34112909
0.062985078 -0.13320249 0.30934829
0.034223981 -0.1882119 1.057567
0.02018504 -0.1904531 0.84500891
0.0383735 -0.2126776 0.2794596
0.0353035 -0.21444181 0.26856399
0.01134692 -0.174063 0.28615919
0.03339446 -0.20148081 0.84254187
-0.0042556338 -0.1910935 0.83112961
0.05680865 -0.2162004 0.2331605
0.078520827 -0.1878624 1.025362
0.083677493 -0.1832829 1.055459
0.052404609 -0.2127815 0.81674111
0.1198915 -0.2124552 0.48862061
-0.044764958 -0.1703231 0.80642778
-0.077286698 -0.1941355 0.76905322
0.05438903 -0.1859332 0.89770371
0.00045415759 -0.15159529 0.2841852
0.24303339 -0.192105 1.072486
-0.02090578 -0.2108572 0.30184281
0.34379771 -0.1490234 0.89719462
-0.016281171 -0.2125573 0.24272241
0.34078479 -0.1402452 0.88819683
-0.017186491 -0.2017657 0.35045469
0.3422462 -0.15934379 0.90361488
0.002707005 -0.2117665 0.27855521
0.0029626789 -0.1447508 0.28139281
0.3425343 -0.19876669 0.89013088
-0.1005079 -0.2128427 0.20005929
0.4062818 -0.1950306 0.86968732
0.40892389 -0.1797024 0.875956
-0.0081756106 -0.19760861 0.35711819
0.42690319 -0.20301411 0.87822801
0.01475535 -0.21535601 0.2793785
-0.058199439 -0.21271241 0.2293105
0.38289991 -0.1815836 0.87004811
0.4002609 -0.1818274 0.88208449
0.25109309 -0.1832597 1.089031
0.3487961 -0.1316158 0.89181978
-0.088374719 -0.21180969 0.2069747
0.3690694 -0.1376722 0.87809038
-0.062185809 -0.21109261 0.25059739
-0.084573463 -0.2126224 0.2259649
0.4496772 -0.16927651 0.91503829
0.41414139 -0.1892122 0.87908822
0.00296244 -0.14306439 0.28093019
0.29493701 -0.20984121 0.4244917
-0.018333061 -0.1968184 0.34475499
0.01282495 -0.16916721 0.27904829
-0.060293969 -0.20923141 0.23559789
0.2401776 -0.17141899 1.0780129
0.51913428 -0.1688804 0.8016479
-0.1006643 -0.2123019 0.20551319
0.1026785 -0.2075763 0.81361538
0.33733419 -0.1137765 0.89602602
-0.019893181 -0.2095639 0.37078711
0.53605062 -0.2059195 0.78103387
0.3735514 -0.16953491 0.55678117
0.3919771 -0.1818561 0.53469408
0.052222189 -0.1782936 0.28846711
0.39714271 -0.21514671 0.46999589
0.4156321 -0.20290139 0.48744139
0.34540009 -0.1985811 0.59869522
0.33972281 -0.2071857 0.86624902
0.52321482 -0.1702531 0.80744642
0.018010059 -0.101345 0.33701801
-0.01486103 -0.212919 0.2957446
-0.091641672 -0.2124965 0.2727778
-0.1053572 -0.21293899 0.2642554
-0.1300296 -0.2112297 0.20862371
-0.074680008 -0.2105877 0.26759389
-0.065750167 -0.2138539 0.27363521
-0.1332994 -0.2100265 0.21581499
-0.08651156 -0.2145687 0.28389391
-0.1043587 -0.21233571 0.26797459
-0.075006597 -0.2087227 0.28254151
0.44616491 -0.15546919 0.91400719
0.35327801 -0.204914 0.61870497
0.37954971 -0.1949012 0.5307889
-0.001565948 -0.21137109 0.41155931
0.45529881 -0.2082061 0.56790578
-0.1099413 -0.2120019 0.2102112
-0.077265657 -0.2100413 0.26368389
0.3732383 -0.2090887 0.88615781
-0.13448399 -0.21113241 0.22711471
-0.040367231 -0.21293271 0.26716501
0.38741341 -0.2010662 0.50464863
-0.0895705 -0.21307001 0.29304969
0.2681503 -0.2138744 0.80299717
0.38531211 -0.20036989 0.49838951
-0.1053205 -0.2114605 0.27599749
0.35891989 -0.1146846 0.90165818
0.39741361 -0.2050121 0.63050407
0.341925 -0.16714241 0.90560448
0.54918748 -0.201713 0.76165438
0.33325621 -0.1992576 0.60389209
0.40787041 -0.1854551 0.45652089
0.4607951 -0.18342359 0.48981491
0.53115398 -0.1436425 0.33145729
0.60503149 -0.1872181 0.37330449
0.45943171 -0.20716199 0.2904208
0.59718752 -0.2036954 0.38662371
0.4566361 -0.2082008 0.35509741
0.60380602 -0.2048364 0.3743754
0.57092851 -0.192276 0.34797609
0.6071322 -0.19004279 0.36974469
0.44113061 -0.2039078 0.28303161
0.53918928 -0.2115062 0.3390497
0.55788338 -0.19741841 0.31313929
0.47693121 -0.1933226 0.50313932
0.55920422 -0.2044156 0.28487179
0.4446058 -0.1966756 0.2628563
0.43135589 -0.2143385 0.25553271
0.45194489 -0.1830814 0.48057151
0.40650111 -0.2107272 0.45633981
0.52717298 -0.2048769 0.27114841
0.47297019 -0.2026765 0.3537887
0.40851951 -0.2126628 0.46405509
0.39689159 -0.20478649 0.50479978
0.59590948 -0.1851801 0.27894291
0.48003909 -0.2074362 0.3489255
0.52475041 -0.18293311 0.30290651
0.50076163 -0.2053993 0.51157182
0.42998731 -0.20088419 0.54182732
0.64855093 -0.20610669 0.2571395
0.45099941 -0.1966206 0.48684689
0.44131529 -0.2051447 0.4827345
0.60222208 -0.1879503 0.28396159
0.67524642 -0.2050781 0.39369521
0.36872411 -0.205144 0.48236361
0.53059649 -0.2119744 0.21250241
0.1027285 -0.2127738 0.2367443
0.102012 -0.21295319 0.2362335
0.01040408 -0.2142013 0.2660383
-0.057498422 -0.2131636 0.3155691
-0.1316357 -0.21348339 0.3240301
-0.088679343 -0.21366011 0.2739495
-0.096843749 -0.2141344 0.31643111
0.049760751 -0.21384551 0.37089899
0.047933381 -0.2122317 0.3816148
-0.0014817039 -0.21386909 0.36582041
-0.02602146 -0.2136451 0.31338951
-0.00860429 -0.15707231 0.35224029
-0.00042641911 -0.2130665 0.37801981
-0.024560001 -0.213034 0.36092031
-0.020665141 -0.1215347 0.31148091
-0.004141245 -0.14802121 0.35715589
-0.0073029879 -0.2121238 0.39617771
-0.071651436 -0.21351311 0.36051151
0.053263828 -0.2118209 0.43501529
-0.0042726062 -0.2129197 0.3609257
0.0047746152 -0.1341904 0.36198831
-0.0089524928 -0.1442377 0.35245991
0.00315994 -0.13609169 0.3612144
0.065117821 -0.2124759 0.35883409
0.070661344 -0.2124711 0.365412
0.01060484 -0.21252561 0.36772859
-0.085045427 -0.2132833 0.439266
0.090827413 -0.2116732 0.39935771
0.053842541 -0.21346921 0.42536321
-0.045102611 -0.21305551 0.36985821
0.01252736 -0.2140788 0.38249159
0.01310765 -0.21328831 0.38872299
-0.078279734 -0.21317969 0.412532
-0.01438318 -0.1525165 0.3542257
0.1446963 -0.2137256 0.34392381
-0.001180619 -0.1370112 0.3583447
-0.001921587 -0.1013216 0.3041575
-0.016714221 -0.19228031 0.3401871
-0.02292127 -0.2138184 0.36661199
0.020772191 -0.2131189 0.44503221
-0.0155549 -0.1390826 0.33946911
-0.01130795 -0.1453595 0.34825739
0.036335919 -0.21397869 0.4361541
-0.01736927 -0.21292549 0.44247809
-0.056986321 -0.21333119 0.4343358
0.075846337 -0.212174 0.34136829
-0.04932468 -0.2136023 0.45667371
0.046374891 -0.2137838 0.44818741
0.01150542 -0.21100789 0.46687761
0.01221392 -0.2133434 0.44275409
-0.069120303 -0.2129419 0.41587481
0.32648 -0.2148595 0.2235339
0.0261651 -0.2151756 0.37064189
0.080106981 -0.21111479 0.44294941
0.039227769 -0.2136538 0.45761541
0.033622261 -0.21092761 0.4715082
-0.023228761 -0.211557 0.4504675
-0.02696481 -0.21345191 0.46614689
-0.02420418 -0.2105702 0.46642849
0.01538165 -0.2133678 0.46769989
0.33196539 -0.2150199 0.20833109
-0.01076962 -0.1189547 0.3462145
0.0083600357 -0.1373658 0.36114359
0.0065154661 -0.2136896 0.47302139
0.0001928359 -0.21341281 0.48069131
0.044889782 -0.2134963 0.46519089
0.02978118 -0.2131658 0.4635148
-0.021761641 -0.2133975 0.4793843
-0.052900929 -0.2134545 0.39122111
-0.01109815 -0.2140992 0.38557181
0.14279801 -0.2129216 0.3355127
0.28223631 -0.2145178 0.20603091
0.034434419 -0.21345671 0.4719542
0.0096655786 -0.2142023 0.44041201
0.02312866 -0.2138532 0.4781265
0.29943711 -0.21618161 0.2284406
0.2209091 -0.2121243 0.33275309
-0.07436461 -0.2137493 0.46269009
0.1112819 -0.21394891 0.41444951
0.0459961 -0.213009 0.43865761
0.28600171 -0.21404099 0.2100278
0.019855071 -0.2157847 0.3633137
-0.03065809 -0.2129003 0.5019176
0.1017151 -0.21359169 0.31665859
0.031245099 -0.212806 0.46033341
0.0059683621 -0.21313889 0.4706516
0.1941236 -0.21384241 0.3915638
-0.07572449 -0.21212821 0.34371611
-0.0144912 -0.21158931 0.37138969
-0.001358211 -0.2136388 0.3843866
-0.005187646 -0.2145023 0.3770512
0.068923183 -0.21317451 0.34064409
-0.0091890246 -0.2112768 0.39041889
0.0096484646 -0.211759 0.36755899
0.01191407 -0.2123097 0.36785111
0.0045350338 -0.1330242 0.36201829
0.062411919 -0.14518011 0.3263725
0.062930137 -0.15365259 0.32830909
-0.0086292028 -0.2101807 0.38141179
-0.0053082262 -0.1450364 0.35612389
0.070838943 -0.21145061 0.36428139
-0.0004234761 -0.2116878 0.37946761
-0.02262168 -0.2115692 0.3580834
0.051162329 -0.2117281 0.3802512
0.046836719 -0.21071941 0.37453589
0.4063209 -0.2044169 0.25344819
0.43190631 -0.19273239 0.25889179
0.4141427 -0.2091926 0.2500864
0.423298 -0.19901399 0.2362318
0.4561317 -0.2008674 0.22608849
0.4551484 -0.1945169 0.27221569
0.4149707 -0.20382009 0.2391652
0.43782169 -0.19511171 0.27470759
0.42785719 -0.20015369 0.27989429
0.45879099 -0.19640251 0.29376391
0.43263689 -0.2132442 0.31221381
0.15985741 -0.2131861 0.4151347
0.130217 -0.21247929 0.40706551
0.1247983 -0.2139381 0.40885261
0.1987599 -0.2107024 0.41891539
0.46135131 -0.2016722 0.34927961
0.60190278 -0.19946501 0.25956801
0.51870298 -0.1804565 0.30074799
0.59902549 -0.203436 0.36879161
0.45434681 -0.2031332 0.3507843
0.02624613 -0.1961519 0.35978651
0.4365705 -0.2127827 0.36091021
0.1865885 -0.2138447 0.3898983
0.1552076 -0.2159985 0.43593961
0.1476213 -0.21281751 0.44403249
0.2717419 -0.2109918 0.39956161
0.210527 -0.2127064 0.41699499
0.17436901 -0.2154035 0.41495031
0.2094917 -0.2150306 0.4248518
0.1357407 -0.2145704 0.38589251
0.2045649 -0.2127703 0.4455741
0.4409906 -0.17722949 0.3598235
0.5353837 -0.1827165 0.32538041
0.52721912 -0.2101652 0.27436009
0.29546681 -0.2121207 0.42231959
0.1487446 -0.2109606 0.44883421
0.1369718 -0.2114213 0.46730021
0.114656 -0.2143824 0.4248642
0.131851 -0.2129088 0.46549869
0.20421951 -0.21087 0.40900719
0.1611281 -0.2117383 0.43396059
0.2179635 -0.21103761 0.4151279
0.1798898 -0.2134987 0.37755829
0.1114162 -0.21264499 0.41689301
0.07884185 -0.2087732 0.4413923
0.1756255 -0.2086446 0.40622959
0.082090482 -0.2132591 0.38841489
0.43275949 -0.2130194 0.26471961
0.55479437 -0.1983065 0.3083733
0.4625695 -0.1850863 0.48782369
0.37623021 -0.1763169 0.55228561
0.12885369 -0.2152665 0.49644729
0.04071502 -0.2151314 0.2414472
0.26667279 -0.2138892 0.57181078
-0.03171467 -0.21600211 0.33291271
0.35160339 -0.2040095 0.61646461
-0.018982621 -0.15120479 0.32969579
0.3139112 -0.2160496 0.58119172
0.38067219 -0.2117597 0.6768921
0.37295371 -0.19596291 0.54753351
0.3996878 -0.21376289 0.68766749
-0.02778749 -0.214742 0.33303359
0.454896 -0.208703 0.4963178
0.04029673 -0.2146993 0.27549309
0.027717261 -0.2136936 0.20927881
-0.009517312 -0.2149616 0.2142361
0.40486631 -0.2029034 0.59530449
0.41551611 -0.1955657 0.86330289
0.45166981 -0.1960756 0.87089592
0.3992784 -0.2149436 0.68919319
-0.03390776 -0.21592671 0.2842432
0.44305521 -0.1947872 0.88858718
0.20694789 -0.21342149 0.61735892
0.3731648 -0.159308 0.54964077
0.37994301 -0.1696046 0.52867001
0.01802231 -0.2093526 0.26931661
-0.01154182 -0.2091991 0.28590399
0.0025468301 -0.1470373 0.2818183
0.009367466 -0.21279719 0.2749047
0.02706879 -0.093856469 0.33094949
0.01460527 -0.2126874 0.26305401
0.092956923 -0.2015931 0.91701227
-0.016958119 -0.21271899 0.2928274
-0.017768661 -0.1988083 0.80820811
0.029469 -0.096895248 0.31909561
0.021674341 -0.097157143 0.33022609
-0.0042943428 -0.2126518 0.28243819
0.032095741 -0.2139717 0.26582861
-0.01447407 -0.21272241 0.2119091
0.033517562 -0.2139461 0.27004111
-0.01027256 -0.1689588 0.80609763
-0.022808431 -0.2112896 0.30085221
-0.06848906 -0.2111859 0.29194871
-0.1026702 -0.2112949 0.20340811
-0.1071192 -0.2103923 0.26174939
-0.061213009 -0.2094675 0.23438869
-0.059351139 -0.2111066 0.23097961
-0.086462326 -0.21348689 0.2246215
-0.02345868 -0.2078252 0.22802
-0.036474481 -0.2098203 0.2236007
0.029469199 -0.098765209 0.31100601
0.019825229 -0.0983316 0.3054651
-0.1140253 -0.1784825 0.75439161
0.039909199 -0.17498609 0.97938752
-0.1035888 -0.21199641 0.2005932
-0.1348301 -0.2128671 0.2161406
0.018250611 -0.19070341 0.8462044
-0.01017475 -0.21485341 0.2388764
-0.055093229 -0.2133636 0.2301776
0.028268039 -0.096872538 0.3019425
-0.0083443951 -0.1932229 0.2902005
-0.1587265 -0.196095 0.7343241
-0.14072619 -0.1965632 0.70521301
-0.1271027 -0.2121021 0.2044823
0.01088033 -0.1685815 0.27633679
-0.001074484 -0.1758216 0.28139251
-0.1303976 -0.2093434 0.2023371
-0.061960351 -0.21128599 0.22065359
0.01064586 -0.098296911 0.30611441
0.02916372 -0.098190859 0.30627671
-0.1567497 -0.202776 0.73651671
-0.19182689 -0.19766741 0.76270461
-0.070257157 -0.213976 0.24956989
-0.09192124 -0.2153966 0.27803501
-0.080698699 -0.21293961 0.2225216
0.0069095171 -0.1677517 0.2788561
-0.001337877 -0.15361869 0.2828069
-0.18141191 -0.2142078 0.57535487
0.0004983223 -0.1868078 0.89144301
-0.1805415 -0.20904429 0.5801568
-0.077877969 -0.21348441 0.2464667
0.069487393 -0.1947929 0.84522462
0.0066914931 -0.2109777 0.26680511
-0.006889597 -0.2135127 0.25086069
-0.0077736601 -0.1922359 0.82854092
0.029990191 -0.1050185 0.33874169
0.073257223 -0.21542341 0.31303841
0.076738603 -0.21533009 0.30504069
0.06625291 -0.21508241 0.31808779
0.065511279 -0.2137401 0.35711691
0.063822217 -0.14718249 0.30832511
0.06099356 -0.1388305 0.30625549
0.04781656 -0.1344372 0.28734621
0.047794182 -0.14698189 0.28745359
0.01427744 -0.1010362 0.33461261
0.03052686 -0.1003021 0.3218534
0.030062471 -0.1001429 0.3142496
0.02977819 -0.1009587 0.3141236
0.03086479 -0.1007136 0.32838649
0.02144989 -0.1008987 0.3233051
0.02036963 -0.1029669 0.3280327
0.03607215 -0.1020098 0.32620069
0.060235389 -0.1456638 0.3056092
0.061534669 -0.1786911 0.30998629
0.0607104 -0.19068611 0.30424461
-0.1940251 -0.19946221 0.62217528
0.031420711 -0.099854678 0.33473551
-0.3934122 -0.21567459 0.59045142
0.060345139 -0.18281309 0.31165129
0.01018324 -0.099580362 0.30739379
-0.1626264 -0.2066744 0.61152011
0.062170859 -0.1319665 0.30608901
0.059745971 -0.1923321 0.3063339
0.061476991 -0.1805461 0.30609179
0.050920859 -0.19673669 0.29040891
0.077435657 -0.20917089 0.30489531
0.0655386 -0.1617351 0.32096899
-0.317644 -0.20033149 0.72419268
-0.50140327 -0.2151069 0.77228248
0.090367667 -0.20980451 0.41497341
0.088644303 -0.2109579 0.41133219
0.03584997 -0.2106521 0.4009718
0.05599964 -0.2085446 0.42282671
0.079189323 -0.2086232 0.41108689
0.020969599 -0.099452607 0.30414671
0.029981431 -0.099737547 0.30469981
0.029724989 -0.099957108 0.31537759
0.03119114 -0.099176183 0.32132289
0.031075301 -0.099552408 0.3275761
0.064965531 -0.1460207 0.31053081
0.06543301 -0.1466894 0.32121381
0.065999463 -0.1452724 0.32269681
0.063621737 -0.1642451 0.3230221
0.065870494 -0.1426159 0.32637829
-0.27581671 -0.213707 0.40128049
0.033996329 -0.2093381 0.2649413
0.023537491 -0.20903081 0.4282279
0.091364697 -0.2108279 0.3961412
0.085756153 -0.20901 0.31431761
0.064961188 -0.1540204 0.31822711
0.06838806 -0.2100348 0.32658291
0.065786242 -0.2119737 0.31056201
0.058406729 -0.197797 0.3010391
0.066207953 -0.21174259 0.31706899
-0.28545401 -0.20524891 0.69775969
0.061499599 -0.1303063 0.30441469
0.058064159 -0.1944188 0.30868331
0.05973782 -0.1810526 0.31229681
0.060096961 -0.1851861 0.3141692
0.05515328 -0.1917661 0.3060649
0.056969881 -0.1482939 0.3278774
0.05624342 -0.1687519 0.32396159
0.062586904 -0.1536891 0.3116357
0.029333239 -0.101806 0.31583649
0.060648739 -0.1380914 0.30773661
0.020234911 -0.1000091 0.30565989
0.064839907 -0.1466416 0.32169661
0.03077592 -0.09875755 0.322211
0.01050246 -0.098879583 0.3087565
0.059862658 -0.19359601 0.30761299
0.06473273 -0.1775388 0.319343
0.048001271 -0.1915843 0.2874558
0.05443551 -0.1958843 0.29259351
0.02328389 -0.099369287 0.33317769
0.059785921 -0.1947034 0.29807079
-0.14808179 -0.1952294 0.71418321
-0.31551331 -0.1947929 0.87517738
0.05555176 -0.19220041 0.29534131
-0.3001996 -0.19481011 0.86456567
0.03505354 -0.15631969 0.28464681
-0.088546723 -0.1931172 0.76690882
-0.04808671 -0.1695298 0.80509168
0.01348298 -0.1667784 0.27750701
0.063275322 -0.1769983 0.30890781
0.18114761 -0.1959336 0.30687121
-0.2806555 -0.1881599 0.67872709
-0.02082976 -0.185065 0.31021571
0.022411641 -0.096060202 0.30334231
-0.0022440851 -0.1828289 0.28582659
0.0122894 -0.099362269 0.31123629
0.073940121 -0.19382641 0.27585831
0.063463137 -0.18845031 0.30486989
0.01219621 -0.09958066 0.31320429
0.046995141 -0.1926606 0.28947869
0.4035081 -0.19444109 0.86961442
0.40700611 -0.1815947 0.87593681
0.060780749 -0.1924805 0.85167098
0.3029671 -0.01295702 1.041533
0.2914992 -0.075382933 0.98204631
-0.17770889 -0.001031443 0.99466538
-0.197446 -0.034477498 1.1072201
-0.038877189 -0.1627336 0.77100158
0.33635351 -0.15758631 0.89939898
0.053520922 -0.1892511 0.90968168
0.40402961 -0.18471029 0.86766988
0.3519907 -0.055201601 0.8928296
0.062096778 -0.1961292 0.80049068
0.13530239 -0.1825728 0.96920902
0.03417987 -0.18978301 0.9755457
0.37247869 -0.067274913 0.88968241
0.043899748 -0.180161 0.98856193
-0.080183439 -0.1934424 0.76590329
-0.043020312 -0.1568538 0.77520382
0.02078598 -0.0048499261 0.82169092
0.0436805 -0.1511434 0.28801861
0.058002621 -0.096494988 0.32096171
-0.02074191 -0.1914362 0.79073977
-0.035022821 -0.19119941 0.76628429
0.048703201 -0.1466421 0.28752059
0.048594769 -0.1338705 0.28782189
-0.2432673 -0.1854274 0.90672117
-0.1752038 -0.18886951 0.74195093
-0.25915 -0.179287 0.97169751
-0.01183852 -0.16175739 0.31069779
-0.0056234258 -0.1152773 0.28763521
-0.01490367 -0.1556336 0.30907279
-0.006912407 -0.1956962 0.30143589
-0.01341121 -0.1155091 0.3433736
0.04261674 -0.15509591 0.28808409
0.05226687 -0.1002724 0.3184121
0.05440395 -0.18245509 0.93737191
0.049189471 -0.1895653 0.86374348
0.42006621 -0.1782451 0.89442468
-0.017876441 -0.1447598 0.31581551
0.41224471 -0.08424969 0.91802299
0.4015668 -0.091847077 0.90260828
0.45474771 -0.1188752 0.95644671
-0.0046676099 -0.1915645 0.82569689
0.032049011 -0.1962841 0.8268013
0.32947651 -0.090616003 0.8789801
0.2375472 -0.1892004 1.061208
0.34511259 -0.1430666 0.88653439
0.0180398 -0.18970139 0.84727311
0.034200151 -0.1824668 0.83276123
0.47843719 -0.091211721 1.031525
0.037032999 -0.1739365 0.83417273
0.41399029 -0.1006118 0.90614277
-0.01458018 -0.1850563 0.3080712
0.01238053 -0.1702054 0.27859539
0.068696283 -0.1938836 0.91280973
0.019885199 -0.189331 0.96101922
0.44309679 -0.1009507 0.93384987
0.34065339 -0.1408722 0.8893128
0.001230538 -0.1040521 0.3244701
0.41474801 -0.072200432 0.93030149
0.2702086 -0.052971348 1.0748661
0.068944357 -0.1732911 0.98659319
0.077739447 -0.1765064 0.97437263
0.28331119 -0.086180337 1.0428801
0.2550045 -0.067277208 1.060951
0.2396066 -0.072197601 1.07021
0.000111796 -0.15382341 0.28608871
0.3645722 -0.138098 0.87933922
0.36777669 -0.1341345 0.87912422
0.1240396 -0.18717 0.90984601
0.29074869 -0.073624298 0.98461533
0.01261322 -0.1019171 0.3090311
-0.01538233 -0.1589682 0.306366
0.024469029 -0.1020964 0.33742419
0.0045055151 -0.14933211 0.28327999
-0.1519623 -0.1892761 0.73581493
0.02628693 -0.101043 0.31158921
0.026638189 -0.1902056 0.236022
0.044039521 -0.19643851 0.85222638
-0.1216104 -0.1938109 0.73073459
0.163936 -0.1958468 0.86593783
0.1639705 -0.19566061 0.94641942
0.064499997 -0.1906953 0.78376901
0.1140488 -0.1928806 0.83510518
0.1085782 -0.1962956 0.80810952
0.066587977 -0.1383462 0.2932018
0.048076909 -0.12805469 0.2768158
0.063129731 -0.1843238 0.29915929
0.072817579 -0.090920389 0.25910199
0.01337591 -0.1690508 0.2765983
0.080069423 -0.173448 0.2490283
0.001287565 -0.17992949 0.27779549
-0.0029495661 -0.13912851 0.25641981
0.04312278 -0.097404242 0.31776389
-0.031914409 -0.1274942 0.3344782
-0.15657569 -0.1934265 0.73328441
-0.05430159 -0.19506191 0.77150631
0.17567369 -0.17291 0.78679788
-0.051552039 -0.18866619 0.8388201
0.069957331 -0.1007778 0.32443669
0.061546251 -0.1944183 0.85630518
0.055123419 -0.1869715 0.90102941
0.089867741 -0.15999959 0.77366662
0.091993503 -0.1699526 0.79728472
0.1141051 -0.1906216 0.88136971
0.019899821 -0.18477491 0.83911198
-0.1128323 -0.18777139 0.68229562
-0.29241681 -0.1721236 0.8291043
-0.39720109 -0.1924223 0.8099432
-0.28489751 -0.1781532 0.85752052
-0.2743119 -0.1793675 0.87448001
-0.25474221 -0.1754988 0.65657938
0.01346959 -0.097557962 0.30945259
0.091165103 -0.1757112 0.87665123
0.29702631 -0.1922842 0.55011672
-0.01103899 -0.16651919 0.6562959
0.033714149 -0.1787907 0.48109651
-0.003181949 -0.1893606 0.81807512
0.1005161 -0.1874738 0.92149663
-0.2269651 -0.1893162 0.3778733
0.026356131 -0.16912539 0.2834464
0.038743708 -0.1579822 0.29079351
0.016778279 -0.197043 0.93103641
0.03846636 -0.1947798 0.97721368
0.043645639 -0.1717421 0.96609741
0.032385111 -0.1904676 0.97308701
0.035599329 -0.1773866 0.85196209
0.075712137 -0.1826774 0.99913043
0.000237518 -0.022252649 0.83216399
0.0069552078 -0.01908225 0.84191263
-0.2157395 -0.069238037 1.155816
0.2355462 -0.154393 1.088102
0.087144032 -0.1877064 0.97434068
0.0382763 -0.19225679 1.042937
0.060975019 -0.1953108 0.81417292
0.074137211 -0.1924585 0.91254842
0.1627077 -0.1943385 0.85757619
0.1062368 -0.19280881 0.85427892
0.001363426 -0.02261867 0.83788657
0.0085526109 -0.02039424 0.84127158
0.17090771 -0.1956635 0.9176802
0.064841062 -0.19253211 0.798356
-0.01186247 -0.1905067 0.7851969
0.2121314 -0.18958031 1.071951
-0.04198816 -0.1725021 0.79413033
-0.136171 -0.19578379 0.71369481
-0.017996371 -0.1844414 0.77851081
-0.01311517 -0.16384649 0.34009349
0.2894997 -0.074336022 0.98146671
0.3445656 -0.1426615 0.8817203
0.23722731 -0.1892112 1.058754
0.3373276 -0.13756379 0.87956059
0.32626289 -0.088991702 0.87012792
0.40745819 -0.178791 0.87042803
0.40424809 -0.191415 0.86778331
-0.0083117783 -0.1670226 0.79442132
0.39905411 -0.185104 0.8812061
0.2416511 -0.073678359 1.068837
0.3327584 -0.1543722 0.88969707
0.26451081 -0.047316451 1.048743
0.2572248 -0.06789054 1.056017
0.40407079 -0.1856911 0.86378407
0.3505215 -0.052706119 0.89103311
0.37411499 -0.07280843 0.89206952
0.3999804 -0.086254328 0.89468533
-0.039527331 -0.19307899 0.76635373
0.4027372 -0.067672513 0.9159826
0.028815979 -0.0053508729 0.84083819
0.227726 -0.1547076 1.063244
0.4145478 -0.1214088 0.8853187
0.31064811 -0.062073071 0.96948123
0.248665 -0.1196294 1.060365
0.24702141 -0.1055392 1.055079
0.33304471 -0.04156306 0.90327698
0.01302329 -0.1690143 0.2781119
-0.079483047 -0.1882955 0.77576798
0.1078714 -0.19466379 0.93570089
0.01945892 -0.1882048 0.83450979
0.2801379 -0.048695911 1.017771
0.37017071 -0.16979089 0.55282992
0.2479331 -0.053091358 1.064019
0.2216372 -0.1102578 1.057665
0.53622842 -0.17885821 0.8198095
0.1206103 -0.1866359 0.8132354
0.38303211 -0.16935199 0.53308737
-0.024783131 -0.1173201 0.33420271
0.37342989 -0.1949694 0.53986597
-0.0094709247 -0.16675889 0.34067681
0.02289319 -0.1269075 0.28576621
-0.01425421 -0.19102719 0.3023634
0.00022372601 -0.15349659 0.28362051
-0.097614601 -0.1900751 0.73646867
-0.001294345 -0.14537901 0.80533391
0.25533429 -0.179304 1.020301
0.14352781 -0.1953066 0.94321352
0.46210879 -0.1028512 0.94175601
0.3857376 -0.19610409 0.58624738
0.2274033 0.115813 0.48202151
0.53271449 -0.1821847 0.81671083
0.36734429 -0.1930173 0.54960787
0.32806349 -0.1042844 0.90994352
0.2185097 -0.096334741 1.049665
0.1010548 -0.19572841 0.98179853
0.2330538 -0.13856129 1.079898
0.2451527 -0.1215556 1.050528
0.30574641 -0.067464903 1.0016969
0.2235727 0.1165295 0.50675231
0.38966879 -0.1786921 0.44827589
0.4558 -0.1828472 0.4847728
0.51106828 -0.1862645 0.39920589
0.4595584 -0.1879185 0.36491641
0.0262399 -0.18775029 0.27007061
0.59477341 -0.18594711 0.36845919
0.45770571 -0.1866013 0.34904519
0.52672338 -0.191935 0.33491969
-0.02333772 -0.14695109 0.32047579
0.52838111 -0.1835317 0.32754579
0.43660149 -0.1944423 0.25965181
0.54610252 -0.1531191 0.34942561
0.48448381 -0.191652 0.38458279
0.54824537 -0.147902 0.3237659
0.45412201 -0.1927162 0.2723116
0.50492603 -0.1665488 0.3061339
0.55460489 -0.17392901 0.8159771
0.54130781 -0.180213 0.29653811
0.55965137 -0.1850573 0.28606451
0.4024314 -0.1753888 0.84209311
0.4563573 -0.196749 0.49569839
0.64334852 -0.1779431 0.79457277
0.59510911 -0.1911183 0.3618983
0.56806248 -0.1758384 0.27886221
0.47104499 -0.19611409 0.30223721
0.56412971 -0.17553771 0.28671661
0.5285759 -0.1886065 0.26105329
0.45405161 -0.188105 0.47551939
0.45717889 -0.19520891 0.4970066
0.4625445 -0.1916983 0.34836799
0.4464258 -0.1889147 0.27203381
0.4835054 -0.18849809 0.34936869
0.3934305 -0.1776332 0.45142701
0.44060749 -0.1850207 0.4527846
0.42109069 -0.1917827 0.242724
0.50419241 -0.1917945 0.366294
0.4482002 -0.1946494 0.2266541
0.44277111 -0.17551111 0.36453459
0.52988052 -0.1899623 0.3345091
0.006861567 -0.154064 0.35646999
0.50121891 -0.1799939 0.3981919
0.50612831 -0.1796982 0.38642731
0.28925401 0.1205771 0.40438771
0.32968229 0.1258076 0.3798584
0.61686862 -0.1794159 0.79279429
0.50454372 -0.1746188 0.31154561
-0.0021885631 -0.19640011 0.3651818
0.01393586 -0.1960333 0.27329111
-0.02457583 -0.14308579 0.32022569
-0.01185673 -0.085036837 0.3041476
-0.019578131 -0.1470474 0.30632791
0.24845541 0.1200965 0.43507791
0.40533239 -0.1833259 0.87119597
0.26686689 0.1265793 0.64279431
0.544451 -0.1847634 0.385919
0.3271561 -0.17951369 0.83470303
0.025087589 -0.086093128 0.3595807
0.40451291 -0.1929184 0.84569561
0.3466424 -0.14179841 0.88871348
0.64308131 -0.1935813 0.40526259
0.3910526 -0.1814781 0.87975359
0.58530593 -0.1835196 0.78301668
0.31017059 -0.18806811 0.75936681
0.2985844 -0.19072101 0.68035328
0.27809361 0.1345129 0.41068321
0.31032541 -0.17444789 0.71111798
0.2483044 -0.18217079 0.84836638
0.022045311 -0.1592596 0.2718108
0.56820738 -0.18199711 0.375514
0.1470395 -0.1969564 0.84010053
0.032133728 -0.19623169 0.83415729
0.34527811 -0.1440468 0.89224273
0.1612072 -0.19076709 0.86989123
0.3502501 -0.05057412 0.89196008
-0.017347621 -0.1858484 0.78675228
-0.04304152 -0.19035371 0.7715466
0.073257878 -0.1833047 0.85397691
-0.0084021883 -0.1569206 0.79766911
-0.1519061 -0.1968587 0.69969058
0.29609311 -0.076283433 1.003018
0.2398933 -0.1914383 1.075436
0.2440356 -0.1007624 1.052593
0.2452165 -0.1206256 1.055894
0.2546486 -0.063233458 1.054163
0.2648004 -0.046929691 1.045662
0.3253696 -0.082928091 0.86916602
-0.1244121 -0.18501 0.71167243
0.22039001 -0.193592 1.091959
0.26032999 -0.1967115 1.043982
0.060697772 -0.1926575 0.85721272
0.29543459 -0.01133117 1.014424
0.1113549 -0.1954173 0.94731289
-0.047378991 -0.1485579 0.78890592
-0.15167201 -0.1965788 0.72286558
0.28614911 -0.03346971 0.9803372
0.002254345 -0.1458164 0.28225949
0.16405611 -0.18832579 0.84951252
0.1021545 -0.19138031 0.85295928
0.066620797 -0.1807425 0.8898235
0.3200005 -0.078730106 0.95993823
-0.001605898 -0.1509143 0.282213
0.03148742 -0.097484887 0.33045349
0.2330143 -0.1442766 1.070995
0.01224051 -0.096225351 0.32931691
0.43557611 -0.1038338 0.91631389
0.44861549 -0.1405257 0.90927583
0.28850329 -0.069147438 0.98067999
0.037106339 -0.1487235 0.2846348
0.04344919 -0.14447691 0.28461909
0.02944674 -0.095702499 0.30600721
0.12796509 -0.1890386 0.83822358
-0.2375735 -0.1749211 1.004393
0.051585149 -0.1819561 0.89486903
0.2063112 -0.1839164 1.058605
-0.1890732 -0.19151761 0.61966091
-0.1814221 -0.19264831 0.76084262
-0.057430919 -0.1754992 0.76133448
0.032148309 -0.1617381 0.81564718
0.37242511 -0.070738822 0.89035612
0.3259469 -0.19377311 0.58022732
-0.1860074 -0.19686539 0.29116791
0.4213497 -0.063781917 0.91004461
0.343604 -0.049068991 0.93144029
0.085218757 -0.17167521 0.84346128
0.37606141 -0.1938379 0.84572572
-0.01249669 -0.098357826 0.33549789
0.016901281 -0.1120543 0.315584
-0.024231641 -0.185277 0.3470827
0.033956811 -0.139339 0.89527923
0.077518173 -0.1757772 0.80367631
0.01139992 -0.1667383 0.27783999
0.4150047 -0.074394912 0.87193018
0.31346369 -0.064619392 0.98187321
-0.078502119 -0.1796885 0.74514133
-0.1529496 -0.18528029 0.72529119
-0.048840079 -0.18383139 0.76963812
0.074611537 -0.13104039 0.31177479
-0.0041291122 -0.091494083 0.30061159
-0.18904249 -0.1959282 0.63629109
0.063358597 -0.1171784 0.31691021
-0.29304811 -0.1894878 0.52953082
0.066079378 -0.13247541 0.31018361
0.1676356 -0.1946931 0.96173191
0.16785491 -0.1968184 0.87202507
0.32031119 -0.050683051 0.93773228
-0.052161369 -0.190834 0.76461321
-0.24737491 -0.1899043 0.97773278
-0.042625699 -0.1648466 0.78614151
0.0062379842 -0.021510869 0.85190332
-0.0093340054 -0.19161201 0.79446918
-0.2339039 -0.1724913 1.002997
-0.049027622 -0.1530478 0.77871668
0.061910931 -0.1935699 0.86345422
-0.2223226 -0.173149 1.0134619
0.12617651 -0.18540651 0.92376328
0.054049619 -0.1835521 0.903929
-0.016264711 -0.18917739 0.79357952
0.058738321 -0.19666781 0.81576258
-0.27153119 -0.18677071 1.010052
0.044112619 -0.1708038 0.97349238
0.071883403 -0.1927201 0.91999447
0.036576319 -0.1766649 0.85481417
0.01939757 -0.1882422 0.84755379
0.053452499 -0.1127839 0.34835181
0.04210785 -0.1560576 0.29174641
0.054067209 -0.1126311 0.29039699
0.021377919 -0.1655028 0.28521129
0.29658061 -0.075343549 1.000679
0.03658051 -0.1823644 0.9575417
-0.0093960389 -0.1667432 0.31304681
0.32261249 -0.024339469 0.82768333
0.35514891 -0.092452757 0.53154951
0.32990351 -0.1886559 0.91597241
0.30827829 -0.1956722 0.51701921
0.31613219 0.2529808 0.51251239
-0.003832154 -0.0150485 0.81861591
-0.1793678 -0.043243349 1.063369
0.007770427 -0.1176967 0.83624768
0.043217409 -0.063905977 0.88217902
0.1615285 -0.18850081 0.86889118
-0.18958411 -0.034965809 1.083904
0.34520289 -0.13956571 0.88285023
0.41615471 -0.1691819 0.87668991
-0.0054092412 -0.1577428 0.80662072
-0.1971703 -0.028437881 1.131645
-0.121835 -0.15215839 0.69082677
-0.2193372 -0.022718551 1.109167
0.34559661 -0.01303855 0.83475471
0.084289528 -0.1898571 0.97963947
0.4203926 -0.1724315 0.71119207
0.35157511 -0.1012374 0.54061538
0.33496699 0.1203343 0.39181331
0.32089439 0.113735 0.42475319
0.4052096 -0.1957722 0.47357681
0.40456659 -0.094174437 0.65071738
0.5336647 -0.1853171 0.8273412
0.34720099 -0.080543458 0.89846301
0.066476397 -0.1929858 0.3169632
0.0015445719 -0.098635852 0.31691971
0.2355151 -0.1415116 1.065681
-0.01309282 -0.1557837 0.3086057
0.2410441 -0.1921733 1.0668271
0.3443726 -0.14406089 0.88212287
0.51796132 -0.1696693 0.79499942
0.45235229 -0.18208911 0.48095939
0.33192351 -0.150241 0.88461739
0.3057096 -0.055108309 0.95356059
0.3244997 -0.1078865 0.89114332
0.36314651 -0.18665729 0.54531741
0.41912201 -0.15348791 0.55543941
0.1638346 -0.1900548 0.93565571
0.37222439 -0.1818575 0.51857829
0.01999012 -0.13295799 0.39415479
0.44291911 -0.1951651 0.53348911
0.3185778 -0.1939037 0.53011769
0.29536361 -0.077309012 0.99550468
0.42042431 -0.05488807 0.94672471
0.4064602 -0.18089931 0.44795299
0.50521898 -0.16923641 0.37583321
0.50897157 -0.1873156 0.40251511
0.45862931 -0.19358151 0.37306669
0.23824251 0.1207502 0.46166649
0.45039779 -0.06968531 1.075523
0.40289691 -0.077432781 0.89401442
0.35323769 -0.053582519 0.89321262
0.2991837 -0.01022425 1.01615
0.21286771 0.1170958 0.4777008
0.23185781 0.1148826 0.51217961
-0.01159987 -0.1497155 0.34218469
-0.01066151 -0.1668122 0.34041831
0.0063095088 -0.1516953 0.28561911
0.54625738 -0.098414451 1.201854
-0.01077604 -0.16773421 0.3573226
0.4012976 -0.055862341 1.003654
0.01353052 -0.099988908 0.29938841
0.3110331 -0.064798377 1.062681
0.4663204 -0.1289499 0.92686421
0.004554898 -0.15087619 0.28370291
0.52351153 -0.17656811 0.8062886
0.3873736 -0.1424849 0.53142512
0.40666699 -0.1891969 0.86533552
0.3955186 -0.1736152 0.53903002
0.37986809 -0.19393639 0.52777839
0.38858399 -0.1949418 0.58482039
0.343068 -0.16096769 0.90091747
-0.0076843798 -0.1964193 0.3578479
0.33531189 -0.1952066 0.60261202
0.44736421 -0.1822191 0.36302969
0.3791731 -0.1717971 0.85895443
0.59415197 -0.18866611 0.37006769
0.5185076 -0.184238 0.38727099
0.4657439 -0.19466659 0.3002049
0.52939188 -0.1944955 0.33539
0.48668051 -0.1703406 0.30347839
0.33744469 -0.19440509 0.2812449
0.51424718 -0.1863903 0.26356781
0.44502369 -0.18043341 0.47589841
0.45822749 -0.1851923 0.48244119
0.51823622 -0.1965957 0.40230981
-0.02486527 -0.1468538 0.31988969
0.4146224 -0.18793599 0.56827992
0.37375119 -0.1957977 0.53557152
0.017953251 -0.1892568 0.2902151
0.37668189 -0.19209801 0.52497661
0.56433147 -0.19666129 0.34609109
0.01619691 -0.096718647 0.32771039
0.48038429 -0.1896759 0.347774
-0.0040049851 -0.16743959 0.3455933
0.2307896 -0.1965052 0.53172338
-0.023673641 -0.1512143 0.31904221
0.01116343 -0.1451012 0.3581942
-0.01399899 -0.15789931 0.34640801
0.01939667 -0.1029681 0.29934931
0.02276537 -0.1047345 0.32033819
0.028513771 -0.1007665 0.31840491
0.028169431 -0.1004704 0.30200079
0.031196561 -0.1020701 0.33016729
0.01076309 -0.098380201 0.30524129
0.01474173 -0.099426217 0.33237401
0.023377391 -0.09964899 0.3332203
0.3960515 -0.18321019 0.45098031
0.3955974 -0.1788206 0.447337
0.030022589 -0.0981021 0.31929511
0.03010487 -0.1000397 0.3137567
0.031229321 -0.098309509 0.33066079
0.01642701 -0.1003826 0.30618641
0.48353529 -0.1834425 0.398213
0.4475649 -0.183378 0.47710779
0.01964191 -0.098997623 0.30796731
0.01599222 -0.09969034 0.3130098
0.02064587 -0.099662907 0.3260037
0.016641481 -0.098744981 0.32710221
0.40400481 -0.1827635 0.54944658
0.025770839 -0.099882036 0.3229554
0.02616428 -0.099509433 0.3167643
0.3539339 -0.1877858 0.53560358
0.2454824 -0.19630741 1.090469
0.24013761 -0.1741007 1.0890779
0.060382679 -0.1959157 0.87031782
0.047494009 -0.1920317 0.86447412
0.24471679 -0.1790646 1.074989
0.02922684 -0.1013953 0.30990431
0.04982467 -0.1852617 0.89956099
0.031515479 -0.1009093 0.33427799
0.042938489 -0.1771009 0.97970271
-0.0068136901 -0.18943609 0.82420462
0.031861771 -0.1895826 0.85079569
0.2267819 -0.153137 1.062452
0.01836843 -0.1907052 0.85287511
-0.044247419 -0.1677693 0.79532748
-0.017883601 -0.1949793 0.79369491
0.22896101 -0.1142392 1.072449
0.037130151 -0.184258 0.85669053
0.070760727 -0.1926906 0.91224349
0.2257296 -0.12541141 1.107722
0.02784575 -0.098042473 0.3362439
0.03491988 -0.1841947 0.91574442
0.081318483 -0.18690839 1.016773
0.048158679 -0.1477069 0.28945121
-0.007719873 -0.19411451 0.2916258
-0.01193601 -0.14726511 0.29470041
0.018200081 -0.098827787 0.33956581
-0.0002370077 -0.1779799 0.28394511
0.2302849 -0.104823 1.091939
0.020262711 -0.1913871 0.84447181
-0.0006260454 -0.1748409 0.85191762
0.24758761 -0.1059925 1.063062
0.2174218 -0.15505899 1.07091
-0.00058804092 -0.15423571 0.28483301
0.04123266 -0.19661701 0.8511892
0.042123262 -0.195149 0.84783769
-0.16146749 -0.1952101 0.74152893
-0.1211529 -0.19619571 0.69963241
-0.26050699 -0.1912979 0.9701488
-0.1845721 -0.19700059 0.75402582
-0.24446259 -0.17654189 1.000178
0.06134456 -0.1350373 0.30613291
-0.25933719 -0.178305 0.97417521
0.05473223 -0.1840484 0.2837449
0.061009821 -0.1907333 0.29790121
-0.19102409 -0.19679791 0.62073952
-0.34729791 -0.19622789 0.88986838
0.01325054 -0.094091177 0.30481911
-0.45223501 -0.1943862 0.6685183
-0.1394759 -0.19502319 0.70502609
0.04604632 -0.19190221 0.2879568
0.043436348 -0.13317651 0.2873165
0.02629498 -0.1009529 0.3238053
0.015793171 -0.1010084 0.30557579
0.058886621 -0.1565049 0.31820199
0.06077427 -0.144696 0.31000069
0.023600521 -0.1020551 0.3170487
0.059285179 -0.1795395 0.31066021
-0.37688339 -0.195665 0.5829376
0.03036895 -0.099632263 0.33481541
0.007456928 -0.1001851 0.30987361
0.056933641 -0.1439871 0.30413449
0.04384689 -0.19426671 0.28387859
0.024295149 -0.1022308 0.32982039
0.056028008 -0.19319279 0.30716291
0.06205475 -0.1684697 0.31376669
0.062421829 -0.18189 0.31238559
0.0613355 -0.1661959 0.32293439
0.061162259 -0.164891 0.32145739
0.05833225 -0.1442451 0.3048206
0.063650601 -0.1450022 0.32350239
0.064970493 -0.1627724 0.3257519
0.063674569 -0.1493185 0.32380179
0.06185906 -0.1435907 0.31464469
0.06276077 -0.1804428 0.31204239
0.064285077 -0.1633224 0.32353649
0.063277908 -0.14422721 0.31248239
0.059912261 -0.1858882 0.30481249
0.05371891 -0.1448289 0.34954441
0.063009337 -0.1710493 0.3164852
0.066144839 -0.15179311 0.32107979
0.062941372 -0.1763391 0.31271961
0.063319303 -0.17828301 0.3128573
0.06572096 -0.14805239 0.32555231
0.064220682 -0.1628685 0.32403919
0.052517962 -0.1437209 0.3529202
0.062204599 -0.18681879 0.30744901
0.061257269 -0.14219239 0.3051635
0.01539624 -0.098191023 0.3367267
0.031859171 -0.097397387 0.3161979
0.02329782 -0.098391041 0.32903871
0.01189696 -0.096330523 0.30692059
0.01508265 -0.097535223 0.33264759
0.06211216 -0.1849737 0.3033995
0.030680399 -0.098104581 0.3141861
0.029081769 -0.093709446 0.30770469
0.03398433 -0.1012249 0.3392089
0.01892676 -0.097960837 0.3112694
0.01233558 -0.1010859 0.32996419
0.03119473 -0.098105952 0.32077771
0.051234491 -0.1952296 0.28955051
-0.093621403 -0.189043 0.73016047
-0.08248768 -0.1919083 0.76043183
0.01733161 -0.1889807 0.84359741
0.004293174 -0.1895965 0.86739492
0.1125271 -0.19039249 0.91278142
0.02752576 -0.1763846 0.99507058
0.078714922 -0.18424401 0.9939574
0.06193845 -0.1748175 1.0082361
-0.04296327 -0.16950411 0.79122257
0.052213881 -0.1864363 0.89703822
0.0425179 -0.1964823 0.84537059
0.09041772 -0.1843584 0.8800112
0.048591729 -0.1909799 0.85142791
0.064244583 -0.1921287 0.78997529
0.092874691 -0.19666471 0.78083241
0.3944945 -0.1902453 0.85387778
0.40530959 -0.1773819 0.87182552
0.4140743 -0.1752679 0.88304299
0.39434871 -0.1876072 0.83442801
0.40633491 -0.18360201 0.88864291
0.33271921 -0.1552173 0.89059812
0.24071281 -0.1930725 1.071947
0.33394611 -0.14592101 0.88408852
0.352633 -0.1324279 0.85385442
0.45960209 -0.1797829 0.91503328
0.099225208 -0.18829329 1.083107
0.3356972 -0.1277584 0.87730283
0.03995556 -0.188668 0.8658337
0.3844192 -0.1735633 0.53165632
0.36707941 -0.17243379 0.5452764
0.46400699 -0.1840356 0.4960815
0.40439239 -0.16759691 0.5424087
0.51743799 -0.1960375 0.58884478
0.38526309 -0.1958984 0.52789599
0.44120109 -0.17844979 0.48250669
0.4024578 -0.18301649 0.46189189
0.375633 -0.162478 0.55025733
0.3825857 -0.1707553 0.54250968
0.3830004 -0.1722146 0.54502219
0.42443579 -0.1879131 0.84370708
0.50189191 -0.1946415 0.58012372
-0.02071777 -0.1494066 0.32860249
0.61512041 -0.1919214 0.36359981
0.49265951 -0.1940988 0.26622379
0.02829927 -0.09896291 0.3191984
-0.02262342 -0.1459142 0.31787181
0.46988621 -0.1925125 0.36172181
-0.01877713 -0.1467441 0.32925671
0.57986158 -0.1810254 0.26691031
0.035114631 -0.1020452 0.2955828
0.58766317 -0.1794315 0.25567299
0.55869597 -0.1907423 0.3188993
-0.01367408 -0.1389239 0.34007499
0.57232767 -0.1953004 0.2564747
0.53814143 -0.1883257 0.29426399
-0.008293733 -0.1488622 0.34942621
-0.003305689 -0.15907151 0.3521013
-0.0021293759 -0.1470831 0.35233551
-0.01382779 -0.14016549 0.33964291
0.001703352 -0.13730741 0.35593471
0.01194011 -0.1011016 0.33607441
0.029299559 -0.1260864 0.36476171
0.4419736 -0.196876 0.2553423
-0.00068643689 -0.13766339 0.35395181
-0.01917598 -0.1493654 0.31871271
0.40028149 -0.18038739 0.45334911
0.38164181 -0.1819977 0.45246401
0.38002211 -0.1963966 0.51886559
0.43906271 -0.1865436 0.2673032
0.55818462 -0.16970401 0.2410388
0.58975393 -0.1856609 0.3706623
0.64792597 -0.16828559 0.28707129
0.63054389 -0.1586819 0.65435219
0.50858271 -0.14574949 0.2251723
0.51243728 -0.15074129 0.55894268
0.4073253 -0.14258289 0.30636591
0.49604681 -0.05506682 0.20598871
0.64048702 -0.1906987 0.22862171
0.62594712 -0.1779419 0.2864629
0.50314742 -0.1292921 0.20007651
0.64267153 -0.1827929 0.7311492
0.40996531 -0.098582089 0.23378
0.4045051 -0.0865767 0.21134859
0.3931089 -0.12643319 0.4768118
0.39335859 -0.06294632 0.45740709
0.3970834 -0.14022049 0.50616562
0.41866389 -0.1826741 0.85568458
0.3655546 -0.1765739 0.2271964
0.2333605 -0.1862507 0.21792869
0.067623504 -0.094599783 0.31952709
-0.0066108699 -0.13546249 0.38261679
0.27001691 -0.1029596 0.24275281
0.59344918 -0.1370032 0.29558289
0.63444692 -0.1647376 0.6863234
0.38531181 -0.1519808 0.57294422
0.3581889 -0.1517401 0.89263481
0.1078147 -0.176109 0.92338419
0.03078125 -0.1808576 0.80319589
