# .PCD v0.7 - Point Cloud Data file format
VERSION 0.7
FIELDS x y z normal_x normal_y normal_z curvature
SIZE 4 4 4 4 4 4 4
TYPE F F F F F F F
COUNT 1 1 1 1 1 1 1
WIDTH 586
HEIGHT 1
VIEWPOINT 0 0 0 1 0 0 0
POINTS 586
DATA ascii
0.047009185 -0.13347875 0.28916037 0.28436685 0.35314232 -0.8913058 0.082935281
-0.17651762 -0.19365975 0.74032724 -0.044671919 0.99858856 0.02872638 0.0044481326
-0.010299584 -0.16167197 0.31125498 -0.47122684 0.30389094 -0.82800692 0.15685737
-0.00046234421 -0.12226443 0.29900658 -0.35595599 0.38678542 -0.85070109 0.15993288
-0.010622388 -0.15514551 0.31057304 -0.43416974 0.30094239 -0.84907621 0.14591278
-0.0077696396 -0.19528204 0.30070946 -0.16802527 0.94396794 -0.28406352 0.17649412
-0.0042361659 -0.12289543 0.3358154 -0.50700837 0.35149625 -0.78701526 0.1928231
0.040540233 -0.1548458 0.29133874 0.17236131 0.38021949 -0.90869397 0.1224452
0.045986783 -0.11107149 0.32034114 0.067350015 0.3875021 -0.91940528 0.19294287
0.050743978 -0.18991581 0.93713492 -0.021792041 -0.99958152 0.019024204 0.0048291553
0.049014747 -0.19396074 0.86383569 -0.036308594 -0.99927288 0.011635384 0.0091001214
0.42484519 -0.18105987 0.89107412 -0.14543416 -0.92403287 0.3535704 0.18210152
-0.013287019 -0.14348319 0.31679255 -0.57483733 0.3568781 -0.73634225 0.14213008
0.41584939 -0.082400791 0.91468441 -0.40718469 -0.17537363 0.89635074 0.055854119
0.40627867 -0.087825648 0.89827979 -0.33849692 -0.17104283 0.92529148 0.059557594
0.45767042 -0.11703376 0.95670468 0.75464934 0.3564578 -0.55085582 0.0095607545
-0.0045963875 -0.19126733 0.82566094 -0.13925387 -0.98974091 0.031957343 0.032099061
0.032103449 -0.19562206 0.82675511 -0.059364639 -0.99809426 -0.016843064 0.02127287
0.33145452 -0.089769363 0.87925267 0.0080505209 -0.075265348 0.99713099 0.094222993
0.2355905 -0.19533837 1.0628953 0.78173363 0.15990782 0.60276204 0.16614355
0.34583056 -0.14204948 0.88938814 0.35204741 -0.021921996 0.93572539 0.11792145
0.0180081 -0.19385271 0.84739679 -0.097594783 -0.99520975 0.0057127695 0.019369304
0.032791596 -0.19490603 0.83478045 -0.066690825 -0.99775356 -0.0063306857 0.019150766
0.036486734 -0.19309001 0.83623898 -0.052576751 -0.99850839 -0.014722618 0.01931832
0.41625863 -0.099305071 0.90413737 -0.37653366 -0.14221147 0.91542244 0.060293656
-0.011240366 -0.18576571 0.30931279 -0.35525361 0.86466599 -0.35517254 0.20538354
0.013082019 -0.1704739 0.28446385 -0.032720994 0.4496516 -0.89260447 0.17105941
0.068609536 -0.19479665 0.91273737 -0.0392312 -0.99902678 0.020161314 0.0054141618
0.028823148 -0.19492106 0.95956111 0.014190677 -0.99971038 0.019439096 0.0094578238
0.44174147 -0.10248976 0.9343279 0.80720693 0.36212 -0.46613955 0.018630505
0.34111318 -0.14044933 0.89064401 0.80364847 0.032119386 0.59423691 0.12234122
0.0016714375 -0.10571108 0.3242898 -0.39472044 0.47280648 -0.78781325 0.20793274
0.41611695 -0.072168648 0.9298268 -0.5278632 -0.57032764 0.62935436 0.072843954
0.26833948 -0.050914239 1.0752082 0.68468857 -0.17975707 0.7063207 0.034504101
0.064435035 -0.18671665 0.98912764 -0.056460094 -0.99838972 -0.0055027171 0.011294593
0.071497239 -0.1889113 0.97714305 -0.056458343 -0.99840397 -0.0013953764 0.0090953559
0.28389248 -0.085791759 1.0435382 0.79617536 -0.3254233 0.51010239 0.029009337
0.25428796 -0.067080446 1.0599346 0.76915675 -0.25708765 0.58506739 0.033374749
0.24137101 -0.07069616 1.0608747 0.74724972 -0.18950048 0.63695163 0.051150016
0.0020534336 -0.15346588 0.28865626 -0.14891082 0.41659069 -0.89681536 0.13174324
0.36207113 -0.13315402 0.88714457 0.20423104 -0.079817273 0.9756633 0.07828372
0.36481512 -0.13003388 0.88707697 0.11553077 -0.12759635 0.98507452 0.06807097
0.12231263 -0.19777146 0.91009843 -0.047052018 -0.99888879 -0.0026959856 0.0020374798
0.29062039 -0.072612092 0.98483223 0.89761764 0.0060423426 0.44073367 0.043690033
0.012570134 -0.10135671 0.30899566 -0.30037826 0.47317681 -0.82817674 0.19564466
-0.01016224 -0.15867122 0.30853024 -0.43971941 0.31617796 -0.84064168 0.15043458
0.024491236 -0.10116722 0.33750212 -0.35289681 0.19816341 -0.91443706 0.23381156
0.0060718721 -0.14971985 0.28833818 -0.12289729 0.39805675 -0.90909135 0.12897049
-0.15203674 -0.19775923 0.73558521 -0.073158525 0.99472135 0.071953394 0.017130338
0.026156416 -0.10197228 0.31173277 -0.079191789 0.4818303 -0.87267882 0.20578879
0.026355714 -0.20842265 0.23804392 0.087988496 0.92644328 -0.36600661 0.1144964
0.044131458 -0.19529513 0.85214013 -0.058577694 -0.99826413 -0.0061155614 0.016141243
-0.12150063 -0.19638892 0.73088038 -0.084365688 0.99367046 0.07417202 0.013965848
0.16324861 -0.1977953 0.86600673 -0.066610634 -0.99777758 0.0017328633 0.0058116298
0.16407937 -0.19844775 0.94655478 -0.036346853 -0.99907184 -0.023115035 0.0053019761
0.066472799 -0.19984855 0.78486037 -0.004225804 -0.99954808 -0.029763196 0.023912368
0.11398786 -0.19676603 0.83573389 -0.025274532 -0.99929482 -0.027769966 0.0086038616
0.10825551 -0.19440503 0.80850917 -0.0017779458 -0.99925137 -0.038645096 0.013160771
0.056174513 -0.13536018 0.29994479 0.31659943 0.32808667 -0.89001346 0.086291142
0.041028861 -0.12739103 0.28393561 0.25599805 0.34968057 -0.9012149 0.083422929
0.058901645 -0.18632761 0.30224931 0.57183558 0.36533722 -0.73452896 0.22599916
0.013477049 -0.16930917 0.28404844 0.015843928 0.44604278 -0.89487141 0.16058429
0.077202462 -0.17493144 0.24508309 0.57682246 0.54180282 -0.61133093 0.16009451
0.0057109809 -0.18060189 0.28306279 -0.094942495 0.7299931 -0.67682797 0.17414331
0.0063592182 -0.13538866 0.26093149 -0.11154366 0.42578268 -0.89792377 0.058880586
0.041383512 -0.10444081 0.31834546 0.048226949 0.43987924 -0.896761 0.19849087
-0.016858077 -0.12833963 0.32924789 -0.78175199 0.3620066 -0.50775474 0.11070796
-0.15670629 -0.19777995 0.73308778 -0.068729267 0.99494481 0.073219649 0.020310197
-0.054467347 -0.19523481 0.77182025 -0.10452951 0.99416631 0.026587183 0.056483582
-0.035282549 -0.18659854 0.83012933 -0.11749224 -0.99298483 0.013293378 0.050767154
0.057843499 -0.11639153 0.32843179 0.14949828 0.35272688 -0.92370665 0.19056261
0.061521918 -0.19505776 0.8563267 -0.014733922 -0.99988192 -0.0043608188 0.0086972844
0.055027179 -0.19389592 0.90120697 -0.031967171 -0.99916464 0.025458749 0.0052313409
0.097966857 -0.16104238 0.77670717 -0.15313919 0.95467156 0.25524643 0.045097467
0.095051035 -0.17787908 0.78771138 -0.066866525 0.99631941 0.053633094 0.026819903
0.11366857 -0.19488084 0.88123459 -0.039635785 -0.99917972 0.0083039599 0.0022956706
0.020902654 -0.19200899 0.83813435 -0.11475309 -0.99336749 0.0072614877 0.020989817
-0.11090551 -0.18763463 0.68385869 -0.12684983 0.98769635 0.091460884 0.028424285
0.013469996 -0.10063339 0.30968669 -0.29208583 0.46593398 -0.83521932 0.19812888
0.090655789 -0.19346164 0.87476742 -0.028551351 -0.99953395 0.01080407 0.003848565
0.29709756 -0.19940054 0.54975998 0.11847818 -0.99052888 -0.069393091 0.017634017
0.032708887 -0.18678027 0.48909429 0.024583394 -0.99948281 0.020731261 0.0051746513
-0.0033051718 -0.19147906 0.81788886 -0.13746729 -0.99018157 0.025359811 0.031452823
0.10054468 -0.19562331 0.92080933 -0.055049654 -0.99830598 0.018835541 0.0030176979
0.025888136 -0.16918066 0.28589574 0.13628322 0.42603943 -0.89438099 0.15535776
0.038302276 -0.15794034 0.29162589 0.12768374 0.37711641 -0.91732216 0.12556654
0.016801957 -0.19758075 0.93108255 0.016361337 -0.99976599 0.014151109 0.0055579175
0.036318973 -0.19225404 0.97911179 0.014763507 -0.99986345 -0.0074247625 0.014924837
0.049838591 -0.18248053 0.96956265 -0.014703719 -0.99988842 0.0026377775 0.010590743
0.034631085 -0.19155185 0.97300905 0.02612461 -0.99965066 0.0040070545 0.011802503
0.034351863 -0.1922199 0.84933656 -0.071524486 -0.99743867 0.00051331345 0.017729478
0.073341265 -0.19102104 0.9981699 -0.068248369 -0.99743986 -0.021351511 0.0134409
-0.00048103771 -0.021040715 0.83265543 -0.48996732 0.80391783 0.33711743 0.00030207561
0.0074649737 -0.019942034 0.841564 -0.48996732 0.80391783 0.33711743 0.00030207561
0.23571795 -0.15433389 1.088056 0.83792239 0.034642547 0.54468888 0.079484746
0.087864898 -0.18740347 0.97478831 -0.066006206 -0.99781138 0.0039577791 0.0077082287
0.0382763 -0.19225679 1.042937 -0.08088734 0.9914763 0.10213749 0.027038449
0.060709126 -0.19776659 0.81411374 -0.027969535 -0.99915677 -0.030057658 0.024067923
0.074080095 -0.19382106 0.9124617 -0.045061052 -0.99882621 0.017769827 0.005428222
0.16160716 -0.19706096 0.85822892 -0.065540999 -0.99783438 0.0055718604 0.0063129836
0.10612987 -0.19486763 0.85450101 -0.037926994 -0.99928021 -0.00078547932 0.0070330123
0.0011482198 -0.022255698 0.83803374 -0.48996732 0.80391783 0.33711743 0.00030207561
0.0080771716 -0.019592352 0.84159678 -0.48996732 0.80391783 0.33711743 0.00030207561
0.17154457 -0.19803689 0.91797566 -0.045228597 -0.99897468 -0.0019461026 0.0047082803
0.065138735 -0.19718786 0.79791462 -0.0099403327 -0.99986863 -0.012804234 0.022707449
-0.020487659 -0.18917251 0.79296607 -0.13455676 -0.98793697 0.076648921 0.045849778
0.22194953 -0.19867539 1.0782089 0.84053814 -0.0020646625 0.54174852 0.15559244
-0.040659558 -0.17146568 0.79212397 -0.011333058 0.99992108 -0.0054150955 0.068596601
-0.13617298 -0.19764282 0.71366072 -0.082237996 0.99462467 0.062918201 0.016458198
-0.024532752 -0.18549091 0.78777885 -0.14861985 -0.98354518 0.10271785 0.054651663
-0.011744157 -0.16394831 0.33964175 -0.86972392 0.34801316 -0.34995297 0.1714197
0.28922477 -0.072167337 0.98193151 0.90812963 0.018606411 0.41827539 0.047886413
0.34374768 -0.13984425 0.88707 0.53230035 -0.021157537 0.84629118 0.12237684
0.23511846 -0.19582641 1.0605724 0.78173363 0.15990782 0.60276204 0.16614355
0.34342527 -0.13532682 0.88840491 0.3841562 -0.036198713 0.92255819 0.10270564
0.33254197 -0.08756794 0.87073642 0.0011337607 -0.098664902 0.99512011 0.095687322
0.40543458 -0.19069555 0.87095571 -0.061604381 -0.92173672 0.38289192 0.16220942
0.40435028 -0.19194722 0.86774188 -0.066233903 -0.87748963 0.47499999 0.16184501
-0.017096724 -0.17314535 0.80459684 -0.1454058 -0.98707485 0.067382619 0.049628776
0.40204242 -0.19352965 0.87683594 -0.071114697 -0.89423108 0.44192028 0.16753981
0.24314468 -0.072407387 1.0609347 0.75699615 -0.1952509 0.62356544 0.045288377
0.33262029 -0.15202777 0.89319634 0.91271108 0.10516924 0.39483896 0.1106539
0.26772338 -0.050292607 1.0494074 0.81805903 -0.30118471 0.48996651 0.038293272
0.25800136 -0.06810379 1.0571185 0.76826614 -0.27602717 0.57756048 0.031401839
0.40406948 -0.19184269 0.86436367 -0.026405204 -0.90041983 0.43421981 0.15329266
0.35152987 -0.052268684 0.89399916 0.070303917 -0.68821871 0.72208887 0.13856508
0.37344801 -0.07297121 0.89551914 -0.22292978 -0.19867177 0.95437509 0.0887172
0.4001798 -0.086066775 0.89441049 -0.34941509 -0.11278001 0.93015569 0.068509951
-0.043995887 -0.19511344 0.77721292 -0.048298545 -0.98991239 0.13319384 0.064658746
0.40290701 -0.067523964 0.91578943 -0.29221261 -0.23447815 0.9271633 0.081706174
0.029079622 -0.0057525504 0.84071797 -0.48996732 0.80391783 0.33711743 0.00030207561
0.23083977 -0.15561767 1.0610172 0.82894886 0.04219475 0.55773056 0.077613667
0.41474971 -0.12128353 0.8852182 -0.24727108 -0.31487894 0.91635597 0.044499278
0.30708551 -0.064139664 0.96717721 0.91634881 0.017595576 0.39999408 0.03311687
0.23835783 -0.12082178 1.0570277 0.92453355 -0.087162495 0.37099931 0.036020499
0.2473163 -0.10580482 1.056655 0.75939715 -0.11070067 0.64114052 0.04213047
0.33149925 -0.045699533 0.90277582 0.45516238 -0.65382385 0.60443491 0.14999554
0.013445343 -0.16942953 0.28458717 -0.0095121479 0.44101915 -0.89744729 0.16525924
-0.078927569 -0.19676188 0.77370095 0.03541046 -0.99272346 0.1150924 0.035638463
0.10762175 -0.19664267 0.93555284 -0.06612277 -0.99776709 0.0094155557 0.0034086872
0.019595902 -0.19314502 0.83434796 -0.1223385 -0.99247444 0.0052699391 0.023212714
0.28410226 -0.049241368 1.0209936 0.84086215 -0.24692655 0.48164102 0.042302623
0.37232283 -0.17106035 0.55473864 0.13524824 -0.990309 -0.031559478 0.094523735
0.25504369 -0.060917169 1.0627172 0.71463835 -0.2864944 0.63813233 0.031766873
0.23531277 -0.10867574 1.0620928 0.87905318 -0.12793669 0.45923594 0.043192696
0.1160211 -0.18493004 0.81713718 0.016458178 0.99892205 0.043402974 0.012040704
0.38665438 -0.17092626 0.53643262 0.0270475 0.9930166 -0.1148323 0.09707085
-0.012082784 -0.12091678 0.32909068 -0.59862536 0.44380131 -0.66684932 0.15421256
0.37363577 -0.19507024 0.53999275 0.11792115 -0.99067378 0.068263531 0.077029519
-0.011588033 -0.16653186 0.34139588 -0.89423275 0.37006468 -0.25179332 0.18653579
0.022644386 -0.13032356 0.2936807 -0.065499209 0.30894113 -0.94882309 0.12873574
-0.011539982 -0.19225897 0.30411297 -0.22773202 0.92994285 -0.2886945 0.18677621
0.002714159 -0.15302843 0.28744578 -0.15318909 0.41909453 -0.89492613 0.13183434
-0.097202495 -0.19322917 0.73610497 -0.10563812 0.99278408 0.056748472 0.018544313
-0.0064027789 -0.1579235 0.8126272 -0.17357531 -0.98313999 0.057508968 0.046009008
0.25242475 -0.18624283 1.016526 0.78693819 0.24050727 0.56822932 0.12046669
0.14350888 -0.19824606 0.94322449 -0.046396401 -0.9986375 -0.023887295 0.004718361
0.45421815 -0.10999556 0.94420397 0.75715148 0.36148885 -0.54410231 0.0066600884
0.38631755 -0.20084743 0.58584565 -0.0021256953 -0.98619199 -0.16559221 0.079017282
0.53020018 -0.18219222 0.81812525 0.8655892 0.0038296329 -0.50074017 3.7152964e-05
0.36509508 -0.19116209 0.54644614 0.1218922 -0.99253261 -0.0046144226 0.08357808
0.34020939 -0.098761067 0.90685838 0.23327112 -0.23629548 0.94326502 0.14056112
0.21719044 -0.098455384 1.0565996 0.86260867 -0.2002054 0.4645687 0.045440827
0.1013647 -0.19435117 0.98185635 -0.069976382 -0.997522 -0.0072975704 0.0071220123
0.23248316 -0.13855012 1.079789 0.82323134 0.0015057602 0.56770402 0.058146954
0.2464669 -0.12115543 1.0527873 0.80421984 -0.05484629 0.59179586 0.037406288
0.3005251 -0.074649237 1.0006016 0.88713646 -0.14065261 0.43955171 0.045450926
0.39266893 -0.17980658 0.44554612 0.097817771 -0.98632491 -0.13264573 0.071250632
0.45649055 -0.18307455 0.48411953 0.036902029 -0.98077488 -0.19162154 0.058151197
0.51092356 -0.19553074 0.39656872 0.025259867 -0.99934834 0.0257845 0.02667091
0.45912361 -0.19377869 0.36719057 0.09354306 -0.99553472 -0.012657952 0.030671468
0.023985483 -0.19286884 0.27819139 0.086227767 0.71162403 -0.69724882 0.18447576
0.46060479 -0.18790014 0.35794273 0.10213021 -0.99470729 -0.011256703 0.026338376
0.5268752 -0.19380158 0.33476847 0.10707643 -0.99380195 -0.029870618 0.022743631
-0.016180675 -0.1459963 0.31975174 -0.72844046 0.37151241 -0.57563281 0.11295262
0.52737731 -0.18368876 0.32821733 0.12221953 -0.99205065 -0.029963536 0.021512145
0.43757513 -0.19928145 0.25942096 0.13352367 -0.99066538 -0.027450923 0.013235708
0.48475197 -0.19535427 0.38472342 0.049034659 -0.99834782 0.029955516 0.025914457
0.4550164 -0.19772564 0.27172107 0.18138207 -0.9827351 -0.036500644 0.020118512
0.50377202 -0.16700666 0.30844164 0.12526436 -0.99203837 -0.012990881 0.027457336
0.40064147 -0.19283059 0.85385078 -0.0057135154 -0.97507858 0.22178626 0.15614076
0.45958 -0.19779816 0.49184 0.049312983 -0.98838919 -0.14371809 0.023617579
0.47443444 -0.19843395 0.29729661 0.1089853 -0.99403304 0.0045310026 0.016595751
0.45050031 -0.18747771 0.47822821 0.036902029 -0.98077488 -0.19162154 0.058151197
0.45717791 -0.19519895 0.49700955 0.016286014 -0.99494672 -0.099074379 0.026758857
0.46496862 -0.19278435 0.3558079 0.10213021 -0.99470729 -0.011256703 0.026338376
0.44960177 -0.19512767 0.26959005 0.18138207 -0.9827351 -0.036500644 0.020118512
0.48351187 -0.19912681 0.35304025 0.089562185 -0.99576771 -0.020620482 0.029066406
0.39617568 -0.17865296 0.44892922 0.061192963 -0.9933781 -0.09723825 0.059620742
0.43125296 -0.18609303 0.46744797 0.0066987299 -0.9957903 -0.091415703 0.053309366
0.42321131 -0.20161061 0.24267802 0.09034095 -0.99509573 -0.04028615 0.0024907619
0.50448978 -0.1943434 0.36635712 0.070711412 -0.99674433 -0.038738478 0.033081681
0.44852382 -0.19771671 0.22657607 0.10847258 -0.99327058 -0.040586509 0.0024147981
0.4431479 -0.17583656 0.36604631 0.076948419 -0.99695981 0.012255086 0.028856749
0.53214324 -0.19011328 0.33306885 0.098375104 -0.9946242 -0.032327682 0.023860278
0.0025569692 -0.15403564 0.36004633 -0.94117355 0.33050662 0.070411727 0.2045904
0.50149626 -0.1946976 0.39454094 0.047693614 -0.9984405 0.029012496 0.0279404
0.50772858 -0.19072683 0.38298273 0.063183233 -0.99719959 -0.040009886 0.034219373
0.50675571 -0.1742686 0.30889413 0.1442306 -0.98918265 -0.026742417 0.024995623
-0.0015582576 -0.20057584 0.36232793 -0.050858904 -0.98803377 -0.14561164 0.19907413
0.013890043 -0.19906892 0.27806789 0.043215286 0.83233511 -0.55258554 0.18849528
-0.01627052 -0.14221352 0.31975982 -0.69982755 0.37211999 -0.60972792 0.1139271
-0.0057431795 -0.10505689 0.30679202 -0.51720381 0.46883816 -0.71602446 0.14638107
-0.01234971 -0.14717786 0.309412 -0.50361216 0.35634917 -0.78701341 0.13624445
0.40528965 -0.19136015 0.87043053 -0.066363491 -0.91287047 0.40281937 0.1638139
0.5425272 -0.18714826 0.38137168 0.081505135 -0.99637985 -0.024168193 0.013338692
0.32339403 -0.18112907 0.83584195 0.70775247 -0.044911418 0.70503157 0.16441947
0.024768177 -0.092385896 0.36109912 -0.20222664 -0.56858796 -0.79737824 0.15720274
0.40466005 -0.19639491 0.84687752 0.074451245 -0.99304962 -0.09115614 0.017748501
0.34672293 -0.14168435 0.8890335 0.34150839 -0.029894106 0.93940318 0.11267169
0.39643893 -0.19282104 0.8757996 -0.11230604 -0.74128675 0.66172594 0.17665267
0.020254852 -0.1593903 0.28383982 0.071678281 0.43965524 -0.89530188 0.12894444
0.14679356 -0.19858171 0.84039813 -0.051952224 -0.99828362 -0.027035274 0.011687365
0.032194663 -0.1954436 0.83411336 -0.073637493 -0.99727601 0.0042523718 0.019130146
0.34507909 -0.14434737 0.89083332 0.39590043 0.014407533 0.91818047 0.12002949
0.15943256 -0.19598202 0.87027943 -0.064489156 -0.99791479 0.0026681351 0.0056656962
0.35091496 -0.050285697 0.89391577 0.081262045 -0.72229469 0.68679458 0.13371676
-0.023633383 -0.18895285 0.79388297 -0.14396302 -0.98590404 0.085251465 0.04880812
-0.045775175 -0.19246759 0.77876598 -0.037411593 -0.99154478 0.12425496 0.06577111
0.07344418 -0.19431295 0.85525447 -0.016635861 -0.99985611 -0.0033168881 0.0087304339
-0.014765286 -0.16620919 0.80856353 -0.16060035 -0.98492163 0.064319149 0.050299529
-0.15192002 -0.19866987 0.69979131 -0.065972999 0.99688625 0.043191127 0.021480015
0.29819494 -0.073391385 1.003459 0.87040639 -0.17096688 0.46169585 0.045560718
0.23999111 -0.19364925 1.076125 0.69917464 0.08368358 0.71003652 0.13906032
0.24493152 -0.10152288 1.0562551 0.76203477 -0.15338157 0.62910813 0.043793626
0.24416617 -0.12094542 1.0540885 0.80176836 -0.055931434 0.59501183 0.036932189
0.25736886 -0.06421981 1.0581466 0.7394858 -0.26075259 0.62061971 0.028378658
0.26838428 -0.050249822 1.0464032 0.81805903 -0.30118471 0.48996651 0.038293272
0.32962576 -0.081632301 0.86912727 0.021844899 -0.1259084 0.99180132 0.10045402
-0.12343388 -0.19443263 0.71040684 -0.080837689 0.99416673 0.071398377 0.016394541
0.22129399 -0.19751567 1.0919333 0.80116832 -0.020228213 0.59809715 0.15964253
0.26000187 -0.19849041 1.0438712 0.79345185 0.28397596 0.53832316 0.13822103
0.060723789 -0.19446008 0.85731214 -0.014734275 -0.99988204 -0.0043358761 0.0086926725
0.29543459 -0.01133117 1.014424 0.91694695 -0.14864556 0.3702873 0.052532051
0.11126027 -0.19672674 0.94729835 -0.065331295 -0.99785686 0.0036812047 0.0037980466
-0.042847652 -0.14907338 0.78851992 -0.053780772 0.99802893 -0.032339048 0.095161274
-0.15169787 -0.19748703 0.72283316 -0.074028544 0.99472821 0.070960984 0.019022485
0.2853452 -0.033657894 0.97964579 0.89838105 -0.14610754 0.41420308 0.055914849
0.0051615159 -0.14605077 0.28787616 -0.15349329 0.36583418 -0.91793531 0.11910172
0.16026364 -0.19809724 0.85220003 -0.066492692 -0.99777478 0.0049273311 0.0065927152
0.10193955 -0.19517379 0.85345745 -0.032290671 -0.99947554 0.0023987929 0.0065579507
0.067182116 -0.19307113 0.88975132 -0.029039655 -0.99952507 0.010309389 0.0044800662
0.32296222 -0.070880428 0.96548915 0.8898015 0.08965978 0.4474532 0.021783382
0.0020642038 -0.15042546 0.28736123 -0.15850893 0.41512412 -0.89584976 0.12970415
0.031343956 -0.10000765 0.33046031 -0.29974315 0.22919644 -0.92607939 0.23409401
0.23348035 -0.1441686 1.0712131 0.88248533 0.012516306 0.47017336 0.064250425
0.01271804 -0.10105741 0.32898742 -0.35613617 0.3745985 -0.85606247 0.23436923
0.43350896 -0.10556777 0.91891056 -0.5363003 -0.2150754 0.81616455 0.050703816
0.44632846 -0.14118373 0.91410577 0.76438481 0.1504903 -0.62695175 0.090292349
0.29587293 -0.064877592 0.98510945 0.91368854 -0.10386086 0.39292002 0.053482585
0.034891509 -0.14857695 0.28976643 0.1022621 0.38686934 -0.91644663 0.11787827
0.040531434 -0.1429776 0.28818563 0.17287502 0.37746438 -0.90974438 0.10330436
0.028758476 -0.10214116 0.30678374 -0.031158594 0.49302378 -0.86945772 0.20063797
0.12816562 -0.19697046 0.83906662 -0.025186811 -0.99907118 -0.034963135 0.011427389
0.05162387 -0.19420315 0.89515114 -0.023578674 -0.99961126 0.014875005 0.0052464623
0.20595267 -0.18448871 1.0644271 0.88585216 0.0022991542 0.46396187 0.1052559
-0.19080488 -0.19661829 0.61938393 -0.23037568 -0.96022719 0.15776818 0.011928489
-0.18370755 -0.19798306 0.75736946 -0.034627892 0.99852741 0.041758098 0.0053619794
-0.062271982 -0.17653669 0.7681092 -0.061257932 0.99479759 -0.081394963 0.05285731
0.017567879 -0.16811785 0.82273394 0.13916408 0.99014008 0.015997313 0.028995385
0.37148207 -0.070968978 0.89523351 -0.22292978 -0.19867177 0.95437509 0.0887172
0.32717538 -0.19507036 0.57930404 0.20854127 -0.97273582 -0.10146713 0.058406189
0.40995163 -0.064315528 0.91462195 -0.36928123 -0.47368804 0.79953176 0.10566439
0.34212276 -0.053065613 0.93093729 0.21167625 -0.89428371 0.39427125 0.087674566
0.086128645 -0.19198969 0.85063398 -0.022128535 -0.99975389 -0.0015440577 0.0080261249
0.37645522 -0.19535092 0.84555674 0.029764513 -0.49228835 0.86992311 0.15598273
-0.0063419817 -0.11181254 0.33189043 -0.51542866 0.4617582 -0.72188133 0.18663658
0.015646541 -0.10116579 0.31484017 -0.23875773 0.44351172 -0.86388201 0.20537245
-0.015542253 -0.18750155 0.34527582 -0.88515151 0.46356589 0.0401676 0.22059406
0.080153786 -0.19219495 0.79810566 0.0043290872 -0.99999005 0.0010466389 0.024721036
0.012135033 -0.1671256 0.28420699 -0.011624583 0.43585518 -0.89994174 0.15140298
0.41476151 -0.074445307 0.87178236 -0.38110089 -0.22672027 0.89630347 0.068458356
0.31399637 -0.068821661 0.98097265 0.92422509 0.00058524357 0.38184762 0.059873622
-0.07740099 -0.19063289 0.74361759 0.074302308 -0.99635196 0.041975331 0.024698807
-0.15324505 -0.19747904 0.72480613 -0.073846094 0.99472648 0.071175463 0.019714292
-0.051803064 -0.18671097 0.77588516 -0.090873465 0.99585819 -0.0029197116 0.067667656
0.064143047 -0.13072446 0.3171801 0.44961041 0.37980771 -0.80845326 0.12185549
-0.0025756259 -0.10299234 0.30093038 -0.50207323 0.47491542 -0.7227571 0.1461972
-0.18971242 -0.19790149 0.63618392 -0.28202543 -0.95046288 0.13069813 0.0040266607
0.052477639 -0.12473589 0.31996298 0.02852856 0.27506357 -0.96100271 0.15641496
0.062080365 -0.13209321 0.31248328 0.32221431 0.34998894 -0.87959409 0.12649639
0.1675479 -0.19846921 0.96158433 -0.011620985 -0.99970812 -0.021182023 0.0066146092
0.16722295 -0.19861008 0.87214649 -0.065321565 -0.99784774 0.0057433704 0.0060103959
0.31999978 -0.051241413 0.93733507 0.83799475 -0.30572924 0.45198932 0.042755067
-0.055175353 -0.19217098 0.76936948 -0.10375246 0.99440742 0.019729596 0.054781549
-0.044846769 -0.1687341 0.79129255 -0.071707979 0.99731296 0.014989856 0.070257522
0.0075487145 -0.023721578 0.85100687 -0.48996732 0.80391783 0.33711743 0.00030207561
-0.015990615 -0.18813023 0.79865026 -0.12953795 -0.98979843 0.059322231 0.040491056
-0.037975706 -0.1621688 0.77903932 -0.04506721 0.99829322 -0.037142299 0.076978378
0.061923943 -0.19417746 0.86350739 -0.026263475 -0.99961418 0.0090408269 0.0061045829
0.12536272 -0.19753236 0.92376345 -0.048803046 -0.9987154 -0.013629226 0.0023679947
0.054089237 -0.19392054 0.90443027 -0.030110281 -0.99929667 0.022352368 0.0050620465
-0.020757284 -0.19129428 0.79780716 -0.1342638 -0.98848903 0.069732629 0.04454181
0.058658086 -0.19790144 0.81571889 -0.02772842 -0.99924397 -0.027249824 0.02304844
0.049865387 -0.18243156 0.97439682 -0.01599773 -0.99987 0.0020347321 0.011549466
0.071866579 -0.19405289 0.91989315 -0.035301115 -0.99921441 0.01801095 0.0029362561
0.034429729 -0.19243167 0.85579842 -0.076309837 -0.99704468 -0.0088703474 0.018087108
0.019294975 -0.19319165 0.84790182 -0.089210562 -0.99599475 0.0059865257 0.019340128
0.049387902 -0.12022211 0.34242281 -0.33935228 0.0063037253 -0.9406383 0.19881435
0.041431937 -0.15598018 0.29263541 0.16341101 0.37909767 -0.91081381 0.12378298
0.044823091 -0.12140434 0.30227277 0.13540718 0.35821024 -0.92376965 0.14490117
0.021300325 -0.16553587 0.2859025 0.076796934 0.43160483 -0.89878786 0.14394198
0.29824322 -0.073055834 1.0010278 0.88713646 -0.14065261 0.43955171 0.045450926
0.040888827 -0.18787949 0.95872849 -0.0088369334 -0.99978757 0.018621691 0.0084082372
-0.010612631 -0.16679351 0.31261548 -0.50567615 0.29029316 -0.81241709 0.17322142
0.33651695 -0.18942641 0.9184103 0.67997557 0.23120999 0.69582695 0.18427622
0.3084085 -0.19908239 0.51726532 0.1178375 -0.99193066 0.046775218 0.019259425
-0.003292169 -0.016124465 0.81818306 -0.48996732 0.80391783 0.33711743 0.00030207561
0.15883788 -0.1961278 0.86916077 -0.06367968 -0.99796402 0.0035802594 0.005232098
0.34699255 -0.13803186 0.88792717 0.40246022 -0.037468553 0.91467041 0.10913955
0.40475038 -0.18482563 0.87490302 -0.15133712 -0.67689604 0.72035325 0.16675067
-0.0051479354 -0.15776248 0.80647385 -0.15924284 -0.98632044 0.042588595 0.045655556
-0.121835 -0.15215839 0.69082677 -0.12858799 0.98773062 0.088618733 0.031588137
0.083982036 -0.19001645 0.97951627 -0.067897931 -0.99765158 -0.009015521 0.0085823461
0.40472332 -0.19905706 0.47257921 -0.032350086 -0.99906987 0.028511232 0.062488697
0.53514808 -0.18531977 0.82647228 0.8655892 0.0038296329 -0.50074017 3.7152964e-05
0.35010368 -0.082539357 0.89416426 -0.027317083 -0.18039963 0.98321402 0.11727516
0.06552209 -0.19345644 0.31737334 0.77333683 0.048159212 -0.63216358 0.23520848
0.0030419345 -0.10446172 0.31636542 -0.35520017 0.47757199 -0.80359054 0.19384673
0.23584774 -0.14148964 1.0658504 0.84302324 -0.027276596 0.53718501 0.058016397
-0.010196161 -0.15541027 0.30962265 -0.43868041 0.3011837 -0.84666866 0.14339069
0.24070473 -0.19583513 1.06774 0.65536046 0.14572431 0.74112558 0.12129331
0.34399712 -0.14090048 0.88731921 0.47518227 -0.02474409 0.87953931 0.12007461
0.51738119 -0.16966292 0.79532474 0.8655892 0.0038296329 -0.50074017 3.7152964e-05
0.45308575 -0.18221866 0.48039994 0.036902029 -0.98077488 -0.19162154 0.058151197
0.33364698 -0.14628996 0.89265329 0.95132524 0.098683245 0.29196221 0.10654839
0.30984038 -0.053290751 0.95717025 0.89754719 -0.031586025 0.43978554 0.023583785
0.3374249 -0.10537782 0.8897897 -0.092409775 -0.047546882 0.99458516 0.090159886
0.37112013 -0.18904185 0.54906589 0.1218922 -0.99253261 -0.0046144226 0.08357808
0.40128437 -0.16405672 0.55862021 0.20953718 0.97586781 -0.061450627 0.16338934
0.1642265 -0.19772168 0.93498218 -0.045299828 -0.99877262 -0.020029671 0.0040779654
0.38327855 -0.18662709 0.52473962 0.032413192 0.99822617 -0.049939111 0.064243786
0.019234745 -0.12991807 0.39383903 0.18187043 -0.48293817 -0.85655928 0.065618567
0.44282809 -0.19958766 0.53283882 0.070565633 0.99720556 -0.024527164 0.045958087
0.31863263 -0.19801153 0.53033137 0.24640036 -0.96167833 0.12025688 0.046951316
0.29873082 -0.072675832 0.99621105 0.89432722 -0.1355885 0.4263739 0.04835682
0.42182085 -0.057448819 0.94712818 0.66574371 0.61999381 -0.41520226 0.051161245
0.40618831 -0.17974824 0.45013815 0.04264525 -0.98856521 -0.1446379 0.070901737
0.49962908 -0.19108643 0.38140982 0.063189648 -0.99719888 -0.040018618 0.034214787
0.51018202 -0.19565763 0.39990965 0.025259867 -0.99934834 0.0257845 0.02667091
0.45860758 -0.19379061 0.37311435 0.054301783 -0.998218 0.024742316 0.026928509
0.40185168 -0.079960749 0.89473546 -0.35445765 -0.23742867 0.90442652 0.072102733
0.35216674 -0.054549132 0.89282584 0.014250467 -0.5671469 0.82349342 0.14370227
0.2991837 -0.01022425 1.01615 0.94092488 -0.10323586 0.32249448 0.053317465
-0.010149779 -0.14966565 0.34155253 -0.83906299 0.34997827 -0.41651955 0.17085978
-0.011805058 -0.16668957 0.34080672 -0.89282387 0.37046209 -0.2561706 0.1870981
0.0069322325 -0.15180348 0.28827548 -0.13998693 0.41214591 -0.90029961 0.13008708
-0.006221598 -0.1684832 0.35375878 -0.83353961 0.51777941 0.1926557 0.21373722
0.013542442 -0.10161109 0.29953599 -0.22587952 0.50578308 -0.83256346 0.17331964
0.45687091 -0.13168326 0.93162316 0.81999713 0.15613142 -0.55066121 0.024288679
0.0059648212 -0.15122521 0.28825596 -0.13805878 0.41094735 -0.90114486 0.13117538
0.52352154 -0.17656808 0.806283 0.8655892 0.0038296329 -0.50074017 3.7152964e-05
0.38323411 -0.14497629 0.52708131 0.089664511 0.97767544 -0.19002885 0.13923356
0.40678465 -0.1915825 0.86534971 -0.038544033 -0.93919671 0.34120947 0.15847187
0.39256793 -0.17533714 0.54605228 0.047070492 0.99729806 -0.056400701 0.1037824
0.37972593 -0.19378397 0.52766544 0.0074246731 -0.99779522 0.065952025 0.066233143
0.38875091 -0.19956206 0.58312672 -0.0054478697 -0.99038088 -0.13826072 0.089804284
0.34378448 -0.16227695 0.89857662 0.47562614 0.075490996 0.87640232 0.13925944
-0.00702979 -0.19841242 0.35635564 -0.034250006 -0.99036831 -0.13415526 0.21986549
0.33920592 -0.19847882 0.59910613 0.18543462 -0.96137822 -0.20338628 0.054416433
0.44737384 -0.18222342 0.3630594 0.10183972 -0.99475718 -0.0093207639 0.032169648
0.38831186 -0.19087467 0.85828006 -0.011717801 -0.48496795 0.87445343 0.17658453
0.51775366 -0.19338873 0.38600215 0.024305075 -0.99962646 0.012496574 0.025533406
0.4665978 -0.19680841 0.29962263 0.11103512 -0.99380457 0.0048790304 0.015107553
0.52945679 -0.19393365 0.33539453 0.11134133 -0.99325079 -0.032494653 0.023665436
0.48685676 -0.17038353 0.30253273 0.095595963 -0.99525928 0.017895252 0.021800183
0.44855067 -0.18565072 0.47193629 0.036902029 -0.98077488 -0.19162154 0.058151197
0.45567948 -0.18474223 0.48438472 0.014026258 -0.98945355 -0.14416982 0.05593919
0.51821458 -0.1926901 0.401638 0.083062232 -0.99630409 0.021878419 0.014039367
-0.016349308 -0.14575674 0.31933758 -0.72160155 0.37176162 -0.58402443 0.11285182
0.40747392 -0.19287352 0.56268471 0.12594579 0.98877203 0.080420852 0.10561848
0.37526885 -0.19647916 0.5363856 0.098964654 -0.99175143 0.081456125 0.074361809
0.018061973 -0.18851055 0.28662744 -0.0091716703 0.74325138 -0.66894937 0.20383872
0.37949705 -0.1945858 0.52698308 0.0074246731 -0.99779522 0.065952025 0.066233143
0.016510939 -0.10051817 0.32749018 -0.32311451 0.36588809 -0.87276745 0.23429507
0.47960919 -0.19977349 0.3490825 0.094418883 -0.99543142 -0.014192448 0.026977211
-0.0077232555 -0.16716638 0.34748486 -0.89143741 0.45308942 -0.0070268833 0.21652843
-0.016557259 -0.14987694 0.31825104 -0.7424705 0.35079309 -0.57068527 0.10905238
0.0042919312 -0.14473042 0.36363226 0.029611295 -0.43758425 -0.89868975 0.14004061
-0.0098207546 -0.15823634 0.3443481 -0.89702535 0.37628612 -0.23184988 0.17897817
0.019387577 -0.10305879 0.29936472 -0.10694537 0.49465513 -0.86248416 0.18926457
0.02299563 -0.099919289 0.3203178 -0.21064439 0.47380114 -0.85506803 0.2247677
0.028480399 -0.10095626 0.31841746 -0.083280243 0.47574833 -0.87563002 0.20924425
0.027413743 -0.10538331 0.30330703 -0.062586032 0.46204042 -0.88464773 0.19236861
0.031392459 -0.10042166 0.33012348 -0.31852439 0.20550938 -0.92536914 0.23303191
0.011029146 -0.1017409 0.30546829 -0.29665682 0.48020101 -0.82547057 0.19034943
0.015010158 -0.10128872 0.33227625 -0.36857229 0.3013719 -0.87939149 0.23702958
0.023378693 -0.099596009 0.33322051 -0.35643741 0.21538681 -0.90915394 0.23387603
0.3961049 -0.18323398 0.45092094 0.053931214 -0.99587882 -0.072916105 0.054233447
0.39465836 -0.17848189 0.44833985 0.094939969 -0.99311697 -0.068594463 0.063171051
0.029759282 -0.10051545 0.31929719 -0.084404126 0.47312769 -0.87694132 0.21030742
0.02974089 -0.10201401 0.31401113 -0.079217128 0.48171255 -0.87274146 0.20572381
0.031133464 -0.099995114 0.33066535 -0.31843847 0.20567025 -0.92536294 0.23301622
0.016427791 -0.10089636 0.30622509 -0.24383609 0.48337695 -0.84076786 0.19716579
0.48932192 -0.19540422 0.38717785 0.044979859 -0.99799114 0.044615403 0.025382014
0.44984734 -0.18675432 0.47454375 0.036902029 -0.98077488 -0.19162154 0.058151197
0.019644571 -0.10075038 0.30809927 -0.15970305 0.48550865 -0.85952091 0.20106944
0.015992312 -0.10037614 0.31306201 -0.25936374 0.45250317 -0.85321242 0.2034886
0.020638674 -0.099432386 0.32599974 -0.34314984 0.27626079 -0.89773506 0.23672397
0.016783834 -0.10046735 0.32700238 -0.32311451 0.36588809 -0.87276745 0.23429507
0.40383366 -0.18289483 0.54995286 0.14279376 0.98721427 -0.07083708 0.09704493
0.025781753 -0.099612094 0.32295799 -0.2395308 0.39749438 -0.88578963 0.23247902
0.026158901 -0.09939523 0.31676754 -0.091929592 0.48091337 -0.87193531 0.20926869
0.35476032 -0.19029362 0.53972954 0.17637816 -0.9842999 -0.0066615301 0.089613423
0.24454166 -0.19150853 1.0894631 0.67875987 0.077935308 0.73021311 0.15379559
0.23379065 -0.17511429 1.0885856 0.8466475 0.014559357 0.53195482 0.086055085
0.060373455 -0.19435145 0.8701449 -0.024525769 -0.99964285 0.01061633 0.0062146522
0.047420412 -0.19388315 0.86451298 -0.037841842 -0.99920285 0.012717741 0.0094402721
0.23605299 -0.18115367 1.0728874 0.70585454 0.052764542 0.70638895 0.10709966
0.028954091 -0.10284601 0.31011805 -0.074716382 0.47727036 -0.87557441 0.20500812
0.049720343 -0.19363061 0.90008515 -0.030145301 -0.99924368 0.024561888 0.0054654465
0.031498425 -0.10123649 0.33425447 -0.35330063 0.14509095 -0.9241901 0.23284423
0.047115546 -0.18525063 0.97730666 -0.012905627 -0.9999162 0.00095307501 0.01284812
-0.0063646925 -0.18863432 0.82397932 -0.14510579 -0.98867357 0.038326915 0.03265975
0.031404935 -0.1940167 0.85120571 -0.074152902 -0.99723071 0.0056784688 0.017630583
0.23263776 -0.15431629 1.0607328 0.82897329 0.042175598 0.55769563 0.077629723
0.01831452 -0.19337007 0.85304832 -0.078100301 -0.99692184 -0.0068608355 0.018651715
-0.033849586 -0.17215601 0.79116648 -0.10926867 -0.98917943 0.097900726 0.057466399
-0.019770732 -0.19618937 0.79542202 -0.1340322 -0.98832148 0.072497785 0.044154443
0.23282215 -0.11380258 1.0735356 0.87571329 -0.098336965 0.47271144 0.048581678
0.03647336 -0.19379081 0.85628539 -0.075063609 -0.99713135 -0.0097260755 0.017504947
0.070456266 -0.19495423 0.91199261 -0.04140662 -0.99894798 0.019703716 0.0052981181
0.22782278 -0.12513921 1.1079932 0.8455385 0.043287925 0.53215671 0.039929379
0.027802708 -0.099788189 0.33622476 -0.36010444 0.18621258 -0.91413873 0.2350996
0.036957435 -0.19634509 0.91419595 -0.0096045109 -0.9998976 0.010604654 0.0065460466
0.077435598 -0.18752275 1.0173759 0.075569868 0.99665439 0.031132147 0.015219033
0.0455558 -0.14705636 0.29179472 0.20142737 0.37125263 -0.90642065 0.10678705
-0.0053868117 -0.19478737 0.29387364 -0.17995711 0.90932965 -0.3751466 0.17868082
-0.0070895315 -0.14689703 0.29802987 -0.30134454 0.34603843 -0.88850939 0.12724213
0.018522374 -0.102934 0.33894551 -0.3629216 0.20713827 -0.9085052 0.23325019
0.0022766415 -0.17833133 0.28671274 -0.15832241 0.65163106 -0.74182951 0.18225604
0.22579634 -0.10588448 1.0902581 0.90206933 -0.12132354 0.41418758 0.049628701
0.020163933 -0.19420928 0.84464335 -0.098252349 -0.99508536 0.012314043 0.019726068
0.0083354712 -0.19187546 0.84218103 -0.13190471 -0.99123621 0.0072148209 0.023450932
0.24053589 -0.10456581 1.0599784 0.74333346 -0.10742757 0.66023833 0.046195377
0.22568429 -0.15903029 1.0644158 0.84422302 0.038396634 0.53461486 0.080579482
0.0019650389 -0.15371993 0.28841963 -0.15315446 0.41907826 -0.89493972 0.13179183
0.041271914 -0.19588709 0.8511703 -0.068295524 -0.99763912 -0.0072154803 0.017367911
0.042098042 -0.19543044 0.84787381 -0.069299303 -0.99757022 -0.0071617649 0.017775882
-0.162218 -0.19797191 0.74064994 -0.063904546 0.99498653 0.076928005 0.022933288
-0.12110706 -0.19669035 0.69962782 -0.10040428 0.99170607 0.08023753 0.019627847
-0.18415505 -0.1960271 0.75465959 -0.033387452 0.99866331 0.039456848 0.0051152157
0.059545409 -0.1346782 0.30720773 0.27680701 0.34370717 -0.89735347 0.11584868
0.048804298 -0.18657045 0.29014531 0.330237 0.54178602 -0.77292395 0.21308
0.058017276 -0.19327068 0.30107594 0.49704257 0.48501107 -0.71952266 0.24879025
-0.19096932 -0.19663656 0.62074828 -0.23037568 -0.96022719 0.15776818 0.011928489
0.013285473 -0.10100051 0.30536008 -0.27947387 0.48422176 -0.82911009 0.19300319
-0.13949099 -0.19747002 0.70499092 -0.084078372 0.99518001 0.050473981 0.01960885
0.044577565 -0.19353309 0.2902362 0.34073597 0.5367015 -0.77191359 0.21594457
0.042757615 -0.13310154 0.28803533 0.23180078 0.34979481 -0.90769601 0.082512982
0.026347926 -0.099643193 0.32381782 -0.25543407 0.36801663 -0.89404541 0.23393878
0.015793078 -0.10094655 0.30557114 -0.25538895 0.4866558 -0.83542961 0.19574647
0.062346324 -0.15638414 0.31657189 0.50033104 0.37744054 -0.77923518 0.15679216
0.060571056 -0.1446704 0.31013218 0.43685794 0.36892316 -0.82039672 0.12631509
0.023520948 -0.099993788 0.31694204 -0.14673297 0.46221673 -0.87454283 0.21150291
0.060855251 -0.17928821 0.30947736 0.63559675 0.25838333 -0.72749895 0.22408387
0.030335156 -0.10106052 0.33470237 -0.35326457 0.1451955 -0.92418736 0.2328409
0.0075718239 -0.1016795 0.30996814 -0.31174082 0.47554201 -0.822604 0.1905297
0.056719378 -0.14396195 0.30427217 0.30334502 0.37001097 -0.87810796 0.11961127
0.042245992 -0.19684201 0.28687754 0.32299829 0.58953577 -0.74035102 0.2147323
0.024359606 -0.099607706 0.32982999 -0.33885688 0.24687378 -0.90787077 0.23878229
0.057485312 -0.19151831 0.30542168 0.62474483 0.3262572 -0.70940125 0.25596943
0.062370744 -0.16846722 0.31357723 0.60254967 0.29192445 -0.74277449 0.18533693
0.063199513 -0.18166539 0.31175229 0.67452943 0.23931929 -0.69838119 0.21458209
0.063477844 -0.16617821 0.32234135 0.65256399 0.3741858 -0.65889692 0.19611356
0.063350424 -0.16485606 0.32068565 0.68025583 0.37320888 -0.63084632 0.18986091
0.05743961 -0.14414997 0.30537239 0.35044017 0.37093171 -0.86000073 0.12104473
0.064962119 -0.14504433 0.32292885 0.58625352 0.38678634 -0.71183074 0.13885967
0.063283771 -0.16276743 0.32596892 0.80418998 0.39628902 -0.44298247 0.1860386
0.06501551 -0.14937952 0.32320699 0.71512473 0.41464067 -0.56273407 0.15001376
0.061624579 -0.14357603 0.31476757 0.43520093 0.36704186 -0.82211941 0.13250588
0.06330993 -0.18029854 0.31158638 0.67898768 0.24414052 -0.69236642 0.20906931
0.063604578 -0.16332254 0.32370025 0.76253128 0.39125288 -0.51523519 0.18394133
0.061758783 -0.14408115 0.31336662 0.4508462 0.37532103 -0.80985916 0.12989904
0.059371527 -0.18619065 0.30526313 0.63128459 0.31286055 -0.70964646 0.2287983
0.05842692 -0.14425351 0.35030502 -0.76711279 -0.35222223 -0.53616923 0.11481852
0.063328303 -0.17103493 0.31630972 0.6260621 0.2745989 -0.72982311 0.19414121
0.064301461 -0.15182473 0.32185343 0.62925613 0.3935903 -0.67016667 0.15763713
0.06319952 -0.17629911 0.31254458 0.66867411 0.23281386 -0.70616758 0.21031712
0.063673072 -0.17821237 0.31260079 0.67053872 0.22659071 -0.70642376 0.20998245
0.06469667 -0.14801161 0.3258172 0.72506618 0.41882002 -0.54668903 0.15190791
0.063255779 -0.16286242 0.3242054 0.75396997 0.39287576 -0.52647692 0.18360616
0.055484653 -0.14382505 0.35387737 -0.66417211 -0.35965279 -0.6553818 0.11764201
0.061305124 -0.1873683 0.30817041 0.64832151 0.27227274 -0.71101826 0.23224209
0.058777086 -0.14184545 0.30677328 0.31270659 0.35551193 -0.88080972 0.11778162
0.015797043 -0.10125441 0.33657646 -0.37783566 0.25470668 -0.8901487 0.23265412
0.031232607 -0.10138723 0.31646791 -0.083280504 0.4757362 -0.8756367 0.20925306
0.023268653 -0.099577986 0.32903436 -0.34276474 0.26432911 -0.90146685 0.2386709
0.011902121 -0.10082113 0.30726111 -0.28100082 0.48173323 -0.83004314 0.19432022
0.015559333 -0.10117502 0.33246243 -0.36267689 0.28566167 -0.88705295 0.23761904
0.060317758 -0.18584679 0.30480602 0.62731886 0.34591669 -0.69771963 0.22883904
0.030082785 -0.10150275 0.31441057 -0.081797525 0.47788903 -0.87460351 0.20807371
0.028276596 -0.10089659 0.30804285 -0.035604306 0.49730623 -0.86684424 0.20140904
0.033951551 -0.10234564 0.33906737 -0.3677083 0.071405366 -0.92719567 0.23520097
0.018927095 -0.1004975 0.31146249 -0.20108126 0.46572679 -0.86178005 0.20300531
0.012342975 -0.10116073 0.32995909 -0.38245758 0.3653197 -0.8486858 0.23337731
0.030925637 -0.10072143 0.32074332 -0.093315609 0.48900008 -0.86727798 0.21932204
0.049598541 -0.19745979 0.2917898 0.27797121 0.66357893 -0.69454664 0.2314302
-0.093224265 -0.19212815 0.7299152 -0.11168969 0.99055588 0.079527341 0.017454619
-0.082387298 -0.19382784 0.76018023 0.019364513 -0.98959249 0.14258967 0.019538462
0.017216755 -0.19414373 0.84385437 -0.10671127 -0.99424684 0.009269651 0.021058872
0.0052839145 -0.19572522 0.86739874 -0.077413015 -0.9968884 -0.014862148 0.022220595
0.11152474 -0.19569029 0.91244203 -0.040615108 -0.99917382 0.0014549945 0.0019955987
0.040927168 -0.18698786 0.9899953 -0.033728141 0.99938864 0.0092091896 0.019917332
0.076027095 -0.19105184 0.99342686 -0.068594903 -0.99750614 -0.01661971 0.011796276
0.062040452 -0.1884653 1.000049 0.067039303 0.99745136 0.024420343 0.01659731
-0.043143645 -0.16973718 0.79170614 -0.033108622 0.99937838 -0.012110928 0.076354332
0.052126754 -0.19419749 0.89741355 -0.026475107 -0.99954021 0.014775121 0.0052807219
0.042541116 -0.19620019 0.84534246 -0.06338758 -0.99798566 -0.0025986466 0.018307304
0.090311728 -0.19386598 0.87979752 -0.027826194 -0.99954981 0.011224726 0.0040286332
0.048253808 -0.19507636 0.85155064 -0.037734818 -0.99921668 -0.011920019 0.016275087
0.064205982 -0.19259454 0.78978902 -0.022609303 -0.99936926 -0.027383912 0.030566534
0.090430029 -0.18692012 0.79253823 -0.042930268 0.99879849 0.023631807 0.020664653
0.39559022 -0.1941532 0.85449535 -0.083472736 -0.95535791 0.28341416 0.14938554
0.40938061 -0.18793052 0.86809027 -0.026547747 -0.90275127 0.42934304 0.15595573
0.40890348 -0.189942 0.87630612 -0.048108689 -0.91253167 0.40616676 0.16025026
0.39422634 -0.19987395 0.84017652 0.072314896 -0.99172783 -0.10604876 0.019158538
0.40688908 -0.19414887 0.88359505 0.011491996 -0.95393401 0.29979607 0.15110663
0.33259025 -0.15302826 0.89386547 0.91288197 0.10522347 0.39442939 0.11065617
0.24080338 -0.19575801 1.072376 0.648561 0.14706512 0.74682027 0.1295432
0.33942649 -0.142415 0.89222103 0.81987637 0.035867617 0.57141608 0.12022389
0.35549787 -0.12108189 0.86908716 0.030763168 -0.16593178 0.98565727 0.074417971
0.45258209 -0.17927825 0.9177717 0.86419827 -0.068803348 -0.49842501 0.10858253
0.099225208 -0.18829329 1.083107 -0.0035011754 -0.99938488 0.0348933 0.051404614
0.34002796 -0.12651254 0.88686055 -0.36818343 0.0033314633 0.92974722 0.072175302
0.039762802 -0.19385493 0.865915 -0.048144091 -0.998824 0.0057186759 0.013164308
0.38574806 -0.17398173 0.53231889 0.066532031 0.99202228 -0.10707596 0.087565534
0.37196657 -0.17578955 0.55049372 0.12187874 -0.99253422 -0.0046185623 0.083578348
0.46602777 -0.18469347 0.49366209 0.070659623 -0.98284817 -0.170343 0.026148681
0.39803192 -0.17263325 0.55215985 0.092093021 0.99540538 -0.026211072 0.1243223
0.51701605 -0.19901912 0.5892418 0.082715839 -0.99499482 0.056065038 0.0016105904
0.38271019 -0.19266629 0.52590519 0.032285865 0.99787074 -0.056671128 0.064453274
0.44791457 -0.18838075 0.47496495 0.041093811 -0.98000604 -0.19467761 0.05531095
0.40375698 -0.19061571 0.45569977 0.02037449 -0.9975192 -0.067382291 0.059579905
0.37987542 -0.16483466 0.55277044 0.11120778 -0.99375522 -0.0091395117 0.11261548
0.38314718 -0.17106214 0.54315275 0.066913709 -0.99513429 0.072320387 0.099563532
0.38199517 -0.17166525 0.54387081 0.080536313 -0.99510366 0.057293598 0.10271472
0.41734475 -0.20051858 0.84941715 0.10919249 -0.99148017 -0.071021765 0.020953305
0.50142127 -0.19796738 0.58056659 0.022882005 -0.99900901 0.038176402 0.0032960137
-0.01443135 -0.14869641 0.32725972 -0.74842393 0.37093872 -0.54978734 0.15376762
0.49241298 -0.19795346 0.26573646 0.17588903 -0.98128927 -0.078322068 0.01746906
0.02814904 -0.10033984 0.31919959 -0.084404126 0.47312769 -0.87694132 0.21030742
-0.015287521 -0.14483398 0.31840372 -0.68756711 0.37536198 -0.62157452 0.12342316
0.46947581 -0.19664375 0.3630963 0.089562185 -0.99576771 -0.020620482 0.029066406
-0.014440235 -0.14606604 0.32830492 -0.74495345 0.36041215 -0.56137991 0.15144867
0.029716745 -0.11201807 0.30111152 -0.052464373 0.39164132 -0.91862106 0.18159798
-0.012027524 -0.13869719 0.33928949 -0.78415775 0.25935084 -0.56376749 0.15879005
-0.0077652181 -0.14887215 0.34909999 -0.91035581 0.31588721 -0.26733431 0.17052571
-0.005846587 -0.15876627 0.35356981 -0.88742471 0.41225743 0.20620698 0.18396473
-0.0033085556 -0.14707886 0.35317016 -0.83269131 0.15422116 -0.53182793 0.17944141
-0.011983895 -0.13987248 0.33881173 -0.78840601 0.28516915 -0.54506379 0.1599374
0.00021469206 -0.13728274 0.35720512 -0.36885113 -0.24511124 -0.89658767 0.16708177
0.012091303 -0.10200397 0.33603966 -0.4047614 0.32511535 -0.85467434 0.23029476
0.029716352 -0.13136162 0.35670495 -0.47624886 -0.2585921 -0.84042674 0.17036085
0.44222942 -0.19814754 0.25528166 0.15371811 -0.98777235 -0.026009599 0.014066056
-0.0018467191 -0.13769199 0.35501894 -0.77234668 0.072842062 -0.63101083 0.1836312
-0.013885372 -0.14860286 0.31909201 -0.63280231 0.34735394 -0.69203073 0.1484886
0.40019551 -0.18034911 0.45344472 0.021699429 -0.99720961 -0.071428686 0.061139651
0.38316861 -0.1800082 0.45524523 0.068294987 -0.99482876 0.075175978 0.079216488
0.37988696 -0.1962027 0.51878715 -0.03489203 -0.9974224 0.062698841 0.068157613
0.44263682 -0.19813755 0.26472837 0.12374008 -0.99168116 -0.035451923 0.013692693
0.3970834 -0.14022049 0.50616562 -0.080722831 0.98792106 -0.13227235 0.071589261
0.41209391 -0.19418666 0.86050123 0.1066698 -0.99340552 0.042035855 0.10254569
0.05705671 -0.11275812 0.32517347 0.1838544 0.40938848 -0.8936435 0.19699664
-0.0050169169 -0.13859357 0.38350791 0.61794621 -0.40861487 -0.6716966 0.05152138
0.3849366 -0.15048003 0.57184589 -0.098153919 0.97444212 0.20206049 0.11937111
0.35712209 -0.14925665 0.89630544 0.22373512 -0.025890132 0.97430605 0.11444897
0.10745884 -0.19556533 0.92277604 -0.052604012 -0.99858111 0.0082799084 0.0027958765
0.028451703 -0.19347818 0.80419135 -0.089579813 -0.99555963 -0.028922057 0.027997743
0.061626259 -0.18832316 0.26201662 0.35855868 0.59948641 -0.7155779 0.16448265
0.062985308 -0.15502249 0.33386856 -0.90589511 -0.42316815 -0.016814105 0.16934136
0.05408407 -0.12497868 0.34783489 -0.57706153 -0.26435792 -0.77273214 0.13573469
0.16228761 -0.1965207 0.86162955 -0.065455712 -0.99784094 0.0053835269 0.0061754598
0.0118667 -0.018458482 0.84434128 -0.48996732 0.80391783 0.33711743 0.00030207561
-0.037451416 -0.16863281 0.79404968 0.017195959 0.99971122 -0.016786136 0.063333914
0.041191932 -0.15659405 0.29216447 0.16250077 0.38301447 -0.90933681 0.12487297
-0.036926243 -0.17310759 0.81136441 -0.078819387 -0.99674594 0.016884303 0.059338037
-0.10188504 -0.19563316 0.75782317 0.086821452 -0.9932009 0.077550583 0.014623517
0.10677162 -0.19440658 0.86711723 -0.039457608 -0.99921882 -0.0021800364 0.0064130663
-0.011151877 -0.18112171 0.33543158 -0.25847244 0.96440274 -0.055850159 0.22419746
0.057852767 -0.19636871 0.92518371 -0.020702394 -0.99960482 0.01901507 0.003614831
0.074547186 -0.12945086 0.36554709 -0.76871085 -0.40201005 -0.49746513 0.051406126
0.026597677 -0.16994338 0.28702503 0.14038409 0.4272539 -0.89316654 0.16302919
0.063461602 -0.14823802 0.3291299 0.85019755 0.44589743 -0.27989233 0.15930004
-0.012502184 -0.18460727 0.34359425 -0.42529038 0.90085703 0.087090664 0.24032663
0.063609824 -0.14599729 0.32929283 0.84328806 0.45332286 -0.28872743 0.16099508
