# .PCD v0.7 - Point Cloud Data file format
VERSION 0.7
FIELDS x y z
SIZE 4 4 4
TYPE F F F
COUNT 1 1 1
WIDTH 1387
HEIGHT 1
VIEWPOINT 0 0 0 1 0 0 0
POINTS 1387
DATA ascii
-0.098188058 -0.16718771 0.6072318
-0.069710337 -0.15306669 0.59738791
-0.1122747 -0.02371371 0.61198568
-0.077538237 -0.093327112 0.60347068
-0.1478956 -0.180924 0.62235069
-0.0080194473 -0.018118979 0.5783428
-0.054516111 -0.1181821 0.59247279
-0.07991603 -0.016381601 0.60014027
0.01181954 -0.2762427 0.5669136
-0.01890808 -0.2174039 0.57800162
-0.036942989 -0.2055628 0.58286673
-0.0083098616 -0.27690509 0.57430857
0.03608948 -0.25772989 0.56043571
0.0068632662 -0.2376931 0.57012749
-0.098988347 -0.1928422 0.60453671
-0.1456259 -0.21882381 0.61942899
-0.121402 -0.26779199 0.60505182
-0.083340593 -0.2219235 0.59612072
-0.074774593 -0.257072 0.59130931
0.01236576 -0.21626221 0.56937099
-0.1010196 -0.076477364 0.6081208
-0.075758472 -0.01169511 0.60205519
-0.02091557 -0.18350001 0.58299208
-0.06686905 -0.27463961 0.59133518
-0.13230181 -0.19048931 0.61425179
-0.098527543 -0.044405319 0.60845077
-0.15545779 -0.212089 0.62519491
-0.096110433 -0.1950087 0.60402572
-0.1476253 -0.27949271 0.62182182
0.026476439 -0.27692571 0.56321079
-0.0392676 -0.2349589 0.58410382
-0.1131454 -0.1893485 0.6080873
-0.017945411 -0.1264884 0.58222008
-0.00090810662 -0.06274122 0.57496703
-0.036927041 -0.03381227 0.58806348
0.01089582 -0.2319022 0.56924212
-0.1504299 -0.2726306 0.61936098
-0.01078534 -0.1776067 0.57660592
-0.0677118 -0.047988381 0.59892458
-0.1239975 -0.1568276 0.6125071
-0.041343749 -0.1007139 0.58859962
-0.01394007 -0.27362379 0.57424402
-0.019750601 -0.1264423 0.58225632
-0.01225305 -0.2107981 0.57713473
-0.080578268 -0.051436521 0.59893721
0.003498375 -0.29503119 0.56849921
-0.092558429 -0.2585218 0.60090572
-0.029897179 -0.05929384 0.58637059
-0.1094567 -0.034149691 0.61051029
-0.075873822 -0.1152273 0.59941459
-0.075110383 -0.051165991 0.60079128
-0.1056471 -0.2908608 0.60181552
-0.1439914 -0.1966019 0.61909831
-0.09135285 -0.2321934 0.60085797
-0.065065458 -0.2445104 0.59074742
-0.1538877 -0.28076261 0.6205858
0.02141339 -0.2765938 0.56661773
-0.076007858 -0.1217406 0.59983629
0.0038519499 -0.29385999 0.56978762
-0.1023485 -0.141781 0.60766292
-0.091151029 -0.2242094 0.60434812
-0.056383312 -0.07129278 0.59482843
-0.1444501 -0.1133932 0.62298608
0.02977306 -0.2569764 0.56453192
-0.007217377 -0.2179904 0.57616192
-0.13981169 -0.189109 0.61947739
-0.1128772 -0.26248339 0.60650122
-0.1335398 -0.2277879 0.61535752
-0.085393637 -0.1114971 0.60446948
-0.125983 -0.1367317 0.61532712
-0.046167191 -0.068730563 0.59341389
-0.02025795 -0.227414 0.57804471
-0.09734261 -0.1044571 0.60875869
-0.069529772 -0.1173463 0.59799409
-0.15840679 -0.1552676 0.62821048
-0.1340093 -0.2466834 0.61475891
-0.096359968 -0.27837059 0.59950793
-0.1031613 -0.29438749 0.60118461
-0.1361884 -0.085426398 0.62050432
-0.068579271 -0.1939733 0.5950197
-0.088449247 -0.023654191 0.60582721
0.0039037759 -0.2012352 0.57410133
0.022684099 -0.2476913 0.56878018
-0.1297221 -0.089779302 0.61726981
0.026330771 -0.26361081 0.56357992
-0.074965186 -0.28468049 0.59326112
-0.06716314 -0.21640649 0.5941546
-0.01338929 -0.20448481 0.57857561
-0.097454041 -0.2241514 0.60167289
-0.084695488 -0.1231641 0.6032688
-0.15703119 -0.19958919 0.6279254
-0.0352805 0.00349634 0.590397
-0.082896858 -0.2628203 0.59767002
-0.037069678 -0.2059103 0.58663708
-0.1303425 -0.18446051 0.61686361
-0.1101471 -0.08057031 0.61242813
-0.1155246 -0.02439004 0.6146158
-0.0082284808 -0.095123723 0.5800066
-0.1092855 -0.28564101 0.60276538
0.01304942 -0.19024131 0.56866872
-0.1579302 -0.28899711 0.62693721
-0.139364 -0.090794213 0.62524867
-0.14137229 -0.21956301 0.61803049
-0.1098722 0.003928443 0.60692018
-0.034836348 0.0013435991 0.59047371
0.01104173 -0.1686037 0.56923622
0.0092586577 -0.29633319 0.56477708
-0.03627276 -0.1619 0.58836842
-0.1039541 -0.1916606 0.6072405
-0.05277833 -0.2825793 0.58459753
-0.083641827 -0.2654644 0.59677792
-0.045018971 -0.1325402 0.59068477
-0.13173071 -0.23537271 0.61538023
-0.070520647 -0.2353515 0.59795421
-0.065988623 -0.1088428 0.59742743
-0.1234756 -0.1293418 0.61585492
-0.064383417 -0.28604889 0.59178209
-0.112836 -0.13448641 0.60935903
-0.116627 -0.1996749 0.61416948
-0.098165229 -0.25817779 0.59800571
-0.082928777 -0.18448099 0.59826708
-0.060292181 -0.20484529 0.59287411
-0.047995869 0.001238285 0.59256089
-0.099582672 -0.02870653 0.60922319
-0.1265942 -0.16420729 0.61698657
-0.15647949 -0.2719225 0.62837923
-0.087191693 -0.2412353 0.60184997
-0.1065168 -0.13748109 0.6114403
-0.0039806962 -0.01025535 0.58132422
-0.1081456 -0.01598024 0.60834062
-0.157564 -0.2409078 0.62838918
-0.1219621 -0.2323714 0.61053228
-0.093901217 -0.1329885 0.60193539
-0.088057101 -0.24305449 0.60125202
-0.1089508 -0.2187165 0.60668647
0.01722583 -0.2410226 0.56793571
-0.1559971 -0.1962094 0.62655628
-0.1186111 -0.1296508 0.61100632
0.0219937 -0.25489491 0.56878853
-0.055789109 -0.2821421 0.58485007
-0.0041669309 -0.221919 0.57169139
-0.1238983 -0.2423486 0.61285448
-0.090661988 -0.026555469 0.60679269
0.0088284612 -0.17580131 0.57373112
-0.1597752 -0.1506196 0.62563699
-0.060999159 -0.27949479 0.58969033
-0.14142691 -0.1527459 0.61343962
-0.10973 -0.03309219 0.61236489
-0.1467751 -0.070734464 0.62495172
-0.1030845 -0.1158898 0.60989398
-0.048034549 -0.1040811 0.59511828
-0.098994277 -0.1667417 0.60997719
-0.1537534 -0.29958841 0.63026053
-0.1487491 -0.072632737 0.62474322
0.006499887 -0.2103589 0.56963718
-0.1416786 0.0048537012 0.68170023
-0.075486302 -0.29563299 0.6008997
-0.1662491 -0.3032009 0.65008062
-0.1364332 -0.04833005 0.618662
-0.1301526 0.001676193 0.62626368
-0.1523456 -0.038916979 0.62373823
-0.1570286 -0.22619709 0.64151561
-0.084284261 -0.119106 0.6023432
-0.1541435 -0.05110934 0.62574983
-0.15115979 -0.0206753 0.62223542
-0.19036961 -0.30447739 0.57216412
-0.162607 -0.029977521 0.62452513
-0.16102549 -0.084717073 0.6296373
-0.049175739 -0.137541 0.58764201
-0.090474188 -0.1004928 0.60165679
-0.134589 -0.096968234 0.6210655
-0.1437096 -0.18370859 0.62444991
0.0089999735 -0.18861561 0.57383698
-0.1859708 -0.29873031 0.56781989
-0.2006088 -0.30198979 0.53153098
-0.1388648 -0.03357983 0.61571997
0.052709531 -0.26092589 0.56449741
0.01888347 -0.198263 0.57603502
0.0554021 -0.1969658 0.56793302
0.05625141 -0.2542015 0.56936222
0.057127848 -0.1314005 0.57351738
0.053754538 -0.1807082 0.55052239
-0.03496889 -0.2415624 0.5873611
-0.0086706281 -0.2162534 0.5824374
0.077686153 -0.2242406 0.62939161
0.1001547 -0.1283655 0.70382011
0.084509552 -0.23908921 0.65359992
0.087238006 -0.1299154 0.6707598
0.078483053 -0.1392301 0.63452488
0.009300435 -0.30160999 0.57403058
0.060518179 -0.1561211 0.57924432
0.01493169 -0.2222573 0.57359868
0.051729169 -0.15616471 0.56691593
-0.01249919 -0.22358879 0.58025408
0.034444299 -0.26076251 0.56591052
0.082704224 -0.12755281 0.66375679
0.02940058 -0.2480547 0.56953251
0.1020583 -0.18611769 0.69902313
0.065106422 -0.1108597 0.59085298
0.072574817 -0.1324769 0.6082567
0.06939283 -0.097110823 0.60716802
0.1080951 -0.1564818 0.73434567
0.065351918 -0.1486885 0.58178651
-0.0027816051 -0.23375671 0.57626748
0.05473699 -0.2010494 0.56402051
0.061158068 -0.1375801 0.56723279
0.1102834 -0.1826604 0.72311199
0.044163629 -0.13781931 0.56357998
0.081083663 -0.24102759 0.65094757
-0.0088133961 -0.2660746 0.57240617
0.087989837 -0.081935629 0.65477711
-0.1053137 -0.15016849 0.60670149
-0.096838273 -0.059413359 0.61010963
0.01687937 -0.28321159 0.57132769
-0.0063848202 -0.1441571 0.56973588
-0.14380839 -0.072479613 0.62084979
-0.1436442 -0.072671503 0.62166393
-0.0066378769 -0.1447437 0.56894249
-0.1192368 0.003796235 0.70980889
0.01178567 -0.067502283 0.57737583
0.048506059 -0.1086818 0.55414391
-0.094162486 -0.096752539 0.61191589
0.017887151 -0.1095218 0.56808507
0.054341432 -0.1550639 0.56133491
0.1135931 -0.29196519 0.73174423
-0.026882561 -0.001305252 0.66145551
-0.1436099 -0.071686551 0.62000757
0.036091 -0.001465246 0.59624207
0.02148965 -0.0003397167 0.59135872
-0.044799749 0.00078853959 0.61341459
-0.088991702 -0.0062595159 0.82488292
-0.064420544 -0.0001056641 0.65028793
-0.022932859 0.0030032401 0.69420087
-0.1012724 0.0030844661 0.66845119
0.02527192 -0.003167883 0.77089798
0.035441741 0.00169602 0.6370219
-0.098601028 0.0014339091 0.62956548
0.037579682 0.001812011 0.79880291
-0.099170789 0.001556724 0.61978149
-0.039830841 -0.0001132488 0.76801127
-0.069384113 0.0013726651 0.65343851
-0.05671446 -0.0139264 0.86006671
-0.1427916 -0.1920898 0.62994128
-0.1246864 -0.2229939 0.61337793
0.0055924621 -0.0029704571 0.61278582
-0.1555009 -0.1619231 0.63353938
0.0071790479 -0.0068888068 0.58978951
-0.1170819 -0.00072152913 0.63976729
-0.030118279 -0.002567068 0.59329373
-0.026949661 0.0052331979 0.75532371
-0.01278556 -0.0065764189 0.82229608
-0.1487613 -0.19094519 0.63346821
-0.036391381 -0.0084468424 0.59740901
0.0043159691 -0.031134689 0.58176541
-0.1291417 -0.0062234402 0.61907792
-0.075795934 -0.001264334 0.60259032
-0.043144088 -0.0038423541 0.59583533
0.044956289 0.0027523341 0.73209029
-0.006467354 -0.00017037991 0.58242953
0.054938789 -0.1836627 0.56956202
0.053024352 -0.053780761 0.5688234
0.049227118 -0.19405431 0.56049311
0.05357397 0.0028611419 0.71447581
0.055588931 -0.28948301 0.56961918
0.1241062 -0.27088091 0.74814159
0.076911584 -0.2877664 0.6056354
0.1094622 -0.2753647 0.72372359
0.092747569 -0.275673 0.65176219
0.1212405 -0.1993864 0.77786517
0.1225029 -0.23208541 0.77590328
0.1117443 -0.1908177 0.72893912
0.053423371 -0.2322108 0.57179379
0.075274929 -0.1397125 0.60804951
0.1113169 -0.14391211 0.72170597
0.09136492 -0.2371954 0.64934891
0.09949778 -0.27678639 0.67961723
0.096317232 -0.131476 0.68172961
0.099243999 -0.1586044 0.68736601
0.061217841 -0.2173965 0.58102763
0.107128 -0.001784086 0.7299816
0.077373803 -0.28281489 0.62576282
0.09217076 -0.00258863 0.67360628
0.1231796 -0.1646571 0.77700597
0.081084728 -0.2461095 0.62586957
0.1144134 -0.28906199 0.73518562
0.1135447 -0.15512811 0.74231702
0.1025357 -0.1924767 0.69892353
0.1023071 -0.1290075 0.7016356
0.065023333 -0.076124132 0.60938382
0.07935822 -0.020133641 0.65461558
0.080502748 -0.088835269 0.63503832
0.067702219 -0.05460858 0.59016693
0.06003936 -0.1844231 0.57248598
0.1166817 -0.1865339 0.73773068
0.123418 -0.1259536 0.77677709
0.1051896 -0.105016 0.69919842
0.072087452 -0.03281128 0.61169368
0.1184379 -0.143994 0.73715198
0.092235513 -0.057053629 0.6762203
0.1154706 -0.19071589 0.7434088
0.072012313 -0.045327839 0.61650002
0.080860198 -0.070531428 0.64280248
0.0089036822 0.0020728109 0.63817668
0.1219877 -0.16266111 0.7718513
0.099139869 -0.14816301 0.68383718
0.1197703 -0.23373149 0.77239239
0.1074521 -0.093478858 0.7031644
0.067423187 -0.038832191 0.59033662
0.1058016 -0.087624729 0.69601858
0.12535261 -0.070077807 0.77638751
0.1157929 -0.01982042 0.74586833
0.09392181 -0.259213 0.6650728
0.110806 -0.084208816 0.73196322
0.1126155 -0.050483972 0.73395813
0.078845918 0.0002401471 0.69476032
0.1245941 -0.1228504 0.75642812
0.032866359 0.003632158 0.75004667
0.0983392 0.002892375 0.73326731
0.091201842 -0.088740937 0.66037238
0.098392554 -0.27825201 0.71135038
0.1174901 -0.06550765 0.74241161
0.119338 -4.2974949e-05 0.75712538
0.098133981 0.00031983849 0.71703923
0.094122171 -0.08887285 0.66715872
0.1062617 -0.01378646 0.73061371
0.111505 -0.1570051 0.71068048
0.1001765 -0.23821279 0.67955321
0.096739829 -0.071873657 0.67308211
0.116997 -0.25334549 0.74017161
0.1247198 -0.28517431 0.75010818
0.1221159 -0.2436298 0.75327343
0.086378023 -0.1324466 0.62731248
0.099114656 -0.001536518 0.69665432
0.1334523 -0.090774119 0.77822232
0.082628071 -0.1237447 0.63534242
0.06103849 -0.212594 0.57498157
0.061785638 -0.1320145 0.57115233
0.1001195 0.0051468611 0.74568862
-0.02877951 0.001902938 0.82031238
-0.00056779379 0.003302634 0.66163182
0.06159341 -0.1313348 0.56693792
0.04089069 0.0027571321 0.69239253
0.03761458 0.003573477 0.76583081
0.095606983 -0.1101984 0.68477303
0.073684871 -0.2065766 0.59881729
0.1065654 -0.086023241 0.71033919
0.20384949 -0.3016502 0.70305377
0.060714539 -0.074804537 0.57078481
0.056630019 -0.28757921 0.57174379
0.1291675 -0.1340446 0.75914693
0.1224591 -0.0029649141 0.75700581
0.1086384 -0.01078594 0.72259992
0.04675138 -0.000190258 0.64242148
0.097040594 -0.088200271 0.67895907
0.095178932 -0.28777689 0.6648826
0.019252781 0.0075551271 0.77715021
0.083868742 0.0033778551 0.7884115
0.1244405 -0.119168 0.77257049
0.1287412 -0.1523332 0.75278121
0.1336087 -0.06081894 0.78005111
0.117541 -0.13395581 0.72955233
0.05799621 0.0024006369 0.65348679
0.06138349 -0.1489545 0.57567918
0.091360629 -0.1439655 0.65342319
0.092970908 -0.113443 0.65079957
0.1118701 -0.07954675 0.77987349
0.26810989 -0.2974433 0.64532101
0.095049202 -0.228462 0.65765309
0.12610351 -0.30264929 0.77277857
0.1097548 -0.2724095 0.7193538
0.1158057 -0.17843971 0.69163883
0.052712861 -0.13389049 0.57834548
0.05116355 -0.28244421 0.56082189
0.0892317 -0.0098514259 0.65579778
0.1123831 -0.228212 0.72682577
0.122987 -0.30014089 0.55836982
0.073038518 -0.006384552 0.59332752
-0.2245709 -0.30127019 0.51847088
0.04935354 -0.2309394 0.56891578
0.079497643 -0.109984 0.62266558
0.1162627 -3.713369e-05 0.74394602
0.1072815 -0.193524 0.68194371
0.08362627 -0.22354691 0.62594289
0.082407467 -0.1694198 0.61428392
0.081361532 -0.073535442 0.6203025
0.094974101 -0.2317246 0.66243261
0.070932977 -0.2824989 0.59729022
0.1068248 -0.15683611 0.69440162
0.1216032 -0.01069331 0.7373811
0.058550719 -0.082516432 0.56552601
0.1019998 -0.04410496 0.65594858
0.059114631 -0.29871741 0.57879931
0.077874303 -0.12784339 0.59366268
0.072731733 -0.18947621 0.58030349
0.082319319 -0.1779974 0.60285997
0.1192744 -0.1210724 0.7379272
0.12695029 -0.2103328 0.729846
0.1138744 -0.04043448 0.72457463
0.081135869 -0.20524789 0.60106051
0.073014557 -0.1115414 0.59073591
0.1343285 -0.13882589 0.77838451
0.071716733 -0.068389453 0.58654881
0.090402901 0.003807008 0.72267699
0.1186419 -0.1898991 0.72372037
0.08221215 -0.26071969 0.6115222
0.1236072 -0.1407958 0.74067181
0.084265351 -0.0040871501 0.64635599
0.08799684 -0.048112541 0.65743053
0.1066868 -0.19334731 0.68443501
0.087963462 -0.14704859 0.61726427
0.082756579 -0.1761099 0.61145592
0.1332054 -0.021980081 0.77023357
0.1275474 -0.0038664939 0.77325839
-0.070746779 0.001143366 0.64742619
0.1344256 -0.30141559 0.57248652
0.1036175 -0.2336642 0.67446661
0.1290172 -0.095552653 0.77168739
0.1304892 -0.26841319 0.78220618
-0.1124789 0.0092257857 0.62559563
0.09644258 -0.1283273 0.66475141
0.1076282 -0.2003869 0.69700313
0.14053389 -0.1269836 0.77254742
0.1026729 -0.29094321 0.68879098
0.1030542 -0.2443877 0.67475152
0.1246461 -0.1136305 0.74870628
0.24333391 -0.2963824 0.57225442
-0.06410265 -0.001573235 0.63555437
0.082012951 -0.15223441 0.60613012
0.090536296 -0.1055433 0.65173358
0.1324064 -0.051315721 0.76936787
0.050504621 0.001931429 0.79193318
0.1242092 -0.1950846 0.77263272
0.1154752 -0.02271202 0.72891688
0.068287008 -0.154698 0.5771957
0.076332629 -0.1129482 0.59589422
0.1016755 -0.125789 0.67964309
0.1046088 -0.27303591 0.68035448
0.1246305 -0.2790949 0.7315613
0.1207207 -0.2179025 0.73833698
0.085545957 -0.03188977 0.6294626
0.085463822 -0.17165621 0.63260502
0.1197315 -0.086065918 0.7377553
0.12643281 -0.04673567 0.76499867
0.129868 -0.2202352 0.74895263
0.083308943 -0.070731074 0.61056077
0.08150959 -0.19751219 0.60148507
0.065029196 -0.26774099 0.58096331
0.12674209 -0.1047207 0.76597708
0.087897837 -0.2408029 0.64860672
-0.01345909 -0.2972185 0.45507509
0.12714081 -0.25377509 0.74100459
0.1135049 -0.29127339 0.67070901
0.096813202 -0.001464784 0.77654141
0.0017941 -0.002946526 0.81066549
0.082001917 -0.093755841 0.60649067
0.066476882 -0.1946248 0.56643581
0.082389407 -0.1637675 0.61269552
0.074940681 -0.1326372 0.58546388
0.1254825 -0.0394204 0.75710559
0.1144026 -0.020026891 0.72339112
0.1228845 -0.074215949 0.72447312
0.090033829 -0.053990752 0.65684992
0.05782694 -0.020541759 0.57128549
0.05940729 -0.1584027 0.56739938
0.093560643 -0.09980154 0.63831282
0.07078582 -0.099424899 0.58737171
0.06501621 -0.1498488 0.58557922
0.1257944 -0.058007661 0.7548452
0.067856729 -0.037216309 0.58451921
0.1374674 -0.29318771 0.76429558
0.092648797 -0.069446467 0.65871751
0.1170813 -0.1384971 0.71368361
0.068362951 -0.074186981 0.57985562
0.099287629 -0.058339771 0.67424703
0.088896751 -0.1007607 0.67108709
0.098586142 -0.1536238 0.66894382
0.082353167 -0.1280068 0.62716961
0.085421316 -0.1027265 0.62971961
0.068612583 -0.2014415 0.59209681
0.095394552 -0.2351971 0.66742527
0.091989219 -0.1866748 0.63951218
0.1097721 -0.1600913 0.70661128
0.1126653 -0.1382518 0.68900102
0.1321326 -0.20420399 0.77506483
0.2491345 -0.291177 0.56404811
0.1993462 -0.30066961 0.71109003
0.1144778 -0.2999498 0.56165493
0.1803744 -0.30098239 0.7380572
0.082984917 -0.1563708 0.63762099
0.050420109 -0.075875461 0.56976217
0.28804269 -0.2971386 0.56589282
0.069282003 -0.078296207 0.57404077
0.037873089 0.0047612791 0.78133953
0.02588826 0.0052750111 0.69724828
0.064795673 0.005743206 0.67834258
0.094431102 -0.1035087 0.68428051
0.13470121 -0.14485949 0.77673513
0.1081038 -0.097647943 0.69539118
-0.0284974 0.001584411 0.63540971
-0.01387531 0.0061017871 0.69714463
0.032880958 0.0029907229 0.60150993
0.060109079 -0.002484679 0.63660997
0.083750427 -0.097371191 0.60947281
0.064976446 -0.25167969 0.56906992
0.080579758 -0.1116396 0.62054312
0.1114764 -0.2076191 0.70016497
0.127138 -0.090160578 0.75468528
0.12985571 -0.30168989 0.56134957
0.1181527 -0.01494217 0.75292063
0.13083769 -0.28294051 0.77818102
0.1228087 -0.028144419 0.75024682
0.096200287 -0.04968911 0.66910309
0.093274117 -0.083633073 0.64152259
0.1191844 -0.067207009 0.73877239
0.1225054 -0.063131154 0.76585478
0.036779281 -0.2450631 0.56306618
0.1172351 -0.088003933 0.7208147
0.1261593 -0.1677573 0.76228851
-0.047810141 0.0059483051 0.69132072
0.08336062 -0.0003763139 0.64864749
0.083025537 0.0048379898 0.68014759
0.049179759 -0.1969613 0.56217247
0.062525056 -0.071555734 0.59510922
0.03848457 -0.003051877 0.5690006
0.0146457 -0.062038202 0.57577068
-0.079604506 -0.1359555 0.60037041
0.0053594108 0.0087993294 0.58636451
0.03350288 0.00562802 0.58623081
0.01122093 0.00080500537 0.57543898
-0.1419259 -0.1789598 0.62219208
-0.083285689 -0.26250529 0.59819609
-0.1170978 -0.2735143 0.60705107
-0.088399649 -0.19663531 0.60375118
-0.039774541 -0.072824553 0.59257752
-0.044700149 -0.23325349 0.59021711
0.022172241 -0.091575183 0.57141829
-0.0040732622 -0.028484309 0.57733762
0.01094007 -0.060403049 0.57561278
-0.01775825 -0.091394693 0.58304179
-0.1150458 0.003519759 0.62844747
-0.1439074 -0.1339191 0.62596327
-0.060070761 -0.05118468 0.59926039
-0.050068319 -0.076655939 0.5929746
-0.065621078 -0.2504921 0.58888757
-0.070752621 -0.096961357 0.60074878
-0.089443251 -0.2293666 0.60514289
-0.098166667 -0.258623 0.59966582
-0.047225978 -0.1639192 0.59409338
-0.1041716 -0.1913812 0.60650438
-0.1020761 -0.28781521 0.60121518
-0.069031358 -0.073009953 0.60869509
-0.0098442445 -0.22198699 0.57560498
-0.031505089 -0.2396922 0.58364612
-0.01058117 -0.1309294 0.58356303
-0.030300191 -0.2085817 0.58518428
0.017417639 -0.215818 0.57167149
0.037221462 -0.25892371 0.5633086
0.089099079 0.004020154 0.69327718
-0.025919851 0.001006529 0.58786649
-0.1100259 -0.02586223 0.61088228
-0.075481281 -0.038067009 0.61515099
-0.03160936 -0.043849651 0.58711243
-0.030359831 -0.03998151 0.58887619
-0.090818852 -0.09321399 0.61209649
-0.078999937 -0.1903453 0.596838
0.054084361 -0.2259879 0.56694359
-0.0094729792 -0.1773866 0.58006579
-0.0032266381 -0.1480571 0.57456332
0.01176438 -0.2958318 0.56865668
-0.02815487 -0.0039624572 0.58890527
-0.033143912 0.001377478 0.64292783
-0.0088238269 -0.0264295 0.58140892
0.037390519 -0.1317981 0.56503111
-0.09370926 -0.045479551 0.6083656
-0.1243066 -0.2158583 0.60938883
-0.1356077 -0.28245711 0.6157366
-0.1298158 -0.086706221 0.6199497
-0.057694659 -0.045684639 0.60116267
-0.081329674 -0.025825109 0.60491931
-0.15290301 -0.1177025 0.6345318
-0.13238271 -0.1616402 0.62397587
-0.026221961 -0.108934 0.58977377
0.03652573 -0.057344649 0.56670219
0.022205411 -0.19754291 0.57132
0.001095504 -0.23257209 0.57318658
-0.049711391 -0.16177849 0.59345913
0.01318671 0.0077284719 0.6494658
0.02163473 -0.1111765 0.57029539
-0.003536701 -0.038520511 0.57704109
-0.03846876 -0.1374184 0.58997148
-0.14346521 -0.2820783 0.61989021
-0.1183836 -0.1622857 0.60985333
-0.1041649 -0.086919583 0.61073798
-0.060751781 -0.1941022 0.59354877
-0.1251602 -0.1047289 0.61553311
-0.0056717321 -0.27621251 0.57248509
0.02229083 -0.1399202 0.57148463
-0.01595515 -0.2337863 0.57839239
-0.05738619 -0.2769869 0.58779567
0.006344181 -0.02836472 0.57615852
0.057279211 -0.15565149 0.56302452
-0.091634542 -0.006505013 0.60863018
-0.070496678 -0.00342682 0.66649997
-0.074864477 -0.01200989 0.59945917
-0.13834161 -0.183994 0.62022227
-0.080011457 -0.1185755 0.60782498
0.0082179494 -0.1291678 0.57411879
-0.1370244 -0.1291557 0.62215322
0.01992796 -0.28163171 0.56883192
0.01021242 -0.1298794 0.57194632
-0.021010689 -0.1439586 0.58039832
0.036548551 0.0046478361 0.58935308
0.084381521 0.001951903 0.72172987
0.055242699 0.002432972 0.65558201
0.048254829 -0.0010175999 0.68024129
0.046716079 -0.1424353 0.56205791
0.0132108 -0.20108131 0.56950182
-0.04462786 -0.0003199577 0.61923611
-0.066079266 -0.003128916 0.62582469
-0.070027828 0.00066974759 0.60851473
-0.099939249 -0.0047086179 0.61583191
-0.1043629 -0.023437981 0.60764432
-0.1354709 -0.22158509 0.61616182
-0.1297227 -0.18664619 0.6137476
-0.094625287 -0.099707067 0.61250621
-0.056065459 -0.2430829 0.58506697
-0.1200491 -0.1092383 0.61148119
-0.1008509 -0.2176649 0.60363561
-0.069581427 -0.05009836 0.59071422
-0.1537229 -0.27174041 0.63262153
-0.018266371 -0.18287849 0.58970219
0.059240751 -0.1844423 0.56657082
-0.1077511 -0.13246159 0.61170769
0.044418659 -0.082837433 0.56407583
-0.13708989 -0.20263781 0.61953002
-0.078873217 -0.1717314 0.59560072
-0.1092779 -0.1700563 0.61517209
0.037084378 -0.15070421 0.55985671
-0.001503065 -0.02277416 0.58229131
-0.1498023 -0.2154793 0.61466157
0.0051169661 -0.057159722 0.5744527
0.001311708 0.001075 0.74557132
0.052068561 0.003580153 0.77951568
0.075701982 0.003986388 0.77132231
0.045831319 0.003536582 0.73337227
0.0092232786 -0.046118591 0.57368052
-0.1038922 0.003355056 0.732458
-0.02790132 -0.01382372 0.58738571
-0.1154872 -0.2334078 0.60748303
-0.1429238 -0.2488438 0.61741012
-0.072807238 -0.28780001 0.58887577
-0.128289 -0.17670061 0.61358827
0.1039348 -0.3028357 0.65229791
0.02709002 0.003236979 0.74798131
0.0231009 0.0004525632 0.59413809
0.03823486 0.0023842161 0.64006102
0.02459405 0.0057525928 0.78899252
-0.038289111 -0.003456116 0.7364679
0.036678519 -0.001796931 0.57243299
-0.09894757 0.001737431 0.62290919
-0.12511601 -0.0003904998 0.61623383
-0.1290537 -0.0090741217 0.62051272
-0.1263981 -0.016435619 0.61852038
-0.092311516 -0.1691159 0.60450661
-0.088153958 -0.01079175 0.60765028
-0.038694412 -0.055380199 0.58962518
-0.1092491 -0.077582702 0.6154238
0.01462044 -0.099246472 0.56763309
-0.1275709 -0.29841891 0.61475599
-0.01006561 -0.0039277081 0.80290139
-0.02535861 -0.0001248419 0.77555972
-0.0096486704 -0.084562123 0.57597291
0.0099674724 -0.085953407 0.57643008
-0.04156217 -0.001832396 0.59104931
-0.080231823 -0.13676269 0.60017419
-0.13002969 -0.054239869 0.60989338
-0.068548746 -0.2612288 0.59343821
-0.26539919 -0.30189621 0.53775728
0.045245029 -0.053980231 0.56380469
-0.1619589 -0.30043879 0.63516319
-0.1183165 -0.0593228 0.61408031
-0.1498564 -0.2722218 0.62352008
-0.14871439 -0.2016779 0.62572253
-0.1187302 -0.1409613 0.61414742
0.02698894 -0.001712859 0.63580769
-0.01345931 0.002049983 0.69091779
0.084216833 -0.2931897 0.53494948
0.017151469 0.004717648 0.63073063
0.038498979 0.005114764 0.79413259
0.03769695 -0.003757477 0.62820089
0.0004870035 0.001357555 0.6540671
-0.038003899 0.0029852691 0.75860733
-0.026829019 0.00096467137 0.65502667
0.072968319 0.005141139 0.63992941
-0.073051013 0.0078458488 0.77196193
0.02030349 0.002770558 0.66491121
0.053204931 0.002445519 0.68025428
0.029034881 -0.097203173 0.56417751
0.052288931 -0.1106521 0.55609387
-0.016645299 -0.21918491 0.58094972
-0.095447563 0.0091627538 0.61778092
-0.073209383 -0.003288954 0.7224468
-0.104419 -0.1314778 0.60039109
-0.0045954292 0.0048954641 0.57982838
-0.15112039 -0.30188349 0.62279493
-0.092856638 -0.079779983 0.60666549
0.080812708 -0.29971221 0.54189157
-0.1410504 -0.073928423 0.61753118
-0.129526 -0.20273539 0.60619688
0.09299545 -0.3028484 0.55369037
-0.043937251 -0.001771659 0.81142282
0.01311294 0.0049757962 0.73503482
0.041299298 0.001119763 0.64565432
-0.01219981 0.001696944 0.80790782
0.057790902 0.008226037 0.76794058
0.084185719 0.0072698588 0.77241862
-0.065299787 0.0024433429 0.68576962
0.0042412281 -0.2118856 0.57211041
0.037748709 -0.098128319 0.53494138
-0.030454449 -0.2082615 0.5859741
0.009144973 -0.097959913 0.5696457
0.036331549 -0.1002079 0.56375158
-0.075442277 -0.0041317339 0.60757011
-0.14315049 -0.066096634 0.62689012
-0.1511911 -0.141922 0.63188738
-0.092944078 -0.032141481 0.60802358
-0.115928 -0.2086459 0.60499841
-0.075677224 -0.2114103 0.5811466
-0.0029415409 0.0027013421 0.61178279
-0.15949731 -0.22398099 0.63858032
0.043195572 0.0035000739 0.55724972
-0.12863719 -0.1029172 0.62277579
-0.1108109 -0.19021299 0.59764731
-0.04580754 0.0105921 0.61337012
0.0051347911 -0.0017968121 0.73701441
0.0217216 -0.16914169 0.56931227
0.021444511 -0.2109682 0.57171768
0.02885885 -0.05669352 0.5735299
-0.13934121 -0.2422083 0.62787658
-0.03884387 -0.22553951 0.5769884
0.1094852 -0.30100521 0.69242591
-0.2382379 -0.29394481 0.56210238
-0.2195304 -0.30156979 0.59690249
-0.1990957 -0.29703331 0.50843519
-0.1238662 -0.041442331 0.61736047
0.024547501 0.0082605779 0.77297312
-0.058533449 -0.0050305431 0.68838727
-0.099113882 -0.020421181 0.61493021
-0.035995942 0.0067286491 0.64717239
-0.06160453 0.01197165 0.62359941
-0.086401843 -0.0059777498 0.81862152
-0.037689369 0.0022062359 0.71710831
0.051329769 -0.1170625 0.5709849
0.036315419 -0.1131992 0.55962932
0.02837012 -0.1606866 0.56489521
-0.085513324 -0.2174118 0.62072551
-0.082956403 -0.2171769 0.59628242
0.02734571 -0.033075541 0.53027439
-0.080408782 0.003712296 0.6318149
-0.1502586 -0.15313961 0.62026161
-0.094371587 -0.093002893 0.61064482
0.01033799 -0.01140562 0.58071232
-0.045633461 -0.2245255 0.58203453
0.01477876 -0.26928711 0.56558323
0.049854498 -0.085468017 0.57230318
-0.0968384 -0.24140731 0.59396338
-0.30849749 -0.29950991 0.84829861
0.02824254 0.0081912884 0.66352999
0.0080008619 -0.074285299 0.57219088
-0.1055007 -0.1066235 0.6040476
-0.15662409 -0.2153395 0.63212669
0.029330481 -0.2469544 0.56852269
-0.068880931 0.018878579 0.76834887
-0.0120644 0.0047273929 0.56939411
0.03895092 0.0065436959 0.6954391
-0.4865444 -0.29092899 0.68616551
-0.043725349 -0.01259401 0.59991151
-0.1553341 -0.1814748 0.62408888
-0.058664229 -0.088937193 0.60432428
0.1179287 -0.29546791 0.73468739
-0.051761251 -0.002102226 0.59568799
-0.1412898 -0.29628831 0.42529649
-0.2039831 -0.29786599 0.50665402
-0.2779479 -0.29654941 0.8868975
-0.2054784 -0.29545251 0.3937341
0.0148653 -0.022682849 0.5766589
0.0049684048 0.0031122861 0.59876972
0.05430359 -0.19285581 0.55709469
-0.056975309 0.003337115 0.6006546
0.072596133 -0.0059066559 0.60263669
0.069901943 -0.01266967 0.64864272
0.107094 -0.2788249 0.71697599
0.044673029 -0.1123518 0.55547321
0.062364161 -0.01634565 0.56281549
0.099670172 -0.1650909 0.72604609
0.074584603 -0.2507678 0.64449912
0.076997817 -0.01155517 0.67171133
0.068759561 -0.044729009 0.60757452
0.062572479 -0.1114394 0.60672599
0.083592713 -0.1372568 0.65118492
-0.034096599 0.0044022049 0.74262428
0.028008761 -0.0004453063 0.68722862
0.081251651 -0.1160922 0.6796754
0.077977061 -0.24470051 0.63652301
0.09745127 -0.27888641 0.67228138
0.06066012 -0.040670101 0.60905832
0.085742474 -0.056108858 0.65185571
0.064716578 -0.1544487 0.63076341
0.079933234 -0.28163919 0.6163795
0.079520173 -0.2855092 0.64764148
0.059633579 -0.30006111 0.60253108
0.062692463 -0.060418431 0.58608752
0.062967002 -0.25917321 0.62053788
0.070428401 -0.098332994 0.65955621
0.070620239 -0.14596979 0.59662259
0.061710421 -0.15892769 0.56934929
0.066781282 -0.23561759 0.62245178
0.078631163 -0.14218581 0.66052443
0.078602791 -0.01706719 0.65430057
0.063073039 -0.01577406 0.56633782
0.045347691 -0.2654337 0.56702518
0.053484142 -0.2035901 0.56095529
0.05183059 -0.075302958 0.5604158
0.057859778 -0.2890012 0.58912718
0.093548357 -0.0049640238 0.69408709
0.098722398 -0.2409811 0.72283018
0.073241107 -0.057250772 0.65309662
0.071576707 -0.01276482 0.64632303
0.05083907 0.0003743172 0.70574307
0.086035788 -0.05887419 0.6694833
0.091256857 -0.01886834 0.67452562
-0.03149068 0.0066187079 0.64715499
0.069084287 -0.035310019 0.5884726
0.062548459 -0.004446059 0.59690702
0.067861438 -0.003085867 0.60389471
0.067017667 -0.1012721 0.60080892
0.069117308 -0.1180388 0.63685852
0.06750071 -0.0053967088 0.58110517
0.049189571 -0.1657093 0.56347972
0.090281188 -0.2853595 0.67931342
0.1002564 -0.001575366 0.70729017
0.1179048 -0.2329573 0.7730543
0.073254108 -0.14079881 0.60110462
0.1062916 -0.20183019 0.72887272
0.055508789 -0.1604744 0.56248409
0.073371649 -0.1136449 0.61428708
0.074093342 -0.097747989 0.66467708
0.082028329 -0.0059938729 0.65906727
0.084315062 -0.066467583 0.63651693
0.092627943 -0.016194521 0.692514
0.089486778 -0.2401419 0.64007843
0.074382842 -0.27738419 0.58888757
0.058949109 -0.26916629 0.57563257
0.03518939 0.0057131951 0.57927853
0.095408916 -0.01241371 0.72759128
-0.074061751 0.0031629349 0.820948
-0.041294221 0.00091199583 0.82282859
0.087947987 -0.1993248 0.69152802
0.1057572 -0.28677219 0.74565971
0.1053315 -0.1537174 0.68174058
0.083185673 -0.15958551 0.67909181
0.05001032 -0.140706 0.56941581
0.086215727 -0.21358261 0.69421971
0.1246098 -0.22593001 0.74962407
0.066027462 -0.081364132 0.6029824
0.001863897 0.00067615509 0.68340522
0.1010513 -0.1913162 0.68945682
0.07137239 -0.2136763 0.59123522
0.1003503 -0.12863649 0.6772396
0.1141594 -0.1916651 0.73015559
0.070631087 -0.077169217 0.60558259
0.068875968 -0.20728689 0.59549612
0.1050289 -0.23508 0.68405187
0.1016895 -0.1449592 0.72822893
0.05600727 -0.1389125 0.57225561
0.089717977 -0.1708222 0.69134498
0.09573704 -0.25124279 0.66998208
0.1061997 -0.087327167 0.69362962
0.05562526 -0.1248344 0.59198421
0.1044847 -0.0112585 0.7548368
-0.018335341 0.00060717762 0.64293468
0.1015154 -0.01804043 0.71980453
0.098581307 -0.00034146011 0.71290737
0.1222148 -0.16231459 0.77806938
0.1164666 -0.13506261 0.77407771
0.1060409 -0.053781729 0.75633991
0.1112885 -0.1965066 0.72068179
0.1259017 -0.1252977 0.75418162
0.1318576 -0.2055372 0.77626729
0.064019382 -0.102315 0.62803501
0.067309797 -0.1595331 0.61744291
-0.067730308 0.00310652 0.7674827
0.103607 -0.088154927 0.72761321
0.1063088 -0.0067681889 0.74289727
0.1086613 -0.019116521 0.73858649
0.103214 -0.023470851 0.72004819
0.1141117 -0.016517591 0.74679607
0.1116174 -0.079750113 0.73327392
0.101324 -0.063136041 0.72709692
0.1189643 -0.27703831 0.78003877
0.064979263 -0.2188473 0.59986502
0.1205048 -0.1431369 0.73394412
0.058500409 -0.18145861 0.56353068
0.1070474 -0.02333561 0.72433609
0.0971573 -0.15194359 0.72243601
0.1201228 -0.1013665 0.76818341
0.1111028 -0.07669121 0.77455091
0.050649229 -0.084179893 0.55978948
0.053187009 -0.1871419 0.56529689
0.086232007 -0.1110969 0.69926548
0.01272047 0.0062862779 0.79791647
0.1003377 -0.20454369 0.73737121
0.095964909 -0.024965821 0.6816026
0.1209824 -0.18139391 0.78349382
0.1123764 -0.1479212 0.73680329
0.080781043 -0.2418161 0.65890872
0.091824889 -0.26354739 0.65759492
0.082175143 -0.25114989 0.67516601
0.05589598 -0.26009449 0.56227958
0.069887757 -0.006347999 0.59093088
0.1193082 -0.017076431 0.74263138
0.1147508 -0.16926271 0.77220988
0.102973 -0.20742209 0.77287292
0.1086209 -0.1329519 0.77378267
0.1123457 -0.23770881 0.77175683
0.1075662 -0.12504371 0.69601542
0.088025987 -0.065649018 0.63597512
0.054203268 -0.1048132 0.5823009
-0.012052 0.0042798971 0.59529382
0.097854972 -0.087181881 0.67507583
0.087777019 -0.1343516 0.67980021
0.080007017 -0.1687801 0.61148238
0.1072477 -0.25385201 0.73241973
-0.021346809 -0.3027744 0.42515299
0.084676683 -0.032341789 0.67630339
0.1024098 -0.029976079 0.68475038
0.1037154 -0.032255501 0.69969898
0.086616866 -0.051087771 0.65604782
0.078650497 -0.29701731 0.66002703
0.13326991 -0.1461504 0.7748028
0.07431972 -0.1269867 0.64818043
0.1178917 -0.28744981 0.72774309
0.13093869 -0.2425523 0.77906752
0.077759862 -0.028786451 0.61618048
0.04560202 -0.2332835 0.55975342
0.066159368 -0.13384619 0.58919477
0.1171983 -0.14227369 0.75860411
0.066517472 -0.1627533 0.57656568
0.13800479 -0.2030948 0.77248418
0.051955279 -0.29176319 0.56344622
0.1004211 -0.01611894 0.75494272
0.1074234 -0.01331037 0.77149481
0.1134076 -0.1863901 0.73655587
0.1178916 -0.1070328 0.7362926
0.1063627 -0.3006233 0.74474341
0.1005824 -0.1618502 0.78589457
0.1186243 -0.063786581 0.74210739
0.08366698 -0.007708862 0.63555038
0.049788121 -0.28869969 0.55763012
0.1098308 -0.082418159 0.70416129
0.053976659 -0.2300673 0.56612909
0.1004437 -0.1503336 0.71359688
0.130107 -0.2341979 0.77981412
0.080095321 -0.25194019 0.67368913
0.074464619 -0.02943361 0.59930521
0.065276273 -0.1339771 0.6310094
0.1051875 -0.2558147 0.74777222
0.1208842 -0.21796159 0.73509872
0.087479711 -0.027136181 0.63856238
0.062278211 -0.28495559 0.56198519
0.079963453 -0.20950089 0.60632688
0.078828223 -0.15549231 0.60412252
0.073650777 -0.15490431 0.64874041
0.1068111 -0.2642374 0.73730367
0.088821173 -0.1062831 0.64936793
0.087219179 -0.1705917 0.62778229
0.096261077 -0.059197921 0.6731081
0.090543389 -0.070864327 0.65611321
0.076102443 -0.061243549 0.60537469
0.076830573 -0.1825666 0.60147631
0.083364837 -0.1718125 0.60951477
0.086003177 -0.30241221 0.68327498
0.1052701 -0.1951938 0.67858112
0.099572062 -0.1530498 0.66514838
0.24089339 -0.29629019 0.55521202
0.11052 -0.1591469 0.70257008
0.081810407 -0.16440021 0.60885572
0.085542619 -0.2363659 0.63008869
0.098221183 -0.069932893 0.66945487
0.082973719 -0.26116729 0.60675728
0.091509938 -0.30229181 0.56107932
0.1201485 -0.2621637 0.74266517
0.1037816 -0.1957856 0.68341339
0.063718259 -0.09586148 0.58341688
0.12759601 -0.044960279 0.7621401
0.1062843 -0.043648601 0.7279799
0.05235225 -0.27424499 0.57912463
0.07043767 -0.06829004 0.58306468
0.1081805 -0.01481606 0.69893432
0.069734327 -0.19412109 0.58325952
0.067355633 -0.25950661 0.57342142
0.072286427 -0.13469911 0.58173931
0.072096229 -0.086035892 0.58572221
0.054073751 -0.21779481 0.57252133
0.065013893 -0.075239077 0.57769448
0.067786627 -0.18000869 0.57551831
0.06818229 -0.19400869 0.57618982
0.059407711 -0.1106771 0.56835753
0.062955678 -0.23056491 0.56235647
0.082075 -0.27872089 0.5657475
0.067025959 -0.20263921 0.58879513
0.084017813 -0.1771248 0.60622442
0.095791757 -0.073778413 0.65432018
0.071216762 -0.003420986 0.69314033
0.1305349 -0.1204423 0.78056341
0.1269048 -0.15355401 0.7508626
0.2509301 -0.2962859 0.56149691
-0.052264329 0.0084456503 0.63306832
0.060870528 -0.048355069 0.56293237
0.086228192 -0.2759535 0.62240279
0.09764415 -0.227889 0.65218121
0.09607321 -0.2355421 0.66456199
0.117391 -0.122662 0.73728991
0.093381882 -0.1987194 0.67182487
0.1203381 -0.219961 0.74348009
0.097790778 -0.1410061 0.65996528
0.21840569 -0.30187809 0.56075227
0.1008877 -0.2249698 0.67043769
0.1229058 -0.070252143 0.77777398
0.1292 -0.1706069 0.78000569
0.1164027 -0.093296871 0.7444883
0.1252926 -0.054880459 0.77428818
0.09349668 -0.049806919 0.66792673
0.075130522 -0.042475771 0.60312587
0.073545158 -0.2383223 0.58652031
0.081259131 -0.2344541 0.58024043
0.1226685 -0.1148768 0.74823892
0.1155112 -0.087905213 0.73882949
0.081650794 -0.1098234 0.60166597
0.1214708 -0.1437721 0.74771142
0.090605438 -0.075222239 0.63782352
0.1009865 -0.23051891 0.69109029
0.1152771 0.0082304329 0.7611568
0.1001683 -0.13576099 0.67968112
0.082861543 -0.30287239 0.66654199
0.044948399 0.01307328 0.69195312
0.072009742 -0.034262732 0.57871377
0.037160281 0.0065199579 0.75919902
0.1300087 -0.1028491 0.77902722
0.1064706 -0.12668879 0.69765729
-0.042914212 0.00096485019 0.68649578
0.1193274 -0.01242672 0.76396298
0.075587273 -0.23437899 0.60680038
0.121594 -0.28230149 0.72635448
0.19067021 -0.30246729 0.72683138
0.070712693 -0.034844849 0.58823037
0.065075807 -0.1354925 0.57349312
0.1292239 -0.1356782 0.77911198
0.2495952 -0.30151999 0.66178107
0.07461226 -0.001197144 0.64035988
0.1003245 0.0031390639 0.77254659
0.090316176 -0.025212171 0.64191163
0.087502897 0.0045854901 0.7226696
0.1240031 -0.02577406 0.77589941
0.1087319 -0.070835263 0.75539201
0.1315811 -0.094671771 0.77764058
0.1267425 -0.30213141 0.76830047
0.074127577 -0.10452 0.67087919
0.090572603 -0.183827 0.65320897
0.0085564256 0.003844962 0.63370478
0.001297534 0.003049999 0.66936362
-0.1553044 -0.083957687 0.6211524
0.079637349 -0.067538902 0.62111878
0.1183102 -0.1410664 0.71894568
0.097428739 -0.25724709 0.65987152
0.054496352 -0.1196261 0.56087542
0.12680671 -0.059440721 0.76077253
0.1068631 -0.098417617 0.69304693
0.081119947 -0.073176071 0.61692703
-0.03425533 -0.2237668 0.58639133
0.1062685 -0.04221208 0.72562492
0.1126459 -0.04803272 0.7560643
0.1090468 -0.01093166 0.71555251
0.070527971 -0.031294178 0.59328938
0.083618522 -0.12745669 0.62316608
0.098462939 -0.04374576 0.69265538
-0.0078214407 -0.29651171 0.44795981
0.22836 -0.30107459 0.69284302
0.1223737 -0.230165 0.69904047
0.079804718 -0.27117589 0.61270648
0.079171598 -0.21693499 0.62074703
0.083502173 -0.19019669 0.61274707
0.2603423 -0.30123231 0.66479379
-0.02301893 -0.045471638 0.82125467
0.016082169 -0.14854141 0.8097623
-0.089482129 -0.12512849 0.8429749
-0.086980186 -0.1171479 0.84815919
-0.0096994638 -0.2137529 0.82311821
0.1066696 -0.1169306 0.77860808
0.088297188 -0.1527229 0.78884691
0.072711021 -0.034413759 0.79326892
0.104239 -0.2546846 0.77805883
0.01210946 -0.1051849 0.80989182
0.085632659 -0.1964969 0.78838098
0.083825208 -0.077844404 0.78850979
0.092473798 -0.1841879 0.78856641
-0.091316432 -0.08170072 0.84412479
0.083974659 -0.2365545 0.79398561
0.0084785223 -0.1075594 0.81207943
-0.079454146 -0.1780206 0.83599877
0.0027580259 -0.16351859 0.81841463
0.063094817 -0.01300311 0.79270858
-0.01217243 -0.2478037 0.82330221
0.05621681 -0.03187269 0.79760069
0.067418218 -0.0338003 0.79830879
0.060946759 -0.046724729 0.79779571
0.0090139061 -0.065212972 0.80882692
-0.007453233 -0.20947181 0.82133198
0.083051383 -0.1157222 0.79347342
-0.076627143 -0.1577367 0.83822381
0.01527104 -0.23154201 0.81482768
0.047746059 -0.2486707 0.80525148
0.054410551 -0.28250521 0.79975128
0.040857852 -0.27568421 0.80752748
0.01498847 -0.26659971 0.8124032
-0.081648171 -0.087841183 0.8388474
0.001345664 -0.039708231 0.80463779
-0.04502219 -0.1392456 0.82962918
0.1038578 -0.21638881 0.78135169
0.087071776 -0.196032 0.79331797
-0.029153431 -0.17816021 0.82511139
-0.053170979 -0.17694169 0.82859957
-0.04377294 -0.1610053 0.8264671
0.1165527 -0.1895439 0.73252708
-0.00080382818 -0.2939845 0.8140257
-0.04155181 -0.2881358 0.82839161
0.0062067211 -0.1354031 0.81370193
-0.055867199 -0.14932249 0.83413249
0.056304369 -0.25615421 0.79967511
-0.04319432 -0.23289301 0.824772
-0.085477129 -0.1739706 0.84026432
-0.073678441 -0.1705872 0.83100742
0.041417841 -0.099535152 0.80054218
-0.088409297 -0.096050993 0.84161311
0.002085418 -0.071590871 0.8169533
0.01588002 -0.066746309 0.80953121
-0.034255739 -0.04420083 0.82198501
-0.039051309 -0.26897931 0.82622051
-0.085096478 -0.13925029 0.83609378
-0.044954441 -0.020570399 0.82558322
-0.09404701 -0.23480099 0.84299493
-0.075908117 -0.2251372 0.83855432
-0.096234769 -0.039489761 0.84215093
-0.095441192 -0.1632461 0.84438562
0.07301116 -0.116287 0.79474717
0.085702777 -0.15137359 0.7925548
-0.01494306 -0.27662721 0.82036048
-0.031332359 -0.02469987 0.81791377
0.065192237 -0.1027966 0.79545701
-0.077130318 -0.25736171 0.84301472
-0.097429737 -0.065048687 0.84075278
-0.080865324 -0.1030951 0.83987552
-0.048969179 -0.01133004 0.82736403
0.053181801 -0.21045931 0.79837918
-0.034830149 -0.15418901 0.82146722
0.030628029 -0.25390819 0.81035471
0.043441471 -0.1079841 0.8067252
0.0045042932 -0.1089164 0.81651342
0.0233365 -0.2919741 0.81107849
-0.076217592 -0.2892752 0.83964539
-0.038410041 -0.035142072 0.82477432
-0.02337441 -0.01003332 0.81895852
0.01242884 -0.05242059 0.80760992
-0.050056338 -0.14448901 0.83271152
0.1017201 -0.1115323 0.78228003
0.058599029 -0.2074492 0.79498821
0.055733059 -0.043202002 0.7961514
-0.039665859 -0.18703081 0.82623678
0.065161593 -0.27402571 0.79927558
0.071860552 -0.1038451 0.79719031
0.085291438 -0.02358363 0.79055882
-0.054328412 -0.27652639 0.8439216
0.044103179 -0.17718931 0.80664778
0.092290759 -0.1342216 0.78875649
-0.049343169 -0.27544561 0.8372466
-0.005459785 -0.021596041 0.81758332
-0.049804691 -0.1321162 0.8291865
-0.067462534 -0.2978667 0.84128702
0.05035248 -0.17168079 0.79850698
0.097564518 -0.1354277 0.78653318
0.1087596 -0.05991457 0.77796841
0.1029727 -0.2491571 0.78322548
-0.02569462 -0.03692212 0.82455689
0.055629902 -0.1197419 0.79772258
0.050327059 -0.08048714 0.79833579
0.05306894 -0.020956259 0.79687881
-0.097517133 -0.1523525 0.84419411
-0.09864825 -0.05678045 0.84508759
0.0072798282 -0.1337367 0.81188887
-0.016039129 -0.2117708 0.8242411
0.084457397 -0.1308661 0.78750741
-0.063341707 -0.15715601 0.83327073
0.035484161 -0.099020422 0.80254132
-0.044530671 -0.26278451 0.82897002
-0.076999068 -0.22572739 0.84013629
-0.097423673 -0.23693059 0.83677542
0.0023249979 -0.2243003 0.81793898
-0.040655188 -0.1494057 0.82737768
-0.0051318109 -0.1603393 0.81699258
0.01541856 -0.02508856 0.8103404
-0.021383289 -0.031466279 0.81856871
-0.110117 -0.01258364 0.6406436
-0.086991608 -0.072982103 0.84516442
0.1168082 -0.24417239 0.77475649
0.02990894 -0.01181487 0.80309409
0.077307999 -0.074382499 0.80297679
-0.052506611 -0.21118461 0.83263528
0.003893778 -0.072873749 0.81290251
0.026561679 -0.0083201453 0.79856777
-0.13682459 -0.01017811 0.73249942
0.049496941 -0.2648564 0.80295122
0.097392201 -0.26751891 0.78608549
-0.070648603 -0.1208408 0.83354777
0.1267706 -0.28039449 0.77364159
-0.05713563 -0.1828873 0.83286017
-0.020349501 -0.023908891 0.8177464
-0.03191562 -0.1779111 0.82402188
-0.0027786121 -0.1440713 0.81672269
-0.036579579 -0.2304599 0.82879227
0.070747651 -0.0095596388 0.7844696
0.0056765079 -0.0064535812 0.79917312
0.1005425 -0.2851074 0.78381568
0.1148124 -0.27782449 0.77907729
0.1163267 -0.2292579 0.7725001
0.038661469 -0.086160593 0.80247438
-0.029237369 -0.037556279 0.81996542
-0.04704408 -0.023070941 0.82670009
-0.033572052 -0.2351152 0.82702059
0.09445823 -0.14511099 0.78433281
0.069609888 -0.29701149 0.79527181
0.077146493 -0.098175786 0.79261482
-0.025307029 -0.071598418 0.82100201
-0.087993048 -0.006720148 0.64039218
0.1040121 -0.01020854 0.7775225
0.1080824 -0.090930633 0.77585512
0.091456771 -0.22299109 0.78923738
-0.02954158 -0.2282632 0.83080482
0.03393773 -0.2792955 0.80778128
0.1088231 -0.073202603 0.77485448
-0.02109009 -0.02345434 0.82326072
0.1071309 -0.0094733005 0.77742243
0.1043379 -0.095058933 0.77647728
0.05382096 -0.1055147 0.79776561
-0.094166338 -0.1743865 0.8425802
-0.0304398 -0.062444691 0.82152188
0.042813379 -0.22599991 0.80267268
-0.033305209 -0.072984584 0.82158953
-0.034538239 -0.01304431 0.81559348
0.01802792 -0.24673191 0.81003618
-0.01027462 -0.2992439 0.81978559
-0.078248531 -0.21444289 0.83894777
0.1052305 -0.2861543 0.78367639
0.1173432 -0.27186659 0.77040458
0.1129867 -0.25420171 0.78454828
-0.0051803738 -0.0423753 0.81689179
-0.02472746 -0.2549383 0.8269583
-0.046018869 -0.162677 0.82921427
0.015957771 -0.1412514 0.80753207
0.0083463416 -0.01560492 0.80691832
0.046438791 -0.085918583 0.79476893
-0.079270817 -0.1505014 0.83733487
0.058517031 -0.008853443 0.7891196
0.016140571 -0.03643667 0.80505532
0.056494009 -0.03816516 0.79502273
-0.1276568 -0.01076631 0.63732898
-0.03612908 -0.057996862 0.81491393
0.0052303602 -0.2053946 0.81103998
-0.079555243 -0.24999081 0.83201969
-0.094134733 -0.20259769 0.83623338
0.089309767 -0.1197177 0.79039842
0.06167398 -0.005539156 0.7746042
0.069644742 -0.022088829 0.79444462
-0.089143798 -0.1423126 0.83890402
-0.01257538 -0.1392891 0.81741393
-0.0075657442 -0.088277958 0.81876081
-7.8059733e-05 -0.25558779 0.81202322
-0.03653609 -0.066673107 0.82595181
0.0065891738 -0.1480149 0.81361878
-0.03847912 -0.1891844 0.82764018
0.02989001 -0.092546858 0.79161859
-0.056956381 -0.0540599 0.82977092
-0.096573628 -0.078316309 0.8406744
-0.02116224 -0.0080386549 0.81535262
-0.081806928 -0.1347665 0.83960497
-0.028842211 -0.15810201 0.82275897
-0.08681336 -0.09834481 0.83855212
-0.091643959 -0.068932727 0.84531099
-0.091781966 -0.2350467 0.83644038
-0.036912881 -0.24958859 0.82292593
0.069621958 -0.0085728839 0.72245038
0.01384879 -0.0084793642 0.63474828
0.08342164 -0.0062607601 0.76957327
0.1054717 -0.1923665 0.77810699
0.082802497 -0.29377609 0.78944641
0.096445084 -0.2889891 0.78544271
0.034200508 -0.26913941 0.80295408
0.076511256 -0.2862362 0.78847671
-0.018413991 -0.26728871 0.82109451
-0.0473607 -0.1715616 0.82389712
-0.1008507 -0.041418161 0.84666628
-0.01280189 -0.19811159 0.81463492
-0.01367611 -0.0117529 0.60069847
-0.15941221 -0.01226661 0.65923721
-0.031043651 -0.0085711107 0.82285088
-0.0023946171 -0.01305158 0.80937469
-0.1184746 -0.01155906 0.67502332
-0.082116291 -0.01175847 0.76704389
-0.02326148 -0.047905929 0.82107282
-0.05949441 -0.0076783448 0.82649243
-0.075832129 -0.0086424872 0.6569736
-0.1458132 -0.01249076 0.6921103
-0.041112851 -0.01028442 0.76142621
-0.1034681 -0.07457608 0.841205
-0.087400541 -0.089781351 0.83698893
-0.05329388 -0.13715351 0.82717168
-0.1012629 -0.088073418 0.84062672
-0.077047497 -0.14321931 0.83603781
-0.0096649453 -0.0060971901 0.80201298
-0.051278651 -0.2428357 0.83354688
-0.093708523 -0.1866554 0.83663821
-0.090266638 -0.18928359 0.84104377
-0.089494199 -0.2462023 0.8412044
-0.075963743 -0.1907575 0.83855951
0.0217488 -0.0098025585 0.63717347
0.017945331 -0.042650979 0.80467838
0.037692942 -0.0075825532 0.72545868
0.032300971 -0.0090093538 0.70776612
0.04347397 -0.24358159 0.80155408
0.04994614 -0.28288051 0.79893678
0.094228797 -0.2368443 0.77885681
0.051576499 -0.2391753 0.80543339
0.03081334 -0.2949295 0.80947262
0.078566343 -0.2329998 0.78971958
0.02410003 -0.26634341 0.80413342
0.019102359 -0.19521169 0.81476468
0.053402148 -0.1057383 0.79818642
-0.096076913 -0.01485088 0.65304172
-0.027817721 -0.15020999 0.82504219
0.092351891 -0.1923824 0.78297508
-0.1024669 -0.1186456 0.84409362
-0.087078974 -0.01219659 0.78224373
-0.1023635 -0.1289642 0.84601653
-0.106758 -0.1051883 0.82497412
-0.03540048 -0.033737648 0.82033408
-0.1131216 -0.01111459 0.80105758
-0.091314808 -0.28181139 0.83836943
0.073897459 -0.017474391 0.79171771
0.060512278 -0.024337489 0.79609102
-0.05056965 -0.0099552721 0.82944107
-0.1024529 -0.04838372 0.83644241
-0.01012262 -0.01635474 0.81686389
-0.063210353 -0.18685549 0.82958239
0.030357409 -0.0056685582 0.77330393
-0.1631735 -0.034278389 0.65855199
-0.1439895 -0.0064426591 0.67308939
0.055979621 -0.090325773 0.79086113
0.1136689 -0.065669447 0.78005648
0.0057372302 -0.15803839 0.80930829
-0.0059614852 -0.02396173 0.81221312
0.0069638188 -0.02275594 0.80943167
-0.078636117 -0.062273111 0.84067011
-0.13399459 -0.29834241 0.75355679
-0.1023066 -0.2394104 0.83693433
-0.1072382 -0.260483 0.82760322
-0.017957451 -0.23712461 0.81728262
-0.027431941 -0.24182729 0.82876003
0.1060627 -0.15180141 0.77164358
0.1030331 -0.2027511 0.78232962
0.1049926 -0.2295303 0.78129017
0.030282781 -0.25282109 0.80969888
0.071783938 -0.24886981 0.79278159
0.076741263 -0.20894051 0.79039901
0.075652927 -0.2218814 0.79142451
0.045329671 -0.2863099 0.79954761
0.039475039 -0.29006961 0.8040421
-0.05874544 -0.1702449 0.83074713
0.1084709 -0.050987191 0.77715927
