# .PCD v0.7 - Point Cloud Data file format
VERSION 0.7
FIELDS x y z normal_x normal_y normal_z curvature
SIZE 4 4 4 4 4 4 4
TYPE F F F F F F F
COUNT 1 1 1 1 1 1 1
WIDTH 580
HEIGHT 1
VIEWPOINT 0 0 0 1 0 0 0
POINTS 580
DATA ascii
0.26756367 -0.30190057 0.64426839 -0.40588865 -0.83678836 -0.36747745 0.0030518288
0.092705168 -0.22806939 0.6585443 0.95253009 -0.035988823 -0.30230984 0.002714803
0.12168816 -0.29526687 0.76949525 0.7385757 -0.42460877 0.52365386 0.14669688
0.10931475 -0.27240682 0.71946633 0.96476042 -0.18860671 -0.18347962 0.06661687
0.10413119 -0.17902991 0.69569439 0.958655 0.017573955 -0.28402767 0.0015803402
0.056367658 -0.13345277 0.57495159 0.62701154 0.042549863 -0.77784717 0.066986337
0.049567692 -0.28258762 0.56811762 0.089581348 -0.33134666 -0.93924677 0.21043223
0.082306899 -0.014246939 0.65804839 0.75610018 0.5769766 -0.30888578 0.05834458
0.11314494 -0.22826916 0.72658312 0.99497789 0.0060747378 -0.099910669 0.025068751
0.12315623 -0.30378857 0.55793631 -0.20542632 -0.97729355 -0.05193409 0.095970064
0.061993007 -0.011441189 0.59528351 0.58169675 0.59665078 -0.55284423 0.082352698
-0.22441156 -0.30471867 0.51807034 0.043810245 -0.99893904 -0.014193853 0.0038994097
0.048905313 -0.23108676 0.57094687 0.37922555 0.0061285119 -0.92528403 0.059586499
0.078464337 -0.10997523 0.62294102 0.91886127 0.023607541 -0.39387384 0.011129333
0.10802551 -0.0084946165 0.74608427 0.67115802 0.71174467 0.20728356 0.099362954
0.10034154 -0.19315158 0.68412155 0.95437795 0.01195759 -0.29836193 0.00084250671
0.081938356 -0.22318497 0.62656802 0.92672008 -0.029925156 -0.3745589 0.0046929964
0.080679022 -0.16972238 0.61459976 0.91788113 0.02084673 -0.39630747 0.011489582
0.078546785 -0.073682092 0.62124622 0.92203689 0.051158145 -0.38370669 0.011248835
0.092247292 -0.231554 0.66331375 0.95182556 -0.050890222 -0.30238768 0.0046188091
0.070732281 -0.28247717 0.5973599 0.82403839 -0.30541348 -0.47716171 0.22147632
0.10321411 -0.15689418 0.695113 0.95485932 0.019737894 -0.29640195 0.0016237152
0.11155099 -0.013655812 0.74157727 0.79216349 0.60140556 0.10386697 0.10324512
0.053103797 -0.082556829 0.57114619 0.58620936 0.10896803 -0.80279785 0.060063507
0.089924976 -0.045108572 0.6593715 0.91893768 0.26133376 -0.29539493 0.032131337
0.059190448 -0.2989026 0.57870692 0.020745495 -0.9131425 -0.40711215 0.19062838
0.070836321 -0.12827277 0.59702986 0.83580863 0.061269518 -0.54559135 0.042862788
0.067062728 -0.18902111 0.58365208 0.67572844 -0.042903163 -0.73590106 0.054861326
0.077926353 -0.17817666 0.60485834 0.8622815 -0.014025136 -0.50623506 0.034081142
0.11679685 -0.12106637 0.73854548 0.99693388 5.7141428e-05 -0.078247704 0.047358993
0.11822057 -0.21245536 0.7314263 0.99691832 -0.02745699 -0.073483743 0.028918393
0.11010383 -0.040703241 0.72575498 0.94384199 0.29156101 -0.15541707 0.053206246
0.075730264 -0.20458007 0.60272259 0.80500549 -0.057227891 -0.59050077 0.041380461
0.068225421 -0.11159655 0.59268379 0.83230835 0.056959916 -0.55137849 0.04118824
0.12178176 -0.13811189 0.77456331 0.92202497 -0.011961197 0.38694546 0.077908374
0.066376001 -0.068367511 0.58910888 0.75974077 0.13241938 -0.6365996 0.053687528
0.087476715 -0.0021614805 0.72321552 0.50838178 0.86063749 -0.029174348 0.065551169
0.11233173 -0.19043912 0.72482765 0.99336302 -0.016458293 -0.11383793 0.027143849
0.076829322 -0.26082814 0.61266959 0.9089641 -0.10068094 -0.40453377 0.081828825
0.11742528 -0.13959953 0.74259293 0.99820387 -0.0033562577 -0.059814293 0.040723808
0.079222612 -0.011816156 0.65001988 0.72569984 0.62251097 -0.29298434 0.060882445
0.089544564 -0.047978606 0.65700465 0.9256044 0.22876093 -0.30153775 0.03115328
0.10107937 -0.19299373 0.68626112 0.95311517 0.013067836 -0.30232537 0.00080148148
0.078681841 -0.1482598 0.61865354 0.91746718 0.034622774 -0.39630201 0.01116106
0.07989306 -0.17628407 0.6124475 0.9047789 0.0006115443 -0.42588133 0.019387405
0.11786913 -0.025370147 0.76811129 0.80300516 0.39109334 0.44969842 0.086324014
0.11480796 -0.013436976 0.77214915 0.71609515 0.49655631 0.49055028 0.090807997
-0.070612006 -0.00022312926 0.64721841 -0.17705716 0.95015919 -0.25660944 0.057931494
0.13471831 -0.30537713 0.57162213 -0.14985663 -0.98841792 -0.023936123 0.043968495
0.099158786 -0.23357688 0.67656022 0.95521212 -0.046162784 -0.29229921 0.0049482789
0.12122608 -0.09633486 0.771905 0.9269591 0.026317203 0.37423819 0.094991922
0.12273028 -0.26932782 0.77218521 0.76678747 -0.19074416 0.61290586 0.10787137
-0.11056052 0.0029008097 0.63181829 -0.36437267 0.82388425 -0.43410528 0.062719174
0.090808026 -0.12883651 0.66666758 0.95233673 0.016982965 -0.30457547 0.00078648061
0.10550597 -0.20074487 0.69780976 0.962129 -0.0033343516 -0.27257422 0.0019772903
0.12743375 -0.12733416 0.77491784 0.94114542 -0.016503453 0.33759871 0.070193246
0.10146026 -0.29073334 0.68912482 0.86637801 -0.39178893 -0.30966198 0.086500131
0.10040566 -0.24402447 0.67622447 0.95085877 -0.082900129 -0.29832062 0.012681186
0.11957181 -0.11403195 0.74965453 0.99991626 -0.011594646 0.0057465993 0.060728461
0.24456635 -0.29690826 0.5629915 0.13184927 -0.056432813 -0.98966211 0
-0.064325824 -0.00016738003 0.63561678 -0.14811207 0.92217618 -0.35728681 0.062988527
0.07648626 -0.15296973 0.60771531 0.89561391 0.05160505 -0.44182873 0.022612682
0.086637966 -0.1053603 0.65277141 0.95072681 0.01666249 -0.30958205 0.00099270593
0.12307675 -0.048245728 0.77006316 0.85578734 0.25938961 0.4475992 0.069762908
0.048604768 -0.005921755 0.7863906 0.23469864 0.78461564 0.57384211 0.048856791
0.1176836 -0.19492583 0.77018428 0.96753371 -0.029429581 0.25102282 0.058173291
0.10970593 -0.024144595 0.73088205 0.8819772 0.46120113 -0.097003616 0.078538649
0.063835226 -0.15519919 0.58000267 0.67374295 0.026938302 -0.73847461 0.062202353
0.070432402 -0.11328722 0.59846169 0.85878515 0.048103783 -0.51007259 0.033247322
0.097496502 -0.12600401 0.68147641 0.95004261 0.010008392 -0.31195977 0.00061588467
0.09967567 -0.27325487 0.6819135 0.92311931 -0.21599615 -0.31811386 0.047742147
0.11503338 -0.27911201 0.73646814 0.97954953 -0.2010359 -0.0082010152 0.13966255
0.11563011 -0.21782765 0.73937964 0.99903548 -0.022593321 -0.037652463 0.033548873
0.078688808 -0.032851551 0.63148665 0.85776412 0.39667344 -0.32694185 0.055284116
0.084654301 -0.17176548 0.63272595 0.9395116 0.018053496 -0.34204093 0.0026867636
0.11613636 -0.086463287 0.7386421 0.99770176 0.007540788 -0.067337878 0.039758276
0.1180811 -0.04669784 0.76451832 0.87616575 0.27224445 0.39776441 0.077543668
0.11934935 -0.22059914 0.75103456 0.99950224 0.0053820969 0.031085582 0.040993366
0.076329015 -0.071570195 0.61302882 0.89248109 0.065059558 -0.44636843 0.026441768
0.076484993 -0.19680421 0.60346103 0.82807046 -0.046572767 -0.5586862 0.042159531
0.064052023 -0.26763028 0.58176303 0.62622261 -0.074401863 -0.77608603 0.1972805
0.1206146 -0.10560258 0.76629001 0.96800739 -0.0069759083 0.25082475 0.091102317
0.086945884 -0.24060872 0.64904916 0.9439261 -0.09589459 -0.3159236 0.011836603
0.11685047 -0.25346336 0.74286729 0.99852818 -0.053231407 0.010383748 0.066787086
0.10005073 -0.28962776 0.67725527 0.87024426 -0.38039798 -0.31300518 0.076643005
0.094327658 -0.0087598152 0.77144325 0.53023481 0.73841935 0.4166387 0.084361203
-0.00033889068 -0.004585389 0.80555207 0.18535872 0.73299348 0.65449417 0.077444173
0.075725652 -0.093550414 0.60896218 0.88479817 0.047700979 -0.46352652 0.026194371
0.059663791 -0.1942434 0.5706712 0.50414819 -0.035704199 -0.86287874 0.061268073
0.079390138 -0.16432893 0.61340582 0.91178638 0.034098838 -0.4092468 0.015732044
0.067943081 -0.13335204 0.5895381 0.80563927 0.052980084 -0.59003264 0.04604806
0.11845854 -0.039577782 0.75872689 0.8920399 0.30979979 0.32907283 0.090445749
0.10800719 -0.022139411 0.72565764 0.85926425 0.49202132 -0.13992837 0.072192542
0.11284052 -0.075085215 0.72762108 0.98201978 0.058352359 -0.17953305 0.020029258
0.089773543 -0.054013021 0.65692312 0.93382555 0.1854181 -0.30592456 0.02288234
0.053906154 -0.022794615 0.5749945 0.44604757 0.49916324 -0.7428847 0.090389282
0.057251252 -0.15877585 0.57053864 0.57840973 0.027858755 -0.81527054 0.062067457
0.083826728 -0.098867029 0.64010394 0.944763 0.014623574 -0.32742804 0.0018693926
0.066808417 -0.099499561 0.58932889 0.79483265 0.067661256 -0.60304475 0.050987303
0.06581524 -0.14978753 0.58506978 0.75606138 0.027401602 -0.65392679 0.050279852
0.11848629 -0.057304531 0.75615954 0.9412939 0.19936575 0.27243185 0.072741754
0.065858312 -0.037184745 0.58514863 0.65533096 0.37940687 -0.65313995 0.074811943
0.12208797 -0.29370993 0.7671119 0.73715836 -0.39995229 0.54464269 0.15704247
0.090458557 -0.069300532 0.65931588 0.94905782 0.098354936 -0.29935884 0.008864834
0.11010526 -0.13770872 0.71558642 0.98083681 0.016163081 -0.19415979 0.021043282
0.062899232 -0.074097723 0.58308738 0.70366341 0.093893044 -0.70430243 0.058185514
0.096120737 -0.058580611 0.67559034 0.94133145 0.14454873 -0.30496037 0.014330289
0.092496224 -0.10127173 0.66961014 0.95004243 0.0091429353 -0.31198677 0.00073255686
0.094204806 -0.15373911 0.67130047 0.95402205 0.02952699 -0.29827839 0.00076486787
0.079453968 -0.12787627 0.62779206 0.93173826 0.022760881 -0.36241654 0.0056739738
0.080271207 -0.10225637 0.6311273 0.93424124 0.01567865 -0.35629693 0.004408922
0.070854932 -0.20156758 0.59079444 0.75761223 -0.07196293 -0.64872575 0.045981709
0.093563884 -0.23506978 0.66800165 0.95176154 -0.06239073 -0.30042881 0.0073851566
0.086667433 -0.18720238 0.64009041 0.9475171 0.017000366 -0.31925264 0.0014393214
0.10665189 -0.16003157 0.70751017 0.96694589 0.012247319 -0.25468728 0.0051509477
0.10127851 -0.13918358 0.69294196 0.95067924 0.012760609 -0.30991313 0.00074052811
0.12049299 -0.20398659 0.77013052 0.96755892 -0.010569484 0.252424 0.054738786
0.24923539 -0.29122004 0.56328982 0.13184927 -0.056432813 -0.98966211 0
0.19933127 -0.30459297 0.71105999 -0.082062453 -0.99263972 -0.089062214 0.0029424899
0.11411614 -0.30402017 0.56227666 -0.32011762 -0.94723988 0.01616035 0.15650591
0.18084529 -0.30096212 0.73838627 -0.16472651 -0.98538154 -0.043457549 0.088716567
0.084747449 -0.15601923 0.6371876 0.94311529 0.032548361 -0.33086884 0.0020151176
0.049294479 -0.076221719 0.57162994 0.52529168 0.11878566 -0.84259045 0.056297131
0.060436424 -0.078379616 0.57925743 0.64018714 0.085602701 -0.76343471 0.057686131
0.036669701 -0.0015421367 0.7798273 0.11862487 0.90867603 0.40029481 0.042365748
0.025976051 0.0016942405 0.69692606 0.10164365 0.99440539 -0.028748956 0.0083201826
0.063287944 -0.00075648312 0.67890656 0.45277825 0.86930549 -0.19824216 0.062529556
0.097336955 -0.10362197 0.68281358 0.95008022 0.0075917337 -0.31191349 0.00062883669
0.12199931 -0.14484902 0.77020949 0.95721143 0.0054899179 0.28933749 0.069953211
0.10291609 -0.097271957 0.69709992 0.95398092 0.014897625 -0.29949698 0.00099597278
-0.028524112 0.0009032113 0.63540739 -0.10447089 0.93953663 -0.32612386 0.05579121
-0.01389465 0.00118127 0.69721001 -0.0021577401 0.99971581 0.023740739 0.0088073602
0.03287508 -0.00085543352 0.60134912 0.22158384 0.83770984 -0.49914205 0.073145263
0.059035528 -0.0056895306 0.63672215 0.60304928 0.75833857 -0.24749583 0.063925162
0.076382317 -0.097255796 0.61222887 0.90021348 0.028479891 -0.43451658 0.019584702
0.063404702 -0.25186402 0.57328463 0.47104064 0.043616947 -0.88103259 0.11653733
0.078633927 -0.11158165 0.62114269 0.91609454 0.024243824 -0.40022883 0.011686044
0.10694873 -0.2078409 0.70142752 0.96681267 -0.012464452 -0.25518224 0.0023937358
0.12000924 -0.090773702 0.75576562 0.98339665 -0.0032140233 0.18144038 0.066941455
0.12995584 -0.30384827 0.56109303 -0.16427945 -0.98478967 -0.056582302 0.059280436
0.11320753 -0.017263981 0.75385648 0.77951211 0.5403924 0.31676018 0.10812294
0.12387052 -0.28345996 0.769481 0.79215312 -0.27105504 0.54682964 0.13490252
0.11575734 -0.029103508 0.75207889 0.8430779 0.44767821 0.29799965 0.10030844
0.093271956 -0.049912147 0.67010123 0.92033648 0.23458456 -0.31297103 0.031109424
0.085765198 -0.083545148 0.64310837 0.94942009 0.035986137 -0.31193992 0.0024920627
0.11511376 -0.067228734 0.73978865 0.9928695 0.10634992 -0.053850662 0.044070836
0.12003493 -0.062971242 0.76612055 0.8775273 0.14545213 0.45693505 0.070835441
0.03679087 -0.2453045 0.56780428 0.16340297 0.040072959 -0.98574519 0.084644437
0.11229187 -0.088568203 0.72211164 0.98017669 0.01861487 -0.19724892 0.019595843
0.12118227 -0.16749875 0.76318723 0.99044001 -0.016420996 0.13696302 0.060363408
-0.047111772 -0.00042162128 0.69249773 -0.067419924 0.99690217 0.040504429 0.011586811
0.07756415 -0.009372469 0.65272713 0.66910714 0.6872443 -0.28282666 0.061934102
0.078734986 -0.0032815516 0.68269926 0.59371859 0.75415999 -0.28060824 0.061554816
0.048347887 -0.19653729 0.56907624 0.33469197 0.012988019 -0.94223803 0.059678953
0.067553006 -0.07154505 0.59263277 0.79952902 0.11320212 -0.58986324 0.046855442
0.038067039 -0.0084253857 0.5712688 0.25082615 0.592255 -0.76571554 0.08376532
0.014185195 -0.061859176 0.5734368 0.038550701 0.15889628 -0.98654234 0.044689432
-0.079588115 -0.13595691 0.60042286 -0.3152515 0.03546882 -0.94834512 0.00041226376
0.0081301257 -0.0032451383 0.59240246 0.072481602 0.83450192 -0.54621696 0.077621222
0.033053823 -0.0017842653 0.58756167 0.25555289 0.74423075 -0.61710078 0.081772082
0.014336085 -0.0067288941 0.58225435 0.080673523 0.69756258 -0.71196783 0.084774345
-0.1417311 -0.17896557 0.62252623 -0.65352494 0.030408867 -0.75629389 0.043052383
-0.083748713 -0.26242355 0.59664309 -0.30074963 -0.17158955 -0.93814003 0.036395457
-0.11670779 -0.27345219 0.60806817 -0.43095097 -0.26171917 -0.86358804 0.059455123
-0.089224495 -0.1965711 0.60153383 -0.34804928 0.038709935 -0.93667668 0.0031381208
-0.040239826 -0.072870158 0.59135216 -0.2977505 0.087293454 -0.95064425 0.0037747663
-0.045602448 -0.23329626 0.58607805 -0.27868441 -0.025270566 -0.96005023 0.0034124968
0.021857701 -0.091408215 0.56981558 0.14569889 0.094878644 -0.98476887 0.054030262
-0.0028457593 -0.02908654 0.58138913 -0.096193723 0.4547742 -0.88539666 0.064500809
0.010608373 -0.060335353 0.57433802 0.013148956 0.16261888 -0.98660141 0.040753994
-0.017882539 -0.091386497 0.58270562 -0.26179653 0.038213886 -0.9643662 0.004326215
-0.11288743 -0.0057203243 0.63190281 -0.41314542 0.73959714 -0.53132552 0.076960325
-0.14343488 -0.13397911 0.62666315 -0.65027404 0.048935868 -0.75812203 0.040992294
-0.060541734 -0.051271264 0.5979507 -0.3196955 0.23896301 -0.91689229 0.037625354
-0.049650464 -0.0766294 0.59416062 -0.30276462 0.073983528 -0.95018953 0.0028439392
-0.064900264 -0.25060332 0.59114307 -0.29777575 -0.13688456 -0.94477099 0.026351856
-0.070757419 -0.09696018 0.6007337 -0.30544975 0.029784903 -0.95174229 0.00025458689
-0.090966165 -0.22914147 0.6006102 -0.35176334 -0.010539359 -0.93602961 0.0049374965
-0.0977569 -0.25871348 0.60103774 -0.34271687 -0.14981911 -0.92741543 0.033618029
-0.048045546 -0.16397476 0.5906406 -0.2918649 0.036234137 -0.95577294 0.00012042746
-0.10409587 -0.19138914 0.60674685 -0.4134728 0.03476328 -0.90985262 0.0083491979
-0.10108555 -0.28713527 0.60455066 -0.34538701 -0.32360163 -0.88090295 0.061353028
-0.071228355 -0.073079854 0.60145819 -0.30460614 0.09958785 -0.94725782 0.0083574113
-0.0094593763 -0.22204219 0.57700646 -0.19287513 0.025337016 -0.98089612 0.0040029306
-0.032004692 -0.23955299 0.58173013 -0.26281732 -0.056740746 -0.96317577 0.0068068965
-0.012122051 -0.13029018 0.57908672 -0.20950827 0.01167759 -0.97773713 0.01064775
-0.030714173 -0.2085149 0.58379495 -0.27199167 0.029850896 -0.96183658 0.00034447142
0.017369185 -0.21581312 0.57140744 0.020534122 0.026522897 -0.99943727 0.033535298
0.037106961 -0.25892064 0.566921 0.10374554 -0.061937314 -0.99267346 0.10215438
0.083838634 -0.0033880689 0.69509369 0.55934709 0.7933169 -0.24037275 0.056562714
-0.024616012 -0.0057131983 0.59373593 -0.16931823 0.71112418 -0.68237358 0.071441732
-0.10900492 -0.026592864 0.61391479 -0.41188025 0.36028975 -0.83698624 0.052618954
-0.076719396 -0.036604576 0.6054092 -0.29670697 0.32659978 -0.89738375 0.055142958
-0.031095916 -0.044041961 0.58855945 -0.24996567 0.31450325 -0.91575372 0.046978906
-0.030339573 -0.039986711 0.5889309 -0.251807 0.349397 -0.90250486 0.052860685
-0.091852836 -0.092833549 0.60748214 -0.34779012 0.030331917 -0.93708169 0.0033238402
-0.078628592 -0.19037645 0.59789163 -0.31776437 0.037250485 -0.94743776 0.00086675398
0.052280314 -0.22610463 0.57175392 0.40400609 0.026428228 -0.91437453 0.058889162
-0.010228859 -0.17752355 0.57763726 -0.17033301 0.028590942 -0.9849717 0.0080000451
-0.0028349443 -0.14809524 0.57577592 -0.13842198 0.025775593 -0.99003786 0.016712667
0.012615797 -0.29452524 0.57225382 -0.11505738 -0.49436817 -0.86160433 0.12435576
-0.026618093 -0.0070700641 0.59444642 -0.17927563 0.69525313 -0.69604832 0.072290979
-0.033141021 0.00081725663 0.64285487 -0.084104761 0.9595629 -0.26863638 0.048610713
-0.0082615679 -0.02670105 0.58320081 -0.13374837 0.50518495 -0.852584 0.067626767
0.036938239 -0.13184363 0.5671019 0.36034971 0.022722239 -0.93254048 0.069350831
-0.093947202 -0.045487124 0.60743302 -0.34817222 0.23249482 -0.90814221 0.036413334
-0.12311812 -0.21586756 0.61240262 -0.53756976 0.03510337 -0.84248823 0.028868061
-0.13516924 -0.28230479 0.61664551 -0.50015312 -0.33322632 -0.79925406 0.14990731
-0.13009794 -0.086766452 0.61916721 -0.54889596 0.040993746 -0.83488482 0.029375196
-0.058956776 -0.045693185 0.59721321 -0.3149983 0.25854519 -0.91319793 0.039437648
-0.081087753 -0.026019141 0.60583705 -0.2943112 0.38805392 -0.87338138 0.060834676
-0.15274025 -0.11771999 0.63469726 -0.71247602 0.033986188 -0.70087284 0.046366122
-0.13419637 -0.1616929 0.61982852 -0.6002816 0.036305726 -0.79896426 0.033155683
-0.027517444 -0.10879257 0.58572996 -0.29473072 0.025919771 -0.95522875 0.0016619031
0.036177203 -0.059019029 0.57421917 0.27135232 0.20281243 -0.94086933 0.063168138
0.022007138 -0.19755964 0.57027555 0.11182275 0.027507769 -0.99334735 0.049227469
0.0013024831 -0.23260975 0.57394928 -0.11653421 -0.005461121 -0.99317169 0.015728191
-0.050263684 -0.16181594 0.59113234 -0.29361767 0.034885921 -0.9552862 0.00013610027
0.013348554 0.0012477003 0.6504851 0.10379671 0.98633808 -0.12791935 0.01819657
0.021580771 -0.11117715 0.5699864 0.11480424 0.05128713 -0.99206334 0.063565314
-0.0027227448 -0.038891502 0.58027202 -0.09776251 0.33506837 -0.93710816 0.053225357
-0.03917145 -0.13731466 0.58812541 -0.29912838 0.031429946 -0.95369512 0.00023311557
-0.14281334 -0.28191477 0.62104702 -0.61719811 -0.25749317 -0.7434808 0.1579691
-0.11765161 -0.16231519 0.61189717 -0.51606613 0.032499671 -0.85593194 0.024781546
-0.10405782 -0.086927161 0.61113358 -0.39629802 0.0412792 -0.91719347 0.008658627
-0.061019909 -0.19397795 0.59250659 -0.29157722 0.038512442 -0.95577168 0.0001572285
-0.12482619 -0.10474668 0.61658347 -0.506594 0.029064624 -0.86169475 0.025201393
-0.0054467507 -0.27610603 0.57326937 -0.19884846 -0.21442425 -0.9562853 0.06014042
0.022018859 -0.13991272 0.56946468 0.1442499 0.0027326457 -0.98953754 0.062306084
-0.016047845 -0.2337697 0.57806969 -0.21917905 -0.027395627 -0.97529995 0.0051625492
-0.057156201 -0.27691209 0.58839309 -0.27738291 -0.26616535 -0.92315477 0.051820774
0.0065799789 -0.029031014 0.58046871 0.0062470641 0.47000071 -0.88264388 0.078187026
0.053990223 -0.15656929 0.56913376 0.55230492 0.026589086 -0.83321798 0.062788591
-0.090364195 -0.0095413094 0.61502004 -0.30782774 0.66525322 -0.68020606 0.072989076
-0.070497826 -0.0034204363 0.66650093 -0.15975823 0.97758782 -0.13711061 0.037911981
-0.073114626 -0.014599988 0.60706425 -0.26921466 0.56570435 -0.77942419 0.073340714
-0.13820195 -0.18400598 0.62046295 -0.63534284 0.037576798 -0.7713154 0.042828854
-0.081454754 -0.1180197 0.60271376 -0.31863889 0.032177724 -0.94732988 0.00062906707
0.007524095 -0.12911057 0.57195807 -0.032581981 0.03185825 -0.99896115 0.036766086
-0.13685945 -0.12918347 0.62246686 -0.61444575 0.036478072 -0.78811532 0.039982095
0.020022184 -0.28155178 0.56952554 -0.10765524 -0.27179661 -0.95631427 0.12681362
0.009962976 -0.12986983 0.57112628 0.011258333 0.037563987 -0.99923074 0.045056336
-0.020437114 -0.14402176 0.58186364 -0.25437754 0.02655202 -0.96674037 0.0037010051
0.036122773 -0.0024256133 0.59004962 0.27224615 0.74807805 -0.60519528 0.082904808
0.083283596 -0.00082228932 0.72218806 0.45344576 0.89105153 -0.020350978 0.062119279
0.054519139 -0.0010962399 0.65614516 0.49210396 0.85041726 -0.1860753 0.058589686
0.048469611 0.0017783409 0.68026584 0.33242616 0.93125093 -0.14921322 0.052709315
0.044690065 -0.14196175 0.56714046 0.45071569 0.012422625 -0.89258111 0.0690341
0.013675075 -0.201113 0.57122165 0.002730774 0.022557829 -0.99974179 0.034525458
-0.04465764 -0.00096066931 0.61931747 -0.15062183 0.8703981 -0.46874332 0.075612284
-0.066337757 -0.0020078199 0.62552428 -0.18441619 0.83281332 -0.52193153 0.076308943
-0.067776874 -0.0049089263 0.61196196 -0.23591106 0.72703618 -0.64479798 0.078122795
-0.09873113 -0.0076774857 0.61924255 -0.38979843 0.66579181 -0.63622206 0.068672471
-0.10271925 -0.024319759 0.61229277 -0.39617446 0.38901934 -0.83169085 0.055005319
-0.13480611 -0.22162785 0.6173107 -0.59032702 0.040490359 -0.80614793 0.034794524
-0.12874967 -0.1868149 0.61592007 -0.57949579 0.02802019 -0.81449348 0.03411885
-0.095753469 -0.099326782 0.60815823 -0.35866013 0.025230858 -0.93312728 0.0040741009
-0.05513278 -0.24310005 0.58817816 -0.28363407 -0.064696886 -0.95674759 0.009044013
-0.11887276 -0.10948101 0.61489016 -0.46134052 0.03029035 -0.88670594 0.016283231
-0.1007174 -0.2176612 0.60405755 -0.38604501 0.03426053 -0.92184347 0.0054912926
-0.066491067 -0.049600933 0.59946132 -0.3129935 0.23862301 -0.91929007 0.037833761
-0.15409078 -0.27172932 0.63245624 -0.83840901 -0.15654449 -0.52207685 0.1382025
-0.02075357 -0.18264805 0.5825333 -0.24282885 0.029836111 -0.96961021 0.0016929822
0.056006454 -0.18424396 0.5696165 0.44603652 -0.022080651 -0.89474231 0.062316772
-0.10824056 -0.13240243 0.61017638 -0.4246825 0.027346125 -0.90492922 0.010062469
0.043323223 -0.084155977 0.57039255 0.36428365 0.087996878 -0.92712134 0.058243711
-0.13681048 -0.20264775 0.61995053 -0.63631535 0.036409792 -0.77056932 0.04004788
-0.0778265 -0.17192844 0.59927386 -0.31495613 0.037846684 -0.94835132 0.00040653264
-0.11120296 -0.1697606 0.6096369 -0.47855026 0.045468122 -0.8768822 0.017473025
0.036301978 -0.15092255 0.56702757 0.3245436 -0.0064450675 -0.94584876 0.070617743
-0.0012807358 -0.023079881 0.58322269 -0.071736179 0.53199834 -0.84370118 0.074838676
-0.14408074 -0.21563807 0.62310278 -0.67609525 0.040117882 -0.73572123 0.047969975
0.0055756439 -0.057239413 0.57634771 -0.050713588 0.18398906 -0.98161912 0.036718857
0.0012723388 -5.1302166e-05 0.74582916 0.031320751 0.98818177 0.15005255 0.021637522
0.051244006 -0.0014343838 0.77706778 0.21249759 0.88687521 0.41024044 0.041152984
0.074467644 -0.00099281489 0.76862544 0.37410104 0.84481788 0.38253257 0.072772063
0.045412328 -0.00037607498 0.733576 0.17107253 0.98150665 0.085900471 0.027379554
0.0097425375 -0.046202101 0.57570922 0.017376481 0.2907027 -0.95665562 0.057522558
-0.10319909 -0.0077162753 0.72834402 -0.4925994 0.85961956 0.13564689 0.070506327
-0.026664201 -0.01550009 0.5916332 -0.18898861 0.62960094 -0.75358212 0.070606969
-0.11516274 -0.23349445 0.60853928 -0.4452413 -0.013583538 -0.8953076 0.012912818
-0.14161183 -0.24892786 0.61967683 -0.65927565 -0.068683319 -0.74875784 0.043611903
-0.070818469 -0.28678596 0.59445363 -0.27731773 -0.35634694 -0.8922509 0.065031223
-0.12741654 -0.17681095 0.61570293 -0.5618189 0.044098031 -0.82608414 0.030660316
0.092877917 -0.295389 0.65591305 0.88713729 -0.37000242 -0.27583608 0.081222959
0.027066588 0.00054101372 0.74814624 0.081588134 0.9747721 0.20775659 0.027146924
0.023773758 -0.0024530201 0.59491241 0.17957014 0.83317304 -0.52304608 0.076700315
0.037908748 -0.0010075106 0.64057082 0.30933845 0.9333396 -0.18217289 0.044688832
0.023741558 -0.0013129335 0.7853182 0.12720212 0.86627054 0.48310965 0.065905295
-0.038624428 -0.00047691897 0.73668635 -0.038622804 0.99912232 0.016211383 0.0060118986
0.036282919 -0.0068881987 0.57458204 0.24949804 0.61339831 -0.74932843 0.083104372
-0.097898699 -0.0026988199 0.62670875 -0.33480981 0.77692181 -0.53319305 0.07094112
-0.12184177 -0.0050816201 0.62514085 -0.45669335 0.62081558 -0.63719636 0.065850951
-0.12696409 -0.011418176 0.62527192 -0.49547067 0.54981595 -0.67246646 0.073903948
-0.12547448 -0.017519701 0.62116563 -0.49222702 0.47215587 -0.73128742 0.069163151
-0.092749372 -0.16907361 0.60315132 -0.37084091 0.036714684 -0.92797041 0.0038784822
-0.086848646 -0.012983333 0.61208481 -0.27734149 0.61272889 -0.74003041 0.073284112
-0.038461477 -0.055318002 0.59035867 -0.28593034 0.19068511 -0.93908632 0.027568808
-0.11017763 -0.077629663 0.61229348 -0.41657633 0.074566737 -0.90603739 0.011262854
0.015643476 -0.099547066 0.57083768 0.062062066 0.082371376 -0.99466741 0.046060849
-0.12689467 -0.29779524 0.61652702 -0.35128117 -0.60568357 -0.71396703 0.14453065
-0.0094288206 -0.0029115309 0.8046298 0.16299702 0.76268744 0.62589127 0.081138283
-0.025537957 -0.0016378601 0.77556658 0.038934197 0.93329674 0.35698932 0.068011492
-0.0083576161 -0.084753007 0.57965958 -0.18854158 0.061578207 -0.98013276 0.014839946
0.0091070253 -0.085704863 0.57342309 0.01257076 0.057814743 -0.99824816 0.041804284
-0.039690409 -0.0033034864 0.59595805 -0.18988188 0.72623605 -0.66070122 0.065852113
-0.080124386 -0.13677002 0.60051483 -0.31541431 0.035482977 -0.94829041 0.00042467404
-0.12797812 -0.054141372 0.61702424 -0.52293044 0.18217698 -0.83267957 0.047370214
-0.068777271 -0.2611807 0.59263211 -0.28456932 -0.19213502 -0.93920416 0.04032423
0.043163031 -0.056249578 0.57481378 0.38062298 0.21402243 -0.89962244 0.070262305
-0.15430428 -0.29861644 0.63858986 -0.49625283 -0.83284718 -0.24515045 0.21972692
-0.11825404 -0.05931668 0.61429518 -0.44813892 0.15310074 -0.88075626 0.027853966
-0.14947838 -0.2722168 0.62408406 -0.74484819 -0.16377607 -0.64682192 0.15442157
-0.14742693 -0.20168355 0.62719887 -0.71026844 0.03436587 -0.70309156 0.050863933
-0.11903012 -0.14097689 0.61332041 -0.49637124 0.018291241 -0.86791772 0.024734322
0.027056621 -0.00043755554 0.63564837 0.16576879 0.96649045 -0.19600269 0.027888449
-0.013461712 0.0011211126 0.69092453 -0.0052582431 0.99982679 0.017854203 0.0090896254
0.078783996 -0.29770535 0.5360657 -0.13128333 -0.22180535 -0.96621275 0.14983629
0.01732548 -0.00080370804 0.63110548 0.14965308 0.95858026 -0.24233803 0.040806338
0.036064018 -0.0042954218 0.78869486 0.16797125 0.80106181 0.57453084 0.056701548
0.037850302 -0.00093259523 0.62819391 0.32159141 0.90496653 -0.27859393 0.056473881
0.00049438322 0.00098984689 0.6541099 0.034175362 0.99321145 -0.11118929 0.016636014
-0.038134243 -0.00017839734 0.75930202 -0.033064373 0.98157746 0.18818203 0.036476403
-0.026812796 0.00050895166 0.65502405 -0.039259978 0.99122792 -0.12619752 0.024138318
0.068886064 -0.0066886218 0.64126694 0.67166841 0.70520836 -0.2270302 0.066997141
-0.073335804 0.0078588445 0.77093488 -0.17864874 0.97226322 0.15095961 0.027964002
0.020304551 0.0025611769 0.66492915 0.11891373 0.99166858 -0.049527436 0.010370536
0.053069528 0.00098508387 0.68033177 0.35501918 0.92287105 -0.14923239 0.0535619
0.029586796 -0.097654842 0.5679872 0.25086787 0.10818633 -0.96195686 0.057754021
0.045791119 -0.1105811 0.56587249 0.47781706 0.071236022 -0.87556624 0.07678052
-0.017101638 -0.21905635 0.57941633 -0.22803272 0.024856579 -0.9733361 0.0025079644
-0.094034754 -0.00038558492 0.62594038 -0.29370129 0.85150594 -0.43436965 0.059835725
-0.073126279 -0.0045510256 0.72241777 -0.2247958 0.97240961 0.062340438 0.021163829
-0.10210957 -0.13176037 0.60797244 -0.39606103 0.02671089 -0.91783565 0.0073280986
-0.0031941077 -0.0023542959 0.59077537 -0.052835155 0.77724493 -0.62697589 0.074485235
-0.14731812 -0.2993052 0.62817651 -0.39478967 -0.80692565 -0.43933126 0.21622173
-0.092641585 -0.079777598 0.60746717 -0.34290755 0.055924457 -0.93770295 0.0045317961
0.080958366 -0.29896891 0.54201502 -0.066896267 -0.16960657 -0.98323876 0.19739112
-0.13937683 -0.073624007 0.62176365 -0.61244255 0.077924386 -0.78666508 0.040074196
-0.12625711 -0.2032875 0.61373836 -0.55811226 0.033138294 -0.82910353 0.029477743
0.093055643 -0.30203369 0.5538274 -0.33629948 -0.93071675 0.1437673 0.19858076
-0.042688642 -0.00023495634 0.81722897 0.058799855 0.77296352 0.63171983 0.086446121
0.013402715 -0.0012016128 0.7356922 0.021571912 0.99477822 0.099753745 0.010331122
0.041069146 -0.00081595359 0.64595735 0.33218539 0.93031877 -0.15543474 0.044265416
-0.013793866 -0.0019154607 0.80363476 0.15297253 0.77204001 0.61689037 0.082348771
0.056630798 -0.0011745006 0.76749605 0.24030019 0.92746246 0.28647712 0.048893843
0.081861332 -0.00090022676 0.76759702 0.4840402 0.79431272 0.36711353 0.085218742
-0.06549906 -0.0031741632 0.6855306 -0.12829047 0.99094784 0.039547455 0.011275915
0.0046617454 -0.21196079 0.57359391 -0.070984982 0.035279844 -0.99685323 0.02605865
0.029403655 -0.099692419 0.54858065 0.19728889 0.075124756 -0.97746277 0.050944611
-0.031042015 -0.20816424 0.58393925 -0.27199167 0.029850896 -0.96183658 0.00034447142
0.010085248 -0.098140731 0.57253355 0.010876652 0.077912994 -0.99690086 0.041520279
0.036384746 -0.10040456 0.56613904 0.36429337 0.081812255 -0.92768371 0.064766355
-0.073997349 -0.0079681529 0.61092895 -0.25496346 0.69093841 -0.67645967 0.079550982
-0.14323175 -0.06610994 0.62679577 -0.72273815 0.11793438 -0.68098527 0.059354804
-0.15097307 -0.14195754 0.63213837 -0.71188885 0.043060653 -0.70097077 0.048899725
-0.093081005 -0.032103151 0.60755253 -0.35167301 0.31894034 -0.88011545 0.047123171
-0.11458199 -0.2087734 0.60930741 -0.48692018 0.031500287 -0.87287825 0.018067719
-0.071126878 -0.21195027 0.59417421 -0.30224317 0.037723098 -0.95248413 0.00044408275
-0.0027605731 -0.0030227501 0.61204672 -0.042095125 0.87496573 -0.4823516 0.069370762
-0.15742835 -0.22409849 0.63983166 -0.8593002 0.015288186 -0.51124305 0.054296482
0.039592702 -0.0054276842 0.55904418 0.19137006 0.48620534 -0.85263234 0.085247129
-0.12994646 -0.10291425 0.61895776 -0.57154351 0.021917036 -0.82027906 0.037569508
-0.10759561 -0.1908098 0.60727882 -0.44124016 0.039896265 -0.89650172 0.011196051
-0.045357551 -0.00017225494 0.61500186 -0.17393732 0.83248371 -0.52603883 0.073994838
0.0051229815 -0.0029035341 0.73722696 0.0033161677 0.99407297 0.10866492 0.010791874
0.021659171 -0.16915588 0.56899643 0.12734343 -0.0049970271 -0.99184608 0.052803308
0.021311393 -0.21095413 0.57087994 0.070095479 0.021498825 -0.99730855 0.043497443
0.028705545 -0.056610905 0.57240933 0.17356011 0.18662125 -0.96697944 0.055914354
-0.14355579 -0.24211852 0.62187678 -0.67178679 -0.043391682 -0.73947257 0.040703613
-0.037235092 -0.22554697 0.58402842 -0.26929387 0.023203818 -0.96277845 0.00043734888
0.10221277 -0.29885438 0.69453478 0.83816129 -0.44228321 -0.31917274 0.076305874
-0.2195304 -0.30156979 0.59690249 0.20063195 -0.97963989 -0.0072422614 0.025915455
-0.19885018 -0.30234686 0.50781804 0.085007899 -0.9951418 -0.04966291 0.0037476567
-0.12400865 -0.041400399 0.61691231 -0.47820529 0.30457848 -0.82374245 0.06171101
0.024590787 0.00064693706 0.77250063 0.11592809 0.92386305 0.36474338 0.049864333
-0.058801625 -0.0029129081 0.68835616 -0.10928374 0.99289316 0.047119267 0.01161868
-0.099416658 -0.020052981 0.61400175 -0.37940934 0.44359294 -0.81195676 0.058544867
-0.03630089 0.0024116351 0.64642227 -0.083184242 0.96337843 -0.25491646 0.046011623
-0.060847621 0.00065875542 0.62531286 -0.15902562 0.86749393 -0.47134399 0.071014754
-0.084816292 -0.01177833 0.81773496 -0.28973377 0.72757453 0.62184381 0.082807936
-0.037510529 0.00053083443 0.71703172 -0.045386221 0.99887896 0.013450529 0.0063738786
0.050571125 -0.11719367 0.5719344 0.54541457 0.091227368 -0.83318698 0.071658887
0.036313169 -0.11228985 0.56638813 0.42575336 0.093915008 -0.89995229 0.075136416
0.028604534 -0.16094066 0.56866914 0.20470336 -0.02106683 -0.97859734 0.054479085
-0.091029465 -0.21685445 0.60218328 -0.35627243 0.031333461 -0.93385661 0.0032656586
-0.082388498 -0.21721423 0.59798759 -0.32127157 0.035299886 -0.946329 0.0011058244
-0.07953275 -0.0017990274 0.63276237 -0.23782836 0.85152978 -0.46726307 0.067045391
-0.1460671 -0.15378419 0.62650871 -0.68001688 0.055742528 -0.73107439 0.045629513
-0.094940603 -0.092846684 0.60846299 -0.35054135 0.029222896 -0.93609118 0.0032775407
0.010899357 -0.012660313 0.58266938 0.054444276 0.63179517 -0.77322096 0.087001123
-0.044737916 -0.2246152 0.58598161 -0.27664971 0.028530631 -0.96054715 0.00031715978
0.015320709 -0.26925868 0.56852758 -0.082534261 -0.16030693 -0.98361063 0.089513443
0.050261062 -0.085469142 0.57174498 0.57982332 0.10453723 -0.80800802 0.061098889
-0.094574571 -0.24189259 0.6009391 -0.35999182 -0.063723341 -0.93077672 0.012333705
0.028105445 0.0023176002 0.66421723 0.18595532 0.98071563 -0.060145292 0.018963473
0.00858262 -0.07441663 0.57422483 0.00019003471 0.089799136 -0.99595988 0.036693446
-0.10368074 -0.10705128 0.60993159 -0.40189806 0.017552469 -0.9155162 0.0099363336
-0.15490256 -0.21554294 0.63368404 -0.81846893 0.003600352 -0.57453948 0.066077895
0.029311169 -0.24693921 0.56815863 0.080522098 0.0025078307 -0.99674964 0.070981182
-0.068534024 0.018871712 0.76962656 -0.18731597 0.97534496 0.11668231 0.024698548
-0.0081030885 0.00074751681 0.58668858 -0.099759936 0.7562204 -0.6466673 0.07764215
0.039422724 0.0015947337 0.69486958 0.21120203 0.97478735 -0.071994632 0.023056814
-0.0438799 -0.01226623 0.59907812 -0.1959378 0.68968266 -0.69709843 0.068951279
-0.15103212 -0.18113582 0.62871474 -0.74117285 0.011264995 -0.67121977 0.057035245
-0.060943849 -0.088394605 0.59818554 -0.30387145 0.03493654 -0.95207226 0.00027460902
0.1145315 -0.29504591 0.73602939 0.8223182 -0.56724787 0.04497467 0.16708104
-0.050272379 -0.0065886294 0.59950745 -0.20189795 0.6830641 -0.70189792 0.064152919
-0.2037746 -0.30237833 0.50612992 0.085007899 -0.9951418 -0.04966291 0.0037476567
0.015024636 -0.023299295 0.57991886 0.064039372 0.49823275 -0.8646751 0.081129603
0.006586975 -0.0043096323 0.60050225 0.065379187 0.84331101 -0.53343427 0.072033927
0.049774092 -0.1924247 0.56196821 0.32024941 0.011200522 -0.947267 0.05665727
-0.054902427 -0.0034255714 0.60387129 -0.19590023 0.72140473 -0.66422766 0.064348109
0.06458354 -0.0092894137 0.60532141 0.60814357 0.64037591 -0.46912697 0.073805317
0.071361579 -0.0099965548 0.64767236 0.67449039 0.69258779 -0.25570488 0.064583316
0.10832058 -0.27878261 0.71670842 0.94130611 -0.27199414 -0.19990462 0.081284009
0.042791329 -0.1119044 0.56559515 0.46754014 0.083407849 -0.88002801 0.076934859
0.053052738 -0.019641753 0.57054955 0.44192314 0.50113255 -0.74402291 0.092188306
0.11045592 -0.16565682 0.72198379 0.99052572 -0.0046804142 -0.13724734 0.028176434
0.083893523 -0.25112575 0.64155614 0.9369812 -0.14022505 -0.320005 0.025199693
0.079812646 -0.0076608299 0.67094088 0.63243467 0.71871012 -0.2889328 0.060460161
0.073564686 -0.044886604 0.60596985 0.81071121 0.29342586 -0.50660509 0.058518633
0.071104266 -0.11119448 0.60366058 0.86403131 0.035116207 -0.50221187 0.032405496
0.085217118 -0.13716587 0.65066987 0.95174348 0.023877569 -0.30596438 0.00096666673
-0.033793617 -0.00044652927 0.74238575 -0.030968752 0.99618423 0.081596158 0.012816866
0.027746769 0.0015347434 0.68762928 0.12352932 0.99102622 -0.051064752 0.011007768
0.092392512 -0.11524144 0.67404509 0.95066953 0.0088890148 -0.31007794 0.00063864206
0.082815044 -0.24470237 0.6351409 0.93338919 -0.1079611 -0.34224111 0.018305896
0.094981939 -0.27885279 0.67345965 0.88154751 -0.3420234 -0.32541358 0.071610048
0.072823964 -0.040571041 0.60542899 0.7810809 0.34514782 -0.52037072 0.061939511
0.087800667 -0.055908907 0.65127361 0.93811929 0.1708553 -0.30123189 0.020408878
0.080195211 -0.15171491 0.62901741 0.93292719 0.028685713 -0.35892043 0.0057958802
0.077114552 -0.28126839 0.6173377 0.89895326 -0.26953632 -0.34530151 0.15978849
0.084243692 -0.2868138 0.64596069 0.87113893 -0.39650327 -0.28965873 0.082586415
0.06116705 -0.30283102 0.60184854 0.11684085 -0.97016215 -0.21244685 0.16337389
0.063219674 -0.060398012 0.58577925 0.69097412 0.19647297 -0.69566745 0.061216634
0.077610835 -0.2582514 0.61790699 0.91602623 -0.10097333 -0.3882013 0.065011479
0.085317671 -0.10195632 0.65574884 0.95159489 0.012353865 -0.30710649 0.00088197395
0.07099577 -0.14593205 0.59646791 0.82282788 0.030756239 -0.5674578 0.046124145
0.058792517 -0.15938032 0.57212806 0.62641424 0.020867208 -0.77921104 0.059180915
0.077985592 -0.23579995 0.62012988 0.90622389 -0.051656917 -0.41963068 0.018832218
0.086519547 -0.14189494 0.65699679 0.95258683 0.026329996 -0.30312544 0.00092267065
0.078902006 -0.016917776 0.65419662 0.75866306 0.57834035 -0.29992118 0.061698962
0.05461495 -0.018863358 0.57262486 0.44511375 0.52212512 -0.72750193 0.092745766
0.045161065 -0.26529923 0.56845754 0.20477711 -0.036295827 -0.97813547 0.13212074
0.049959328 -0.20231652 0.56922799 0.39333785 -0.019663032 -0.91918373 0.063332684
0.047036443 -0.076304071 0.5665862 0.45246246 0.1110563 -0.88484138 0.051990572
0.063905567 -0.29125053 0.58568478 0.22946988 -0.85883409 -0.45798194 0.23516832
0.089697048 -0.0077851638 0.69540709 0.68726552 0.68230456 -0.2492523 0.056131057
0.11019882 -0.24195381 0.72004539 0.98359531 -0.0248449 -0.17866978 0.020934701
0.087425172 -0.056236226 0.64898962 0.94179893 0.1722562 -0.28869131 0.0210444
0.07253208 -0.011213451 0.64566118 0.69911277 0.66415608 -0.26483583 0.062474836
0.05084645 0.00069601927 0.70577502 0.26246852 0.96166295 -0.079465248 0.028006066
0.093079343 -0.058254361 0.66724062 0.9397127 0.13864645 -0.31259742 0.014031192
0.089154325 -0.019559197 0.67523122 0.79313213 0.52197385 -0.31382293 0.059364319
-0.03143467 0.00090096489 0.64642793 -0.078863092 0.96760285 -0.23984452 0.047116298
0.067076832 -0.035266589 0.58911085 0.67286861 0.38224077 -0.63335603 0.073570065
0.055804554 -0.011279406 0.59802097 0.54322594 0.62943631 -0.55562174 0.088068314
0.060916573 -0.0091290586 0.60692567 0.5836066 0.65109336 -0.4852635 0.07748799
0.070771083 -0.10133934 0.59950113 0.85434514 0.037135232 -0.5183776 0.035131957
0.078743741 -0.11816442 0.63555735 0.93865687 0.019005384 -0.3443284 0.0030672073
0.058691483 -0.012424686 0.58596432 0.51456922 0.57808316 -0.63327599 0.084601447
0.048276484 -0.1660767 0.56678849 0.42371032 0.004646387 -0.90578586 0.071462229
0.095358141 -0.28583279 0.67652351 0.86335158 -0.39601913 -0.31271869 0.079454727
0.094684646 -0.0067166388 0.70918441 0.67779523 0.71422696 -0.17456637 0.063657261
0.11570367 -0.23263109 0.77197802 0.83472395 0.0027937533 0.5506615 0.066240929
0.07272172 -0.140855 0.60131097 0.87118673 0.049005143 -0.48849973 0.029016051
0.11344378 -0.2001415 0.72691429 0.99471617 -0.047711197 -0.090903729 0.029054536
0.052673515 -0.16111706 0.5675447 0.50594449 0.0079919565 -0.86252898 0.066883847
0.075144947 -0.11355104 0.61377722 0.89888227 0.035533074 -0.43674719 0.021213679
0.086874619 -0.10089327 0.66110325 0.95128644 0.012415067 -0.30805829 0.00079260638
0.078933403 -0.010142695 0.66026032 0.68411976 0.66435349 -0.30102271 0.061362781
0.084148251 -0.066477537 0.63657463 0.93934029 0.096782945 -0.32904854 0.011797965
0.093935952 -0.015226881 0.69210172 0.81336582 0.49247444 -0.30968517 0.054346658
0.085120946 -0.23968838 0.64165801 0.93829244 -0.091715746 -0.33345971 0.011313937
0.068548061 -0.27734375 0.59136796 0.77333379 -0.11091448 -0.6242218 0.23062415
0.059065986 -0.26916629 0.57541943 0.42237136 -0.035212692 -0.90573865 0.17979747
0.034331724 -0.0031143182 0.58275825 0.26347518 0.68613142 -0.67808896 0.085474119
0.10183425 -0.0090745939 0.72519559 0.71118206 0.69896102 -0.075323097 0.083464853
-0.074164726 0.0013569398 0.81771559 -0.17328413 0.78191602 0.59881544 0.078786261
-0.042539675 -0.00086807006 0.81702733 0.058799855 0.77296352 0.63171983 0.086446121
0.10106505 -0.19977471 0.68748349 0.95308971 0.0094427038 -0.30254072 0.0006674747
0.11336067 -0.28804171 0.74466681 0.8633458 -0.4743506 0.17212088 0.16686282
0.10004771 -0.15401626 0.68403208 0.95256776 0.025221754 -0.30327958 0.00082852127
0.094206244 -0.15977035 0.67363739 0.95417678 0.028258175 -0.29790628 0.00073644111
0.051372763 -0.14065476 0.56800687 0.5564326 0.031431358 -0.83029813 0.067255512
0.10212121 -0.2137206 0.69119024 0.95682061 -0.0057047852 -0.29062292 0.00068672688
0.11785484 -0.22567385 0.75052214 0.99882925 0.038842946 0.028834363 0.037485041
0.071198866 -0.081411086 0.60096592 0.85400707 0.057899211 -0.51702952 0.036142498
0.0017926198 0.0013199523 0.68345505 0.033778783 0.99942845 0.0013174092 0.0090862988
0.10156982 -0.19131838 0.68924713 0.95232767 0.014389456 -0.30473763 0.0007180929
0.069734409 -0.21342738 0.59201801 0.74005371 -0.044594791 -0.6710676 0.054093011
0.096040174 -0.12905471 0.67920566 0.95100516 0.01318902 -0.30889335 0.00072040886
0.11374577 -0.19171889 0.73026425 0.99595708 -0.031961728 -0.083952241 0.031350695
0.072703376 -0.077124685 0.60487175 0.86092979 0.080285765 -0.50234866 0.034625355
0.071079321 -0.20760196 0.59441108 0.76313967 -0.074749731 -0.64189589 0.046074405
0.10050756 -0.23459852 0.68541962 0.95515901 -0.04415445 -0.29278249 0.0051056915
0.11211949 -0.14619029 0.72465229 0.98821181 0.019627875 -0.15182909 0.026915537
0.055853244 -0.13891855 0.5724144 0.57555902 0.035197712 -0.81700242 0.068139292
0.10137694 -0.17035945 0.68918186 0.95287275 0.02642343 -0.30221733 0.00079585752
0.09558446 -0.25123104 0.67005575 0.9429298 -0.11240122 -0.31344742 0.018840251
0.10320741 -0.087104894 0.69474453 0.95307547 0.027007993 -0.30152562 0.0011346624
0.064470112 -0.12393679 0.5863238 0.77188152 0.071027547 -0.63178635 0.053715535
0.10539258 -0.010140097 0.75481123 0.63577867 0.71139002 0.29951602 0.10407431
-0.01833152 0.00071173481 0.64292389 -0.037654757 0.97707707 -0.20952962 0.038645741
0.10320704 -0.017281573 0.71922922 0.82383198 0.54266715 -0.16374767 0.070766322
0.094639093 -0.0042452551 0.7143417 0.65517491 0.74230582 -0.14045587 0.06541907
0.11776027 -0.16271424 0.7727738 0.93157923 -0.0076599554 0.36345768 0.075407796
0.11395869 -0.13501814 0.77230966 0.91790473 -0.0067564477 0.39674321 0.080694862
0.1156569 -0.05339824 0.75485545 0.93323934 0.23314978 0.27332309 0.080761984
0.11145436 -0.19648908 0.72064382 0.99001336 -0.031631436 -0.13737907 0.021784307
0.12181829 -0.12525734 0.75476933 0.99963015 -0.0018806591 0.027130326 0.05874978
0.12023926 -0.20502849 0.77157557 0.96755892 -0.010569484 0.252424 0.054738786
0.078008652 -0.10298839 0.62455046 0.92140037 0.019611325 -0.38811961 0.0098847123
0.078211062 -0.15740131 0.61466277 0.91584629 0.042908348 -0.39922976 0.011604898
-0.067257181 0.0030849299 0.76918888 -0.13653561 0.97438937 0.17867149 0.033795044
0.11298826 -0.087151065 0.7251457 0.98352283 0.026297646 -0.17886086 0.023609789
0.10419425 -0.0087923491 0.74338174 0.64681518 0.73653984 0.19783638 0.09570884
0.10973753 -0.018882908 0.73822916 0.81237644 0.58293062 0.015374632 0.097980805
0.10558432 -0.022442043 0.71926922 0.8752864 0.43998903 -0.20070714 0.062719956
0.11091154 -0.017583387 0.74748033 0.78239816 0.58370101 0.21713193 0.11064314
0.11404385 -0.079368442 0.73253411 0.98857027 0.046092238 -0.14354251 0.026600964
0.10983536 -0.062181126 0.7251513 0.97491467 0.12439435 -0.18457364 0.025673173
0.11627385 -0.27686653 0.77518958 0.7450763 -0.24910788 0.61871368 0.10965559
0.070728637 -0.2198146 0.59739816 0.78483129 -0.047903705 -0.61785525 0.052869137
0.11620867 -0.14272813 0.73571503 0.99399936 0.005117083 -0.10926632 0.030866403
0.05486666 -0.18169498 0.56812263 0.45342773 -0.024886608 -0.89094555 0.061822761
0.10740971 -0.023213917 0.72422183 0.87320125 0.46165556 -0.15618505 0.069552228
0.10844965 -0.15429735 0.71910751 0.98697305 0.009413423 -0.16060959 0.024166388
0.12017825 -0.10135958 0.76818275 0.96024817 -0.0022487552 0.27913854 0.091366313
0.11254682 -0.07668788 0.77535242 0.76403373 0.085546359 0.6394797 0.061422188
0.046343546 -0.084964529 0.56661344 0.38711146 0.085886382 -0.91802406 0.0579657
0.051584359 -0.18663496 0.56913906 0.3936567 -0.020056199 -0.91903871 0.064965978
0.10017125 -0.11045145 0.68961591 0.95064545 0.0051882006 -0.31023607 0.00061752874
0.011411414 -0.00038127409 0.79252249 0.15833186 0.80752444 0.56818604 0.064968228
0.11465563 -0.20416912 0.73567951 0.99822909 -0.026979709 -0.053016253 0.03298774
0.093112849 -0.02570861 0.68274409 0.84558493 0.41688877 -0.3334516 0.056051094
0.11896678 -0.18149312 0.77687061 0.92814052 -0.015221568 0.37191868 0.062870264
0.11527384 -0.14830784 0.73609209 0.99556381 0.00075531588 -0.094085813 0.034808859
0.089125566 -0.24325857 0.65525991 0.94104356 -0.10578942 -0.3213186 0.01692836
0.090559758 -0.26350465 0.65811855 0.93196726 -0.18750386 -0.31028914 0.045646541
0.094724923 -0.25246787 0.66906178 0.9390949 -0.14117593 -0.31332114 0.030262744
0.053964827 -0.25994053 0.56977576 0.35387799 -0.001783027 -0.93528986 0.12339733
0.059616566 -0.014338221 0.59384149 0.57069582 0.58504194 -0.57622248 0.084568173
0.11236855 -0.018727895 0.74464267 0.80844074 0.55654705 0.19151761 0.108092
0.1141253 -0.16917364 0.77176207 0.92318422 -0.042922534 0.38195354 0.07568384
0.10586667 -0.20744602 0.77698541 0.8423925 -0.015487063 0.53864169 0.07220614
0.11038592 -0.13297886 0.77530539 0.88852191 -0.017832568 0.4584876 0.084399633
0.1123305 -0.23770677 0.7717458 0.8140378 -0.020258902 0.58045846 0.064738117
0.10322246 -0.12508632 0.69767624 0.95599031 0.012965118 -0.29311162 0.0018052798
0.084511153 -0.065817818 0.6371485 0.93975198 0.10968967 -0.32378152 0.013850532
0.057918359 -0.10464358 0.57880336 0.6606518 0.052334432 -0.74886602 0.068698958
-0.01245903 -0.0042748861 0.59760994 -0.12387428 0.78444505 -0.60770142 0.075239606
0.095405057 -0.086900398 0.67591298 0.95014304 0.024889983 -0.31081936 0.0011459537
0.093558468 -0.13380015 0.67720926 0.95216668 0.017768297 -0.30506214 0.00078838941
0.079248391 -0.16889732 0.61174202 0.90209681 0.013765194 -0.43131402 0.020146439
0.11157908 -0.25380194 0.72974813 0.99233121 -0.059500147 -0.10834444 0.039247841
0.090730213 -0.030874778 0.67393613 0.8709839 0.36275819 -0.33135107 0.050373062
0.096547551 -0.031152215 0.68696588 0.86995554 0.36400187 -0.33268595 0.052370746
0.10114461 -0.032631971 0.70052463 0.89052027 0.35346419 -0.28642043 0.04351151
0.089082584 -0.050866101 0.65534824 0.93390763 0.19690828 -0.29840192 0.025557628
0.080920868 -0.30291286 0.65943789 0.78963655 -0.5467189 -0.2785185 0.097180337
0.1213923 -0.1456314 0.76862019 0.96430022 0.0066177566 0.26472852 0.071428172
0.082256943 -0.12659012 0.64651567 0.94750369 0.017134108 -0.31928551 0.0013197855
0.11206793 -0.28708225 0.72901124 0.92989236 -0.34795693 -0.11927342 0.12336256
0.12010437 -0.24267775 0.77074891 0.88410074 -0.027900496 0.4664627 0.060782559
0.073679239 -0.029398192 0.61693662 0.78658777 0.45930901 -0.41269231 0.062005378
0.045187198 -0.23348719 0.5678584 0.29967025 0.033124931 -0.95346761 0.069791637
0.066849269 -0.13379343 0.58880091 0.79010618 0.051224951 -0.61082584 0.050939422
0.11875661 -0.14250429 0.75858265 0.99091065 0.013351386 0.13385746 0.065269753
0.063474365 -0.16304199 0.57867986 0.66789794 0.019753944 -0.74399066 0.059133913
0.12198392 -0.20219153 0.7673645 0.98064905 -0.023155766 0.19439958 0.053488646
0.050494745 -0.29138854 0.57019442 0.092994697 -0.53069925 -0.84244305 0.21876219
0.1057355 -0.012549418 0.75498974 0.6717757 0.66931224 0.31739333 0.10682941
0.10375354 -0.015882384 0.76770931 0.67825192 0.58065897 0.4503437 0.10164931
0.11492791 -0.18622103 0.73606229 0.99702275 -0.028553305 -0.071627207 0.033026572
0.11794599 -0.10702894 0.7362774 0.9974184 -0.0068396996 -0.071481995 0.051888525
0.10710976 -0.30197296 0.74432731 0.55799764 -0.81206864 0.17083097 0.13179325
0.09961281 -0.16192716 0.78350383 0.8277176 -0.0054202713 0.56111866 0.071741924
0.11536518 -0.063682213 0.74262708 0.99087983 0.13433892 -0.010496995 0.053516053
