# .PCD v0.7 - Point Cloud Data file format
VERSION 0.7
FIELDS x y z
SIZE 4 4 4
TYPE F F F
COUNT 1 1 1
WIDTH 1401
HEIGHT 1
VIEWPOINT 0 0 0 1 0 0 0
POINTS 1401
DATA ascii
-0.0059229862 0.043193512 0.28499049
-0.1446545 -0.15057071 0.4105505
0.003316507 0.018315749 0.28322649
-0.026061051 0.02111445 0.30570549
-0.05271979 0.05418263 0.32777849
0.056870282 0.0272731 0.3167083
-0.094513543 -0.2346724 0.35733211
-0.1010769 0.046544399 0.37846249
-0.1244373 -0.225719 0.3849763
-0.01969556 -0.1236993 0.30080789
-0.05856603 0.052804109 0.34891331
-0.080737911 0.01794526 0.35791701
-0.067790464 -0.05172563 0.34567699
-0.0062530581 0.055245232 0.51093978
-0.033647671 -0.0028801709 0.30970031
-0.063881643 -0.165778 0.33312541
-0.052082401 -0.0039312989 0.33216369
-0.1451325 -0.1163657 0.41244
-0.04844803 0.01538914 0.32970119
-0.092622086 0.035854839 0.36867851
-0.13760971 -0.08203382 0.40857419
0.035148259 -0.25101751 0.2691752
-0.01231314 0.04237267 0.29483989
-0.02531177 -0.22550321 0.30204511
-0.055536982 0.047103491 0.33087891
-0.091834821 -0.085628711 0.3626833
-0.041527111 0.018230669 0.31761149
-0.20902459 -0.2515592 0.34102371
-0.1224533 0.055338729 0.39768341
-0.1109215 -0.01424813 0.38127369
-0.1020806 -0.03992429 0.3742269
-0.063506402 -0.05883858 0.34533679
-0.079864956 -0.1532346 0.35328779
-0.074997783 -0.1461625 0.33794421
-0.1239532 -0.1104952 0.3926436
-0.1151193 -0.04909062 0.38544041
-0.1070223 -0.14768229 0.3751342
-0.1099204 -0.088046923 0.3768169
-0.14433751 -0.1415897 0.40546641
-0.037048358 -0.22507329 0.302811
-0.15415651 -0.1718999 0.41782051
-0.1502305 -0.24691971 0.40509951
0.0063401628 -0.092391662 0.2828013
0.073036157 0.053722888 0.32916629
0.032202739 -0.04152853 0.28671649
-0.02234141 -0.1106556 0.30275199
0.16169161 -0.25250831 0.42782661
0.157436 -0.25435659 0.3950676
0.1972374 -0.25459409 0.42128551
0.1528412 -0.085431099 0.42630699
0.1635527 -0.20918091 0.431299
0.15845381 -0.2559312 0.38358429
0.2005229 -0.2508153 0.41860321
0.2211625 -0.25614691 0.44975671
0.21862 -0.2604759 0.2312597
0.1483148 -0.1119095 0.4104301
0.1569026 -0.059156511 0.419018
0.1588556 -0.052042872 0.43280461
0.1411397 -0.04106098 0.4112767
0.1302758 -0.16655201 0.39203611
0.1082881 -0.1886785 0.361166
0.032285001 -0.1735024 0.2818484
0.1389761 -0.165231 0.40364721
0.13381711 -0.2210011 0.38980851
0.02999917 -0.1352668 0.2818802
0.019223001 -0.1902896 0.26860341
0.0067434912 -0.1391937 0.2742708
0.16602691 -0.22954389 0.42945439
0.1661627 -0.2139466 0.4363676
0.03297412 -0.1578328 0.28831679
0.1617526 -0.13382401 0.42522201
0.20665359 -0.254621 0.43475631
0.12822831 0.04840517 0.4172639
0.1473985 -0.008680582 0.4254317
0.1177491 -0.08014676 0.3837181
0.16002659 0.05340739 0.43394259
0.1135146 -0.091924518 0.37134939
0.1201384 -0.1943941 0.3785331
0.1507667 -0.1955616 0.41366741
0.1558062 -0.21165711 0.41840601
0.1249228 -0.2343958 0.3914465
0.1434575 -0.23669159 0.41139469
0.1170188 -0.1745342 0.3860347
0.13481741 -0.2482381 0.399156
0.15493651 -0.2202993 0.41638201
0.14833251 -0.22528049 0.40924349
0.1470983 -0.2083004 0.41193289
0.15321741 -0.25627989 0.40950271
0.1503527 -0.24890091 0.3978276
0.23201209 -0.25709 0.2144465
0.2212553 -0.25929081 0.22721221
0.042596281 -0.081751198 0.30256149
0.1051565 -0.1593693 0.36949801
0.069502711 -0.17186791 0.3237873
0.089712352 -0.2015623 0.34716669
0.085048087 -0.23013709 0.3467609
0.060654309 -0.1208058 0.31957221
0.050619129 -0.22569621 0.30226591
0.04806149 -0.1652265 0.3019653
0.089756891 -0.2350034 0.34861901
0.065840334 -0.1799795 0.32337269
0.074062869 -0.17900831 0.33443049
0.04171985 -0.1969323 0.2908341
0.077773839 -0.2197417 0.3308067
0.1190481 -0.1282417 0.38297671
0.1647568 -0.25530419 0.43541589
0.1231772 -0.26308289 0.3742623
0.091692388 -0.119589 0.36105469
0.058710869 -0.2456667 0.31190401
0.063071281 -0.2115446 0.31439701
0.063631557 -0.25148141 0.31675759
0.077453323 -0.1701933 0.33587289
0.098258726 -0.2410927 0.355551
0.14354371 -0.1447418 0.40947679
0.1503789 -0.19159549 0.40326571
0.16157331 -0.1783457 0.43676859
0.1218295 -0.1741299 0.38391691
0.1319786 -0.2067093 0.38901359
0.074711293 -0.1911006 0.32421449
0.1132407 -0.25427759 0.3578752
0.25699461 -0.26037931 0.2134046
0.21376839 -0.26060209 0.1815958
0.16744711 -0.25405321 0.40286049
0.1784112 -0.25818989 0.40727869
0.1937414 -0.2564429 0.43933961
-0.0067051649 0.04916108 0.4743422
0.019013319 0.045376331 0.28877819
0.1202414 0.055430349 0.42533079
0.071144827 0.055407882 0.3935363
0.063476823 0.05325523 0.388652
0.090735547 0.047262821 0.46152291
0.1403567 0.04059935 0.41447639
0.098317496 0.042169541 0.45305899
-0.055280458 0.059524361 0.48059931
0.0057338481 0.04418942 0.32178929
0.03978233 0.055530641 0.35615939
-0.02577877 0.046038721 0.43783131
-0.0064752852 0.054711372 0.49926749
-0.023843169 0.049857441 0.42443079
0.050042059 0.045564231 0.35402009
-0.1072629 -0.14831761 0.37612441
0.1659506 -0.2566441 0.24135751
0.02309477 0.05611828 0.3639057
-0.040318791 0.062228501 0.51804888
-0.023654509 0.05625039 0.421985
0.029406849 0.055410769 0.36815569
0.055941399 0.044885069 0.3225916
0.034447972 0.052107751 0.42268831
-0.050360121 -0.02221304 0.3321774
0.080120519 0.05653378 0.36275819
0.102789 0.054466609 0.41231349
0.059668269 0.053699911 0.40775579
0.001933992 0.051323261 0.29535151
0.083149277 0.058046188 0.38872871
-0.01509063 0.056409419 0.50076061
0.118218 -0.2575981 0.29402009
0.033155341 0.054784179 0.33392271
0.082331717 0.05374831 0.47366741
0.14226221 0.04391766 0.43147439
0.098861828 0.057046439 0.424867
0.13535561 0.0049147611 0.40252721
-0.1060454 -0.1690134 0.3730025
0.1676131 -0.25409311 0.2851299
0.1620862 0.051703598 0.43414229
0.1593228 0.02459332 0.4261232
0.1639193 -0.0086188018 0.43040639
-0.05391765 0.053884089 0.37783179
-0.024020091 0.055889491 0.3931171
0.0090314299 0.05316082 0.27345431
0.094421491 0.05770269 0.41557601
0.06003442 0.02994323 0.31683481
-0.1238956 -0.1142982 0.39706159
0.03613703 0.054669321 0.37044269
0.2125525 -0.2392671 0.4772352
-0.049904581 0.060845789 0.4932822
0.2180818 -0.2548213 0.4870683
-0.048008431 0.057983071 0.51701558
-0.00642693 0.05552033 0.4597429
0.1448811 -0.2578589 0.30957019
0.07376878 0.05346537 0.3816112
-0.03000362 0.05445227 0.38452381
0.018682601 -0.192238 0.2699115
0.031931881 0.042836551 0.29008359
0.034751181 0.04496548 0.35886139
0.06133819 0.04715747 0.3899186
-0.046506319 0.050736431 0.50296742
0.01022566 0.051132441 0.49406189
0.040702701 0.052302118 0.49860799
-0.01887816 0.038825661 0.3428866
-0.1556554 -0.23963781 0.43799531
0.058998048 0.043452859 0.40081161
0.029966529 0.046031419 0.5258584
0.033070169 0.04890281 0.55610353
-0.0168148 0.042036831 0.50161028
-0.068320177 0.051647451 0.5088504
-0.078573078 -0.2616103 0.52676702
-0.044890199 -0.26069441 0.56570321
-0.0089200139 -0.2354539 0.59612149
-0.053686801 -0.2610527 0.55526292
-0.1395378 -0.26059139 0.45887941
-0.02842951 -0.26082551 0.58478492
0.007780313 -0.25706199 0.63429618
-0.01493928 -0.26208481 0.60285509
-0.063358188 -0.26236829 0.54287517
-0.1165352 -0.2600953 0.4855651
-0.1294062 -0.2619414 0.4706091
-0.020421799 0.036675781 0.57487702
-0.1558764 -0.2563242 0.59486443
0.074926078 -0.2612347 0.62748528
-0.041156892 0.047385689 0.4841567
0.035090212 0.045352429 0.49478841
-0.033147659 0.04347983 0.55131948
-0.057782829 0.044117931 0.52404058
-0.03533012 0.021904949 0.55253959
-0.025196251 -0.06116879 0.570117
0.001433372 -0.074101597 0.59079462
-0.1332956 -0.17019591 0.45054111
-0.050294548 -0.1258488 0.543033
0.041550729 -0.2607682 0.64492983
-0.122677 -0.16737869 0.46357909
-0.1026117 -0.2405623 0.48794779
-0.058499869 -0.26758561 0.5854702
-0.0074999928 -0.2207747 0.59516293
0.12447 0.04256722 0.4040145
-0.071293183 0.048807561 0.41900301
-0.05767566 0.046541691 0.35186371
-0.028146271 0.022802981 0.56427401
-0.047907889 -0.1906911 0.55070591
-0.1058149 -0.25549921 0.4897683
-0.080671988 -0.243425 0.50973868
-0.1359337 -0.1947795 0.4329451
-0.0230795 -0.01251277 0.56083971
-0.063083731 -0.1443107 0.53683078
-0.0279327 -0.1733326 0.57106072
-0.036691371 -0.1910249 0.56420869
-0.041118462 -0.14969879 0.55531043
-0.054645061 -0.1519013 0.53877348
-0.079816312 -0.1222916 0.51051098
-0.070234329 -0.1404337 0.52638388
-0.14234149 -0.1903076 0.43419129
-0.039210591 0.0408304 0.37757239
0.04315519 0.044505239 0.36792311
-0.065554172 0.047597621 0.36392829
-0.1386607 0.030557631 0.42883569
0.033957992 0.0455941 0.54485333
-0.05633327 0.049908791 0.50670522
-0.021143449 -0.023147671 0.57246792
-0.03455792 0.01090994 0.55886912
0.003126591 -0.079928704 0.58738673
-0.02359182 -0.1413049 0.57160151
-0.01557851 -0.100834 0.57963669
-0.01918155 -0.13891891 0.57692248
-0.017101711 -0.09826228 0.57888699
-0.072493672 -0.1771072 0.52338982
-0.1047123 -0.24986491 0.48370069
-0.087355003 -0.2492052 0.51117343
-0.02356327 -0.1863558 0.57491809
-0.017236959 -0.1677108 0.58204311
-0.01227255 -0.12864751 0.58248442
-0.074759588 -0.2101721 0.52170038
-0.1154566 -0.13633449 0.4687646
0.000610888 -0.25485861 0.60396332
-0.1199273 -0.22355971 0.4746004
-0.019014981 -0.063746087 0.59666198
-0.0099099874 -0.2629182 0.58855951
0.001661122 -0.2004932 0.59136188
0.00059294701 0.02362752 0.57492417
-0.05522516 -0.1313232 0.53856093
-0.071406133 0.04654843 0.36662799
-0.04646273 -0.1345457 0.54893887
-0.0091930628 -0.085489661 0.58107579
-0.1376913 -0.2553421 0.40981591
-0.1411996 -0.17787249 0.43664041
0.069278419 0.043963969 0.4387024
0.01648635 0.04569516 0.50029701
-0.027485119 -0.043161869 0.56300318
-0.1202304 -0.2551443 0.47189769
-0.12600359 -0.24671561 0.46437901
-0.01192332 -0.23887791 0.59080458
-0.036354009 -0.2417855 0.56376219
0.03894905 -0.26218 0.64140332
-0.1277573 -0.20998409 0.46248579
-0.061687019 0.027639929 0.5178315
-0.02882755 -0.2098164 0.57483149
-0.1149724 -0.22135609 0.4753966
-0.021826919 -0.06002247 0.57364082
0.001106322 0.050455179 0.46301579
-0.038664151 -0.094100423 0.55547339
0.097982757 -0.26200691 0.61011428
-0.1574837 -0.2598685 0.42896491
-0.045716349 -0.2119157 0.55044693
-0.061313659 0.031273961 0.51976508
-0.040980458 0.045201302 0.54355347
-0.1387094 -0.2035757 0.45031539
-0.018631039 0.0087129474 0.57363069
-0.2639699 -0.26082069 0.2809476
-0.1026108 0.037128631 0.38553771
-0.040578689 0.045890272 0.34465951
0.001772881 0.048709899 0.3752301
0.028661611 0.047726508 0.53644621
-0.01067701 0.051809371 0.55651319
-0.043624729 -0.23006409 0.55556369
-0.044471528 -0.2304544 0.54695803
-0.061322808 -0.2001083 0.53495657
-0.089169927 -0.2470431 0.50155252
0.0067022098 0.051556531 0.56878239
-0.087904043 -0.25172329 0.51054043
-0.1426933 -0.1871957 0.42575401
-0.02832542 -0.1483448 0.56969613
-0.0277413 -0.0079563856 0.56423068
-0.016075971 -0.2149712 0.58556509
-0.1332356 -0.2326719 0.45383289
-0.061162651 -0.1345395 0.52723038
-0.1298997 -0.17959911 0.4568224
-0.021768751 -0.01452297 0.56852508
0.096212924 0.047950689 0.37376279
-0.2430461 -0.25882629 0.2605615
-0.1365522 -0.2506341 0.46269801
0.08894819 0.044251561 0.4358941
0.06951189 0.041942179 0.4514387
-0.0106477 0.04906955 0.56440902
-0.02437854 0.05020678 0.53596532
-0.04831678 -0.1253112 0.54664153
-0.064791888 -0.2389901 0.52825958
-0.070434779 -0.2521297 0.51615399
-0.033233881 -0.2370902 0.56626391
-0.031088689 0.033139199 0.5535239
-0.1211471 -0.25758711 0.58921748
-0.1164512 -0.26538029 0.4900381
-0.1159841 -0.1562213 0.46957579
-0.038111869 0.01403311 0.55266589
-0.13970789 0.039050162 0.42439711
-0.047356691 -0.0099930167 0.54088002
-0.038208101 0.037036601 0.55004328
0.096857548 0.048687819 0.44249481
-0.1113757 -0.179249 0.47784221
0.069924891 0.046187609 0.40429199
-0.0253821 0.0361729 0.3101376
-0.1178835 -0.18725041 0.47082111
0.1337097 0.045885861 0.42726639
0.08929503 0.04645434 0.4617036
-0.01899953 0.0532155 0.55240941
-0.01421344 0.05031449 0.46528581
-0.043470271 0.01440883 0.54313982
-0.043551549 -0.1980022 0.55603862
-0.053078081 -0.18839359 0.54323387
-0.027941899 -0.1146959 0.57014138
-0.03141791 -0.081136227 0.56264007
-0.053959992 -0.2256362 0.54281092
-0.042495988 -0.076004952 0.54768991
-0.068851471 -0.2439889 0.52968889
-0.025931951 -0.1142848 0.56882358
-0.052015301 -0.1124747 0.53751159
-0.0088708401 0.038332399 0.30478859
0.003229141 -0.1402308 0.58906788
0.00065106148 -0.023908051 0.59226513
-0.1052617 -0.21797881 0.47812819
-0.0022494199 -0.1696614 0.59044951
-0.0047128052 -0.002455533 0.58402348
-0.02358848 0.0468533 0.39093819
-0.1168362 -0.24139839 0.47594789
-0.0067291558 -0.035235699 0.58235788
0.068594277 0.04407284 0.33902639
-0.03334415 0.050381329 0.44273931
0.004664361 0.046733022 0.33953649
0.027963789 0.039726529 0.37275299
0.05291811 0.042833831 0.31686029
-0.1086194 0.047925469 0.44378281
0.029904541 0.043671072 0.31773981
-0.1089178 0.041223291 0.4154104
-0.1167528 0.049661249 0.4542934
0.03758705 0.043643121 0.33313349
-0.043532971 0.042751372 0.40505639
0.084273703 0.042196009 0.35212171
-0.1364588 -0.1155476 0.44135401
-0.1419774 -0.1210579 0.4298715
-0.1315642 -0.037334591 0.44568619
-0.134461 -0.0037200451 0.44772819
-0.1145279 -0.254329 0.47847179
-0.1406167 -0.20440499 0.42702851
0.088144779 0.046226919 0.47783911
0.0031387811 0.049391478 0.58892101
0.074064851 0.044564068 0.45965981
-0.038210839 0.049819648 0.51727009
0.030069649 0.052950408 0.536192
0.020712201 0.0495685 0.51686013
0.01352987 0.04721516 0.53263569
-0.01885647 -0.02039453 0.58029473
0.04114145 0.04412958 0.48100191
-0.016802089 0.035556018 0.57427847
-0.08236739 -0.2188279 0.51143211
-0.027178351 -0.1560133 0.56871247
0.00035053489 -0.17648619 0.5909093
-0.090623498 0.04907522 0.4386867
-0.05084217 0.044516921 0.39856699
0.0049490929 -0.2287249 0.59830981
-0.058510479 -0.098641276 0.53097582
-0.066812009 -0.1606286 0.52941358
-0.06591028 -0.1845787 0.53194499
0.02962333 0.046422631 0.42921349
0.1032007 -0.26479149 0.6113826
-0.038031518 -0.078707397 0.55677658
-0.03241843 7.4088573e-05 0.56176901
-0.0048746471 -0.048715051 0.58302498
-0.020795111 -0.040432781 0.5754019
-0.1653049 -0.2610012 0.31102759
-0.133561 0.04493824 0.44441521
-0.1337124 0.018445039 0.43577251
-0.04009274 -0.009855032 0.55063778
0.1271974 -0.26482689 0.62600929
-0.1283678 0.01365843 0.44166559
-0.01676297 0.05483434 0.49390289
0.00038635731 0.042108301 0.3513048
-0.090956159 0.052912269 0.44372129
-0.086685419 0.049686041 0.4884865
-0.094325043 0.053047869 0.4592016
-0.0046975021 0.044193301 0.30766979
-0.086983077 0.048453812 0.49012601
0.034285132 0.041043941 0.29536429
-0.047203749 0.046835929 0.44812381
-0.096303277 0.03357866 0.48229229
-0.1318084 -0.03105912 0.44653729
-0.1348293 -0.1715344 0.45011339
-0.1361711 -0.022897599 0.43759671
-0.1349477 -0.02063781 0.43865639
-0.092433572 -0.2232901 0.4994638
0.1315318 0.045495149 0.42485151
0.1149376 0.028881431 0.4872385
-0.070891708 -0.050624222 0.51746982
-0.044669781 -0.052294578 0.54571873
-0.01552838 -0.064446062 0.57829553
-0.054896381 -0.061647471 0.53383708
-0.031032341 -0.04576448 0.55964279
-0.02667534 -0.097911298 0.56357861
0.006135643 -0.1718228 0.58893323
-0.096973807 0.02718717 0.47646749
-0.1217818 -0.0065459609 0.45497531
-0.08414802 -0.1652946 0.51666772
-0.1021126 -0.24157301 0.49361041
-0.021063089 -0.1309237 0.56917012
-0.05029938 -0.057206418 0.53880209
0.01319265 0.04704595 0.54550737
-0.0098544173 0.050151851 0.58444518
-0.04123858 -0.17827471 0.55386502
-0.1071469 0.04628548 0.4685823
-0.1440707 -0.2012217 0.4426128
-0.02389437 -0.030672969 0.56937861
-0.1097521 -0.2300138 0.47939089
-0.1118996 0.045379732 0.46561059
-0.1233258 -0.21076991 0.4678351
-0.025397539 0.03621304 0.56441528
-0.052415822 0.031689439 0.53048807
-0.1555295 -0.25808641 0.56592381
-0.16470639 -0.26259479 0.15398499
0.00709337 -0.26158881 0.63528353
-0.1128559 0.006145447 0.4666748
0.1517293 -0.25893661 0.56414139
-0.1255547 -0.01306954 0.44781879
-0.099181317 0.023776289 0.47652161
-0.1662997 -0.2599867 0.4471083
-0.1351314 -0.2604883 0.57739389
-0.1223541 -0.25625429 0.63202238
0.002503335 -0.1234179 0.59244227
0.096098177 -0.26721019 0.58918768
0.079724133 -0.2601814 0.62825853
0.006878912 -0.1755479 0.59803581
0.044694658 -0.25080851 0.64885038
0.1645388 -0.26130959 0.54262358
-0.0074639921 -0.2541036 0.61839288
-0.12628511 -0.2545574 0.63285261
-0.1123998 0.047886789 0.40414321
0.1174284 0.04527986 0.40184131
0.006058991 0.051832352 0.59141803
-0.003028393 -0.076107651 0.58801597
0.05821991 0.046412561 0.51866251
0.04182303 0.04772529 0.50556338
0.067009687 0.04461294 0.53954482
0.16348819 -0.17892881 0.43493471
0.163655 -0.139461 0.45349801
0.030801769 0.050651342 0.50283569
-0.069233119 0.047375679 0.40370119
0.037191391 0.045161009 0.55898088
0.1077867 0.045383569 0.5079664
0.086200483 0.04638904 0.52361077
-0.081479311 0.04954055 0.4066366
0.08324033 0.047735661 0.37364259
0.097902462 0.04770264 0.44722939
-0.00222367 -0.26012009 0.59491873
0.001944661 -0.1484759 0.59245712
0.03983504 -0.25547829 0.646779
0.0213998 0.05172557 0.57023948
0.084563553 0.042502139 0.52411318
0.063993812 0.037818339 0.5379408
0.16589411 -0.2065302 0.45317149
0.0054359441 -0.1140794 0.59206313
0.16181581 -0.260721 0.45626551
0.161263 -0.2442347 0.44916949
0.03996646 0.042589489 0.56017601
0.01417011 0.03050372 0.5857929
0.02665991 0.0457238 0.57405382
0.1584764 -0.2440767 0.4492521
0.003282726 -0.026812639 0.59033138
0.091593653 0.048416968 0.45600069
0.093870103 0.048834682 0.49656191
0.020594779 0.04908815 0.58020622
0.1043261 0.0436402 0.50511289
0.1546988 0.048542921 0.45976371
0.1667988 -0.1116933 0.44575241
0.1663578 -0.084636994 0.45379999
0.1552207 0.042139228 0.46122101
0.13984659 0.043518391 0.47351301
-0.101433 0.048167441 0.41677579
-0.01293147 0.044128571 0.33927
0.066715062 0.048992541 0.4195168
-0.066815913 0.051631361 0.49971509
0.029443201 0.049589042 0.5508765
-0.022585271 0.05230191 0.50994521
0.1688828 -0.13731331 0.44914541
0.080963969 -0.04696697 0.52679968
0.1128866 -0.1848131 0.50568199
0.032490671 -0.26286769 0.64003211
-0.0071077938 -0.15908051 0.60442328
0.1345942 0.039474402 0.47673079
0.1161764 0.048437539 0.4599244
0.16998971 0.02728555 0.44968411
-0.00030237439 -0.080444038 0.59369701
0.00051176548 -0.02702048 0.59373122
0.0024721031 -0.188959 0.5911333
0.023582941 -0.22593109 0.58315039
0.025808871 0.0241307 0.574386
0.060036901 -0.055626512 0.54635543
0.12845691 -0.2679708 0.56942099
0.02234197 -0.2400665 0.58599281
0.13488761 -0.091539413 0.48350349
0.060073908 -0.048446149 0.55048561
0.130694 0.0105564 0.47947189
0.04907215 -0.25812349 0.64852351
0.064535864 -0.080917783 0.54584521
0.110581 -0.01895836 0.50268209
0.01769626 0.0079663694 0.58467221
-0.0057777758 -0.23420399 0.59404498
0.096498132 0.001780301 0.51040542
0.03971839 -0.1438192 0.56500828
0.041035119 -0.18331189 0.56502622
0.1467946 0.0081872642 0.46735451
0.019188579 -0.1075014 0.58515239
-0.02013034 0.054020349 0.56303179
-0.025372799 0.038554192 0.35012671
0.16554309 -0.087823093 0.44947761
0.104299 0.03496873 0.51096213
0.1526349 -0.1718187 0.45671451
0.077340133 -0.08043623 0.53115147
0.1136598 -0.038215909 0.49785641
0.1106374 -0.05609053 0.505427
0.092945687 -0.0414606 0.52421981
0.1603331 -0.2595036 0.478407
0.15632831 -0.26139331 0.50306231
0.018386479 -0.25422451 0.63102561
0.045017362 -0.2678211 0.6255632
0.16200849 -0.1009059 0.4564133
0.13680319 -0.097679593 0.48035359
0.077557147 -0.081110753 0.53127152
0.02006251 -0.077086903 0.58681881
0.038945731 -0.03290439 0.56442869
0.043224748 -0.2274694 0.55791122
0.026251551 -0.1452549 0.5750488
0.079138517 -0.190672 0.5346266
0.036261618 -0.03408641 0.56510752
0.089098103 -0.08389321 0.52017069
0.1215203 -0.17657959 0.4975709
0.034920279 -0.1057795 0.56412828
0.09480536 -0.041933801 0.51717228
0.093957357 -0.0087884963 0.51122028
0.1349465 -0.02877846 0.48026201
0.1486713 -0.0088235736 0.46800399
0.01001865 -0.092641138 0.58780378
0.04142845 -0.1446128 0.56366318
0.042200089 -0.2257181 0.56420207
0.099461377 -0.2304443 0.51488161
0.1014335 -0.19200879 0.51281399
0.037027899 -0.14168429 0.57371968
0.1424019 -0.2334988 0.47623861
0.082804017 -0.0074085589 0.52593309
0.1380862 -0.241577 0.4825511
0.13182411 -0.055363029 0.483441
0.065648377 -0.1127675 0.5416609
0.031154269 -0.2058644 0.57244211
0.1206276 -0.2334305 0.49391389
0.1419168 -0.070936047 0.47187251
0.1144076 -0.095717937 0.49860591
0.037199561 -0.090750307 0.56573689
-0.001469851 -0.1182515 0.59336698
-0.0011352299 -0.189878 0.59450281
0.01186937 -0.25001481 0.64059353
0.058401171 0.045980219 0.4344849
0.16559149 -0.029571559 0.45187721
0.16600519 -0.16059279 0.4419238
0.02901715 -0.021309201 0.57402939
0.1621038 -0.077154368 0.45552251
0.075259693 -0.1013427 0.53441018
0.1270487 0.0012121201 0.4809711
0.043131229 0.024851231 0.56110251
0.1226175 -0.1958309 0.4969056
0.14229859 -0.1041068 0.4728331
0.051265951 -0.094755441 0.55852902
0.13913269 0.01555502 0.47608039
0.096521787 0.03565377 0.5124234
0.02009028 0.016146541 0.57765782
0.1036986 -0.042517692 0.50337487
0.099518478 -0.070213556 0.51135081
0.1137022 -0.075596482 0.4991304
0.095565803 -0.1006915 0.51054311
0.03309983 -0.098974973 0.57475168
0.061602648 -0.14652359 0.54215598
0.1525728 -0.089929491 0.467958
0.081558883 -0.2257172 0.5353936
-0.04843694 0.052130431 0.49257389
-0.044875089 0.055383291 0.52922738
-0.03939509 0.048567861 0.43512881
-0.050359901 0.054187179 0.51658481
0.04452062 0.05120188 0.5222249
0.1030077 0.04665181 0.43096709
0.038883749 0.05264071 0.43490779
0.038139518 0.048351619 0.45540351
0.16975001 -0.1427388 0.43476501
0.097182393 0.053602871 0.51381838
0.16823851 -0.14876489 0.4525077
0.1711449 -0.2647391 0.46865919
0.1319328 0.043888181 0.4803392
0.14167149 -0.15916321 0.478477
0.15853789 -0.1101941 0.4608824
0.1618831 -0.25808501 0.54504418
0.1463058 -0.067653663 0.47002089
0.075124033 -0.061199039 0.5319159
0.16210251 -0.1180421 0.45779541
0.055669129 -0.26001409 0.63439441
0.1266617 0.01506948 0.48581329
0.171068 -0.25923049 0.2589232
0.099109173 -0.06070802 0.51066488
-0.1070444 0.04951486 0.40991241
-0.0038694739 -0.0062709749 0.60425729
0.00049602991 -0.14803129 0.59414798
-0.01032454 -0.2218738 0.59238112
-0.001072466 -0.052777231 0.59191531
-0.00044333929 -0.01158297 0.59253281
-0.01320344 -0.2349553 0.5866152
-0.0102005 -0.2313178 0.60148919
0.070666187 0.05111447 0.44896391
0.1038658 0.049364511 0.43501219
0.13567699 0.04447725 0.42416731
0.1663072 -0.25869769 0.4887664
0.033362571 0.02929616 0.55657321
0.16355871 -0.25896209 0.5490272
0.033903539 0.03503808 0.57377958
0.08985275 -0.0049378872 0.51356471
0.1540142 -0.085255124 0.46226451
0.1139824 -0.2560015 0.58674461
0.15982559 -0.16322251 0.45792201
0.01002496 -9.137392e-05 0.58858031
0.088523813 -0.18293279 0.5357728
0.02413285 -0.1917094 0.58518791
0.1520879 -0.2221842 0.46067521
0.044019278 0.04849783 0.48119619
-0.0078071952 -0.2329372 0.60765511
0.1132632 0.04827166 0.4757053
0.0809412 0.03841335 0.3943159
0.1632755 -0.03897718 0.4467226
0.01106793 0.052944481 0.55637592
0.15252259 -0.25021631 0.45902479
0.1273668 -0.1337181 0.49048221
0.024736051 -0.173287 0.58772439
0.02330989 -0.2503618 0.64842403
0.17123391 -0.2578176 0.53250521
0.073814511 -0.13759039 0.53954852
0.065808237 -0.1609492 0.55042428
0.15090971 -0.025096919 0.4650766
0.042739332 0.0058705811 0.56004912
0.12754899 -0.2507548 0.62722957
0.1576529 -0.26136181 0.40679789
0.21610039 -0.26454341 0.4632313
-0.008017242 0.065551907 0.49131289
0.035151299 0.049082492 0.53802729
0.003584146 0.04341599 0.46971011
-0.01115954 -0.19917519 0.60396522
0.067731857 -0.2642372 0.62739348
0.039305091 0.02003267 0.56308651
0.039669748 -0.1015707 0.5609014
0.090145469 0.05053797 0.4841432
0.1701031 -0.2123044 0.43570751
0.1138399 -0.26450869 0.3047246
0.1836357 -0.25551629 0.43466499
0.1533265 -0.1034683 0.4633075
0.092742562 -0.09299311 0.52465123
0.099487007 -0.17842659 0.52054828
0.1101615 -0.03100732 0.50612962
0.093810558 -0.18444911 0.52237028
0.06450361 -0.15342291 0.54478449
-0.07679522 -0.2519654 0.64098728
-0.0079187751 0.052055389 0.49941981
-0.1186568 0.05055001 0.4324657
0.0026661749 -0.0002737343 0.60267508
-0.0030405519 -0.1575208 0.60264862
0.096729703 -0.25483111 0.61340147
0.057160851 0.05546898 0.4516871
-0.039181169 0.048183318 0.3725957
0.1673838 -0.0036715569 0.43383119
0.076238044 -0.1590154 0.54233462
0.20780361 -0.26287061 0.4777391
0.2167358 -0.2601822 0.50548643
0.065828383 -0.039699789 0.54531562
0.053957939 -0.1105767 0.55326837
0.14336389 0.03456134 0.46707141
0.1877674 -0.26225889 0.53046799
0.25739369 -0.25698251 0.50625008
0.1334462 -0.2519711 0.63179612
0.22128341 -0.25727609 0.47652441
0.029884281 -0.211437 0.57666141
0.131947 -0.059603661 0.48951191
0.081728578 0.03249833 0.53124827
0.2158142 -0.26212451 0.47938681
0.0096888542 -0.01558554 0.58711839
0.1225539 0.007006228 0.4897086
0.089078717 -0.03248274 0.51240063
0.029646991 0.057145212 0.56524777
0.038706481 -0.25020421 0.62027907
0.073088773 -0.1052584 0.53705919
0.1174926 -0.26232791 0.30643219
0.003762007 0.02059925 0.59380352
0.00099152327 -0.25756109 0.59272897
0.1171208 -0.2548607 0.34615201
0.1178245 0.01091605 0.4955526
0.02320707 -0.09673366 0.57879972
0.116509 -0.1259474 0.4989211
0.1180485 -0.060941219 0.49500379
0.035086811 -0.1683189 0.57604313
0.1262861 -0.1034856 0.49333999
0.1605794 -0.25597399 0.39705181
0.1815913 -0.256194 0.42091939
0.037554622 -0.2361425 0.57181841
0.034908772 -0.237912 0.57197487
0.22192121 -0.2553505 0.46210781
-0.022044061 0.046839681 0.34606031
0.04402655 -0.2376034 0.54015589
-0.05708313 0.0504013 0.4227998
0.03723079 0.0132139 0.5657742
0.097921908 -0.25033671 0.6129365
0.0574007 0.041575551 0.38709041
0.1237325 0.056941599 0.4110119
0.1701355 0.031417999 0.44348529
0.01328993 0.05430064 0.42075819
0.0090561509 0.042352378 0.40118191
0.1716605 -0.022136901 0.44818071
0.1590822 -0.071335018 0.44034699
0.1486434 -0.050588399 0.4628776
0.091874361 -0.1145921 0.51460677
-0.1267114 -0.25642321 0.63801241
0.064479649 0.04794905 0.50327092
0.0063778758 -0.2469797 0.60990018
0.1324026 -0.054530531 0.4784103
0.0042322278 -0.25205031 0.62741661
0.13543069 -0.26480469 0.28131261
0.036372181 -0.095329463 0.57498759
0.079363286 -0.2021552 0.52993292
0.26109391 -0.26493961 0.48507971
0.086457789 -0.061567839 0.52470863
-0.1230978 -0.254253 0.58280188
0.1469975 -0.24918699 0.6478821
0.20448411 -0.262615 0.46066689
0.074032009 -0.26302069 0.29743081
0.2044704 -0.26108149 0.44733059
0.024849679 0.05057409 0.51388168
0.1023727 0.052608669 0.41579649
0.091877848 0.044497281 0.4172971
0.1359777 0.047802448 0.41279599
-0.04046211 0.05295923 0.53302979
0.022311959 0.050045609 0.57611698
-0.068043269 0.055688169 0.50028813
0.063920721 0.055287749 0.52150369
0.072567403 0.05214262 0.51782441
0.1335936 0.050574418 0.42131361
0.083733723 0.044685479 0.51427311
0.04010874 0.04938009 0.42479551
0.047093131 0.05320606 0.4223761
0.1018687 0.04320642 0.496447
0.1024398 0.045293242 0.49921399
-0.090946093 0.04781526 0.39648151
0.081999287 0.043422941 0.51490682
-0.051010791 0.054169029 0.48887661
0.096587367 0.046824541 0.42279649
0.039431442 0.044396281 0.5573163
0.077420622 -0.084294707 0.52106059
-0.00077602267 -0.02365911 0.58968258
0.01910197 0.047992829 0.57792997
0.0267823 0.047070291 0.56623292
0.0046656709 -0.1135938 0.59189242
-0.00131014 -0.1183162 0.58847558
0.00277862 -0.1530091 0.58484268
-0.00081448263 -0.1911644 0.58510143
0.0003179014 -0.2348351 0.59131408
0.13530231 -0.09267202 0.4731096
0.041979238 -0.1491304 0.56104589
0.044101179 -0.094935663 0.55728161
0.1291447 0.01337948 0.4705385
0.1070165 -0.020819839 0.49299881
0.016094221 0.007480294 0.5800454
0.066525817 0.046441969 0.53158861
-0.071749307 0.048808631 0.4017714
0.001627803 -0.076270282 0.58839148
0.09603934 0.003418237 0.50252187
0.019264311 -0.083035201 0.57756031
0.048406761 -0.1479636 0.56258911
0.16432931 0.028977901 0.4333967
0.144996 -0.16041701 0.4697372
0.1210324 -0.1801486 0.48410651
0.1126913 -0.045646518 0.4867394
0.0221885 0.018496539 0.57468718
0.000232771 -0.1845737 0.59072357
-0.019293871 -0.25012279 0.59367651
0.02692434 0.027111741 0.56996453
0.061436459 -0.046695501 0.54348743
0.1627377 -0.1372315 0.43649611
0.042794641 -0.1832028 0.56014317
0.1615081 -0.026294259 0.4371725
0.02783991 -0.2428847 0.57791549
0.1587424 -0.1486236 0.43932891
0.1608441 -0.18546981 0.43493059
0.02637152 -0.23037151 0.57490629
0.061236721 -0.054213759 0.53993678
0.002027631 0.056804541 0.5829035
0.078089707 -0.0060827732 0.51743352
0.0011808689 -0.02389491 0.58810651
0.1660413 -0.0034711659 0.43393961
0.1625015 -0.092906117 0.43664691
0.1612401 -0.2158576 0.4375402
0.163105 -0.1552873 0.43631101
0.1515881 0.042664919 0.45034471
0.1097017 -0.02307203 0.48908219
0.04475772 -0.2554363 0.64540219
0.16398349 -0.2627652 0.44823501
0.020265041 -0.1095922 0.57886791
0.1617907 -0.248432 0.43548241
0.044790301 -0.03038126 0.55943418
0.136352 0.041763868 0.456936
0.06416437 -0.07986331 0.53538108
0.021837611 0.054740909 0.5687179
0.1535213 -0.26303509 0.52795529
0.15793321 -0.26245719 0.53005952
0.16766579 -0.2622759 0.53221607
-0.0063974038 0.045816511 0.39897931
0.094462194 0.025299249 0.49788281
0.1129738 -0.1883848 0.49720809
0.1212536 -0.1335205 0.48171809
0.1544342 -0.027280031 0.43819639
0.1533985 -0.17261709 0.44899711
0.17584909 -0.25987431 0.52202678
0.080873281 -0.25596601 0.62499619
0.040147599 -0.1089604 0.56138343
0.095458239 0.036695391 0.50384998
0.041521549 -0.027049061 0.56387627
0.15823101 -0.110722 0.44978169
0.15776131 -0.1048379 0.44291219
0.055706561 -0.2519137 0.64276111
0.075152554 -0.06092805 0.52434599
0.075063847 -0.053701311 0.52357268
0.033506069 -0.1477045 0.5659796
0.001490206 -0.26366049 0.59307069
0.039104249 -0.089574337 0.56165707
0.1070524 -0.1886359 0.50529802
0.1605553 -0.1198509 0.44474539
0.1161988 -0.17698459 0.51870269
0.050162081 -0.22599231 0.55602282
0.063664198 -0.14918619 0.53584093
0.14889289 -0.04880527 0.45384279
0.079260997 -0.1966223 0.52451521
0.068194747 -0.1126736 0.53690702
0.02816424 -0.098598808 0.57026953
0.1139581 -0.09747237 0.48765641
0.04200539 0.00053754449 0.56461269
0.03085172 0.05146965 0.4940106
-0.052398801 0.054484218 0.52663082
0.034983519 0.050606791 0.53420132
-0.067505971 0.0538975 0.48232591
0.063379318 0.041705281 0.53254461
-0.0020090339 -0.083878189 0.5883683
0.077411622 -0.083389193 0.52457827
0.093650728 -0.041741312 0.50181389
0.1579303 -0.24887601 0.43828019
-8.2790852e-05 -0.1975114 0.57734919
0.1470031 -0.2692838 0.44129699
0.050840851 -0.2579385 0.62933218
0.032918599 -0.2104634 0.56748718
0.092872292 -0.2127942 0.5145905
0.04813746 -0.098660409 0.5499506
0.047312859 -0.22404981 0.5593099
0.14593311 0.01014578 0.45803589
0.02181953 0.033764299 0.57467812
0.1342932 -0.02824858 0.4705393
0.1383083 -0.096561998 0.47179919
0.093102902 -0.1139495 0.50706059
0.14779019 -0.008112222 0.45829391
0.01061687 0.001122534 0.58526009
0.03265005 -0.1751624 0.57040381
0.042067919 0.005866766 0.55548608
0.069570087 -0.1447444 0.52766848
0.027093381 0.049301948 0.54435498
0.041760121 0.052222971 0.5012933
0.0087533593 0.053114299 0.5742054
-0.0071699019 0.058194041 0.4652631
-0.00051444769 -0.1531435 0.5890066
0.028391119 -0.042370681 0.57158369
0.03723323 0.0002822578 0.55969012
0.02320236 -0.1837942 0.57608908
0.076691449 0.04910839 0.3644785
0.102163 0.043805301 0.48815891
0.087368757 0.04934901 0.35542849
0.1071672 0.04734778 0.46117711
0.03378135 0.05355531 0.4516702
0.1626236 -0.09068495 0.43435109
0.1649296 -0.064170718 0.43492311
0.1681881 -0.242404 0.43006
0.086598463 -0.041870769 0.50560212
0.03673831 -0.25772059 0.61532402
0.075200319 -0.040234089 0.51976871
0.1535046 -0.084686309 0.4410671
0.0048613548 -0.26109201 0.62114477
0.1099333 -0.057007551 0.49682271
0.1327734 -0.053204421 0.476033
0.093546361 -0.006588161 0.50290632
0.032409638 -0.1014763 0.56600928
0.1403493 -0.24750011 0.46688819
0.1439192 -0.068386696 0.46384129
0.145914 -0.23321269 0.4690946
0.1214654 -0.202149 0.4848766
0.1221104 -0.23769329 0.4830147
0.1094204 -0.039984461 0.49766359
0.1123703 -0.07816866 0.48887941
0.151921 -0.2263128 0.4479062
0.1469001 -0.1193223 0.455854
0.083026953 -0.19863661 0.52019888
0.098718204 -0.098761953 0.50471997
0.1003733 -0.070240557 0.5033682
0.1354976 -0.1101233 0.4720076
0.01079455 -0.01419377 0.58349937
0.087105602 -0.1081335 0.51875812
0.03564379 0.05157432 0.50778019
0.02837321 0.05163458 0.55403018
-0.00027281049 0.045809388 0.59045511
0.078443877 0.047849979 0.48954111
0.162653 -0.11688 0.43513221
0.16913369 -0.17147259 0.42983189
0.1701137 -0.12726609 0.43483749
0.099268049 -0.08647722 0.50737453
0.093737103 -0.08497861 0.51646239
0.1609475 -0.26347661 0.4920131
0.027282771 -0.055003729 0.56960088
0.14430539 -0.08460483 0.4632189
-0.0025979879 0.019266371 0.58623922
0.082874797 -0.054759681 0.51167327
0.1152691 0.01169544 0.48508331
0.1440914 -0.080305427 0.4635191
0.1146517 -0.1298748 0.48749161
0.1499047 -0.1120552 0.45306969
0.095169932 -0.1879698 0.50712401
0.1516846 -0.1520739 0.4487212
0.1295705 -0.1011748 0.4759537
0.092011057 -0.2444457 0.51571631
0.00088956952 0.049212251 0.33092839
0.1523685 -0.230526 0.44481531
0.0075650811 0.05197743 0.58455658
0.038358688 0.048237588 0.55797303
0.099918753 -0.25517359 0.6093412
-0.01173639 -0.26030669 0.5989998
0.01455656 -0.089782298 0.58606923
0.07547304 -0.18850321 0.53478777
-0.01231742 0.047749761 0.37993249
0.1182391 0.049471799 0.48743191
0.1338405 0.049443331 0.44023281
0.0051837862 0.05263501 0.28526059
0.00016233329 0.05653527 0.28250051
0.095422633 -0.1402659 0.50392479
0.002779841 0.05454665 0.36142561
0.079395257 -0.2351727 0.5240615
0.14465331 -0.1134275 0.466795
0.074917823 -0.1545087 0.5272156
-0.1497757 -0.25582471 0.59758228
0.037509229 -0.2438429 0.56514603
0.1688278 -0.2649962 0.2407164
0.08882302 -0.25053751 0.51622158
0.05589873 0.05138332 0.54920977
-0.068108022 -0.2414626 0.54396248
-0.04490656 -0.25809911 0.56711769
0.072428077 -0.26297051 0.62117928
0.03101119 -0.1446351 0.57098681
0.054054558 -0.11343 0.54771441
0.0069552362 -0.1722746 0.58139092
0.026561171 -0.095207207 0.5769037
0.020501999 0.047033641 0.29282621
-0.064026207 0.048423469 0.34627661
0.067977041 0.047654089 0.33655399
0.081527352 0.04900917 0.41342959
-0.040139679 0.04375815 0.3266775
-0.066499531 -0.25052911 0.59995019
0.1805608 -0.26136741 0.47785151
0.1789515 -0.25698999 0.62312227
0.090142816 -0.096563667 0.5143038
0.1851413 -0.25831151 0.4246932
0.04096866 -0.2395003 0.56817538
0.030416399 -0.1729617 0.57530499
-0.14607529 -0.2595216 0.55263132
0.052882612 -0.038227141 0.54558867
-0.1144163 -0.25610071 0.64126408
-0.1383525 -0.25813779 0.60026503
0.028327379 -0.1190042 0.57765841
-0.0074512661 -0.0023165049 0.57734561
-0.075505048 -0.2583701 0.64014357
-0.195195 -0.25915429 0.55786312
-0.1047856 0.057764892 0.42809311
0.1462267 -0.03214762 0.4609105
-0.082996547 0.053124461 0.37093699
0.043303311 -0.25559431 0.63044667
-0.1165998 -0.2495051 0.47867051
-0.007292449 -0.1076166 0.58574122
-0.0058423881 -0.075110637 0.57774621
0.02316642 0.0468117 0.37323561
-0.031522691 0.016879501 0.59970772
-0.0462237 0.055791501 0.536134
-0.1527206 -0.25181291 0.56350392
-0.03993452 0.053101089 0.51648259
-0.14384399 -0.2406918 0.41310331
-0.046382491 -0.1182164 0.54845601
0.047480881 -0.25927949 0.6411128
-0.092147171 0.0143936 0.49172899
0.099069953 -0.25604159 0.6081782
-0.020099459 -0.1354894 0.57615948
-0.02518451 -0.040415231 0.56458253
-0.03043497 0.037906829 0.55771118
-0.019245271 0.0404616 0.57605278
-0.01023418 -0.079386137 0.58197808
-0.01449126 -0.094627976 0.57835418
-0.1148754 -0.21789891 0.47813311
-0.017774699 -0.01692602 0.57502812
-0.08370024 -0.24777851 0.51286352
-0.070412926 0.05725491 0.51001352
-0.1036416 -0.2445811 0.4853701
-0.01734549 -0.1334272 0.58141869
0.001719534 -0.2465512 0.60503668
-0.041689631 -0.073116511 0.55007732
-0.03874594 -0.1471387 0.55666012
-0.032666922 0.016040411 0.55865967
-0.06698817 -0.087561131 0.52480328
-0.070772469 -0.1734291 0.52516192
-0.1379021 -0.073954701 0.44894439
-0.071329832 0.035754681 0.51379222
-0.026483361 0.02510703 0.56448781
-0.047627509 -0.1208172 0.54519522
-0.049204111 -0.1866826 0.5436613
-0.04757965 -0.1871617 0.55054468
-0.1310291 -0.25502631 0.4604952
-0.020766379 -0.1799752 0.57634592
-0.0082990527 -0.05164269 0.58372551
-0.099443443 -0.00077721482 0.4839901
-0.1393173 -0.01734915 0.4410432
-0.1366104 -0.2003471 0.45332891
-0.092901349 -0.2210716 0.50056648
-0.1406849 -0.1103114 0.44415209
-0.039941192 -0.22627521 0.55468351
-0.065134943 -0.23447859 0.52851409
-0.098917663 0.03432003 0.48026419
-0.025619389 -0.2059892 0.57956308
-0.0265736 -0.1446209 0.57029939
0.001391768 -0.1338882 0.58732712
-0.065730572 -0.15721001 0.5283128
-0.1262552 -0.035744991 0.45272669
-0.079241991 0.038879719 0.50621659
-0.075545013 0.02286431 0.50923282
-0.02684349 -0.0033663809 0.56411141
-0.088656433 -0.190155 0.50425768
-0.14020739 -0.1823719 0.4360275
-0.062126338 -0.2567113 0.52947831
-0.087795138 -0.243103 0.50300032
-0.1246395 -0.1634268 0.46564779
0.00051701069 -0.25422019 0.59754962
3.9160252e-05 -0.16363069 0.5893662
-0.043997291 0.01913348 0.54616803
-0.1410614 -0.061572701 0.4428235
-0.04051226 -0.1951586 0.55567843
-0.1321383 -0.1196059 0.4451718
-0.079614818 -0.2380583 0.51033968
-0.07209444 -0.2076838 0.52372289
-0.1046094 -0.25153321 0.49274841
-0.01374084 -0.163452 0.58314121
-0.1228054 -0.127873 0.46280649
-0.053012852 -0.2180544 0.54366529
-0.0083163977 -0.231103 0.59011269
-0.061929401 -0.14216121 0.5379675
-0.032349288 -0.2350298 0.56580341
-0.14582179 0.036250532 0.43566599
-0.13419309 -0.04243907 0.44785109
-0.13537601 -0.02821693 0.44818151
-0.066238582 -0.2412017 0.52890211
-0.035530031 0.02513632 0.55156428
0.044521689 0.04936716 0.32313931
-0.14365549 -0.12872989 0.43922949
-0.045860648 -0.1325532 0.55138588
-0.1273969 -0.20497391 0.4632597
-0.068952084 -0.13708811 0.52541351
-0.1029963 0.02950233 0.48089591
-0.1043285 -0.23680291 0.49009281
-0.1400539 -0.25744039 0.4461185
-0.1183779 -0.25705361 0.48820019
-0.077051461 -0.26033971 0.52689427
-0.059174061 0.046937849 0.52655989
-0.093968213 0.056116309 0.45157099
-0.1444781 0.024452239 0.4341273
-0.079555571 0.022226389 0.50514883
-0.053994179 0.051073492 0.45267889
-0.14055911 -0.081381559 0.44010699
-0.063628383 0.032265808 0.51924539
-0.1391104 -0.037865698 0.44110051
-0.0609501 -0.1976418 0.53455228
-0.1324704 -0.1008512 0.44875681
-0.01545918 0.057759639 0.54789418
-0.02312577 -0.1124175 0.56745911
-0.12842479 -0.056712899 0.4576132
-0.097548902 0.04785284 0.4821271
-0.02692109 0.055413809 0.42294961
-0.091318309 0.040749729 0.49379429
-0.01745731 -0.058459971 0.57597089
-0.1443228 -0.24390911 0.41678861
-0.13476311 -0.16811191 0.45132211
-0.1460595 -0.0020979049 0.4362624
-0.15151361 -0.1104061 0.44093281
0.1016737 0.049837831 0.43392691
0.03568637 0.053288762 0.53038472
-0.0104028 0.05420607 0.48477289
-0.14127541 -0.1867135 0.4386411
-0.1438116 -0.1718273 0.44003001
-0.03500944 -0.092908204 0.55368441
-0.1068811 0.053130452 0.4122192
0.02988434 0.05373526 0.49536341
-0.083515227 -0.082023293 0.5163362
-0.00038892031 -0.070153922 0.58736467
-0.116375 0.05143002 0.40439111
-0.064313233 0.026803371 0.52076888
-0.041169349 -0.04259121 0.55044317
-0.094438791 -0.01033089 0.48981929
-0.075694382 -0.01194254 0.51162529
-0.096209943 -0.01747066 0.48756269
-0.063152187 -0.0039578681 0.52148461
-0.064185083 -0.0053811972 0.52467889
-0.087293088 -0.1528445 0.50697482
-0.1167464 -0.1325216 0.4702796
-0.072588153 -0.075764813 0.51508129
-0.12519529 -0.1013152 0.46123061
-0.066135816 -0.039681882 0.52130121
-0.1460204 -0.03145555 0.43416041
-0.1032371 -0.1169441 0.488159
-0.1108923 -0.122219 0.46546111
-0.055535141 -0.024876621 0.53056371
-0.083413839 -0.029251579 0.50423121
-0.1113588 -0.1025838 0.47539029
-0.017964181 -0.2083232 0.58587539
-0.188738 -0.26399991 0.56360167
-0.089157999 -0.1157976 0.50077552
-0.1299521 -0.2397678 0.4679639
-0.026428759 0.05604279 0.53286648
-0.099199831 -0.19445799 0.49071461
-0.052274939 -0.036716491 0.54070258
-0.1442546 -0.104453 0.4358972
0.090460837 -0.25208321 0.59426057
-0.1163031 -0.03470847 0.46568939
-0.1102225 -0.1285421 0.48144391
-0.1064739 -0.14074139 0.48849681
-0.1586874 -0.258798 0.427858
-0.04512221 -0.027165201 0.5461669
-0.01837164 0.03432256 0.2951377
-0.082414508 -0.1488986 0.50721532
-0.084062643 -0.1015015 0.50889581
-0.1448755 -0.002876729 0.43377161
-0.081020176 -0.1151141 0.51252419
-0.103618 -0.090836354 0.49101439
0.003137887 -0.1638871 0.58805579
0.002061307 -0.1706776 0.58933991
-0.005780756 -0.24515671 0.59064919
-0.070859186 -0.023647521 0.51904678
0.071265519 -0.25088769 0.62754601
-0.1090876 -0.076264501 0.47948059
-0.047837619 -0.2061823 0.5515312
-0.1321824 -0.25823671 0.47434321
-0.2454733 -0.26095209 0.25709239
-0.1486757 -0.26184261 0.174261
-0.14829861 0.017111929 0.42671901
0.0002436042 -0.019870611 0.58880848
-0.05978388 0.05830181 0.5110994
-0.068864763 -0.05207324 0.51407409
-0.086140931 -0.081618823 0.50214869
-0.002859771 -0.081908487 0.59237832
-0.001805842 -0.067526489 0.59126401
-0.1920251 -0.25660691 0.2824665
-0.2194303 -0.25588119 0.63283962
-0.1275539 -0.005944252 0.4597857
-0.1880317 -0.26216069 0.1705045
-0.044117808 -0.064769119 0.54257578
-0.1746783 -0.2549094 0.4502205
-0.1663399 -0.2617701 0.26101109
-0.24413019 -0.26094201 0.3074902
-0.1412653 0.03890809 0.44146499
-0.1360793 -0.2295142 0.45551839
-0.042674419 0.051863492 0.43170479
-0.005947351 -0.02950084 0.2875917
-0.01419622 -0.060352329 0.2956841
-0.05023494 -0.1003752 0.32483271
-0.1073347 0.048702449 0.3858335
-0.02077651 -0.097158402 0.30222839
-0.13622791 -0.083155662 0.4092896
-0.020733161 -0.13871109 0.30126601
-0.1059486 -0.1712458 0.37629741
-0.04009765 -0.14874271 0.316618
-0.1162796 -0.1467153 0.38636559
-0.038753659 -0.2048765 0.31167299
-0.1067707 -0.14952791 0.37918431
-0.1178909 -0.15556841 0.3869029
-0.065959223 0.018732009 0.34282759
-0.1141158 -0.051105171 0.3889623
-0.033353571 0.02443504 0.31393859
-0.054374039 0.043945551 0.33353329
-0.1008548 -0.047517691 0.38056761
-0.00091907749 -0.065969847 0.28618929
-0.037766401 -0.022002339 0.31419569
-0.050908711 -0.21713009 0.327934
0.039954599 0.051553521 0.51972932
-0.085687742 -0.01067924 0.36244199
0.018542079 0.049283389 0.27757871
0.0077594519 0.034022361 0.28061309
-0.079814672 -0.1495942 0.36009559
-0.13491949 -0.1208566 0.4088403
-0.03854746 -0.01503652 0.31363949
-0.016853631 -0.175436 0.2953808
0.0045734639 -0.19172069 0.27394181
-0.004881978 0.017525019 0.28852001
-0.067401588 -0.1215068 0.344982
-0.040839002 0.05326125 0.4227775
0.01068985 -0.0295178 0.27564061
-0.035987411 0.050131019 0.36199659
0.01452184 -0.106059 0.27505931
-0.060304578 -0.21460991 0.33483711
0.100061 0.053698242 0.47533599
-0.01356894 -0.2083822 0.29841629
-0.07704249 -0.1614783 0.3609131
-0.028723881 -0.23149981 0.304483
-0.061677471 -0.016412791 0.3432045
0.062421501 0.00073727971 0.31141949
-0.1065184 -0.1147672 0.37483531
-0.09558244 0.05112901 0.4208937
-0.1198652 -0.1189941 0.3929953
-0.1160756 -0.07903412 0.38355279
-0.064828783 -0.1959762 0.33195919
-0.1435343 -0.1139514 0.41431049
0.1085623 0.043719798 0.41493091
0.042369992 -0.17924391 0.29329699
0.02054036 0.046196248 0.3011452
-0.0096582547 -0.07145831 0.28602809
-0.091643892 -0.086229593 0.36031279
-0.071139313 -0.2139793 0.33433589
-0.1088049 -0.089552909 0.37968969
0.095458351 0.03988957 0.34641719
0.07948947 0.01180145 0.3384794
0.02936193 -0.14005309 0.2825914
-0.0042867851 -0.085667431 0.27621099
0.0016317751 -0.1100333 0.27777979
-0.065158993 -0.2422436 0.32906371
0.072845727 -0.093247317 0.32835239
0.1187187 -0.2014904 0.37310129
-0.1290895 -0.20013709 0.3978537
-0.0619337 0.026431739 0.34952831
0.069438837 -0.037919428 0.32192799
0.1393695 -0.1577782 0.40274629
-0.02619141 -0.064529777 0.2987107
0.03133497 -0.0077718501 0.2888158
0.1193428 -0.1326898 0.3794792
0.083217427 -0.213057 0.33485231
-0.029022319 -0.082149148 0.31000549
0.084370747 0.05400252 0.39200091
0.080861807 0.049155679 0.34345981
0.01419456 -0.026082929 0.2743499
0.01255982 -0.0603314 0.29140261
-0.110381 -0.003013998 0.38934579
-0.06143111 -0.1360705 0.34255239
-0.01323368 -0.01526105 0.30623889
0.033954069 -0.1630763 0.29119691
-0.080598131 -0.048364699 0.36350799
-0.042427842 0.01270428 0.3231658
-0.082582809 0.0269784 0.36106509
-0.06360209 -0.063647479 0.3487874
-0.061329629 -0.1666927 0.33156049
-0.02302416 -0.1953197 0.30121699
-0.1048686 -0.2188112 0.36247939
-0.046598759 0.05482566 0.45253089
0.01214017 0.020385349 0.27186731
0.022829261 0.02146882 0.26464581
0.082946397 -0.1540489 0.3434321
-0.062374741 -0.14479721 0.33529001
-0.001756225 -0.045007139 0.28027731
0.082943343 -0.002804101 0.34811211
0.1178083 0.046767529 0.46043471
0.15074369 -0.1178314 0.41468421
-0.05184124 -0.1491783 0.3161433
-0.074218437 -0.066269189 0.35236159
-0.0065949708 -0.1621951 0.2837798
-0.095237583 0.051751319 0.44886059
0.064603917 0.038452629 0.3212361
0.1070651 -0.00027027729 0.37547249
0.01277734 -0.12547711 0.27261111
-0.1406461 -0.14517599 0.4090009
0.04995741 -0.01984543 0.30581039
0.092935517 0.052207351 0.3547968
0.13185699 -0.17017861 0.39215639
0.069922984 -0.1715048 0.32124871
0.036682349 -0.07226789 0.29082909
0.15107021 -0.19830979 0.41029689
0.083597481 -0.2222534 0.33807811
0.1654193 -0.2113723 0.42554009
0.02163499 -0.2194526 0.2772879
0.1367788 -0.2468251 0.3917723
0.041176699 -0.1933284 0.290499
0.15861011 -0.1596075 0.42287371
0.1657977 -0.2241797 0.4197306
0.064444497 0.055379599 0.37818241
0.063288301 0.052874889 0.34383109
0.070725098 -0.05343112 0.3192313
-0.01110801 0.0256685 0.29924259
-0.145009 -0.021671981 0.42815819
0.13893101 -0.01775795 0.39757121
0.1220822 0.0044032629 0.387319
0.1522277 0.036279559 0.41994449
0.051638521 0.02124715 0.30818221
0.060590949 -0.037680421 0.30126789
0.092090599 -0.041276962 0.34782359
0.1078726 -0.16198421 0.3669011
0.089007594 -0.23436411 0.34803891
0.1098795 -0.074102879 0.37461919
0.063987464 -0.1922314 0.31479651
0.1453103 -0.2223254 0.41023099
0.1057177 -0.23644949 0.3539958
-0.1178237 0.054431621 0.39757159
-0.1239409 -0.006493717 0.39031169
-0.011643 0.05259731 0.29456189
-0.06699983 -0.076280393 0.3351225
-0.080629423 -0.038446691 0.3790729
-0.038921371 -0.1135474 0.30451789
-0.1237086 -0.045006249 0.4041068
0.02112931 -0.2237574 0.2762928
0.01260608 -0.1797217 0.2847831
0.1312539 -0.2056945 0.24842539
-0.02510464 -0.04059577 0.30480301
-0.00995351 -0.0084024668 0.29303709
0.0048133358 0.05145153 0.57027823
0.01308817 -0.1825394 0.27845389
-0.02687363 -0.18746389 0.30102211
-0.0026483929 0.044660419 0.4660441
0.1032809 0.050279949 0.4281536
-0.040117681 0.047624622 0.31917199
-0.05044103 0.05013749 0.4444339
0.03095627 0.05492878 0.52894181
-0.046594139 0.059575591 0.53255773
-0.086775899 0.053841319 0.49101251
-0.050655659 0.05481803 0.42782879
-0.079411149 0.0587596 0.36916971
-0.12928329 0.05170548 0.4179621
-0.1417592 -0.18003809 0.44095081
-0.1318219 -0.058452401 0.4109067
-0.1583025 -0.2166494 0.44640899
0.060611609 0.054601278 0.52100712
-0.1233446 0.050352689 0.44458851
-0.08166492 0.057657242 0.48458299
-0.1175325 0.05217373 0.4081949
-0.01513463 0.046495531 0.31873661
-0.1246637 -0.04301703 0.40104571
-0.1355595 -0.078906178 0.405671
-0.1232985 0.054090802 0.4296689
-0.1058785 0.041817009 0.38885
-0.077782117 0.052880939 0.50375283
-0.13189 -0.13610139 0.4064503
-0.093953609 0.039109141 0.48498091
-0.1414225 -0.19913749 0.4171252
-0.1508766 -0.057675119 0.4241012
-0.059491038 0.049960021 0.34672579
0.003290415 -0.2137665 0.6043728
-0.13091341 -0.01042962 0.407343
-0.1076843 0.056848139 0.42339349
-0.064946063 -0.13822781 0.53846997
-0.0092505217 -0.230216 0.5844996
-0.0070372219 -0.02827445 0.2876904
-0.037841681 -0.106164 0.3301672
-0.079117768 0.047202799 0.35421941
-0.057282809 0.0065103471 0.330304
0.08624959 0.049817588 0.43023381
-0.1189287 0.059162881 0.44757631
-0.08049494 0.053299218 0.367176
-0.1050797 -0.090112239 0.47586599
-0.02903235 -0.23030379 0.30798471
