# .PCD v0.7 - Point Cloud Data file format
VERSION 0.7
FIELDS x y z normal_x normal_y normal_z curvature
SIZE 4 4 4 4 4 4 4
TYPE F F F F F F F
COUNT 1 1 1 1 1 1 1
WIDTH 587
HEIGHT 1
VIEWPOINT 0 0 0 1 0 0 0
POINTS 587
DATA ascii
-0.12679982 -0.098648898 0.45880952 -0.93356138 0.0001869633 0.35841763 0.046377078
0.15468818 -0.087893084 0.45494652 0.84508604 0.04613363 0.53263623 0.042139433
0.15489279 -0.079323426 0.45115337 0.85713154 0.032533105 0.51406926 0.053837106
0.15124589 -0.067392923 0.45666865 0.82341939 0.056078706 0.56465542 0.038072556
-0.1312031 -0.051414113 0.45200878 -0.95176411 0.046457432 0.30329326 0.063506871
-0.12878168 -0.056320868 0.45608133 -0.93212277 0.054164506 0.35806897 0.056054823
0.15243481 -0.048790395 0.45386589 0.84642875 0.070513852 0.52781266 0.050954342
-0.12679256 -0.035826299 0.45330659 -0.94672382 0.034354292 0.320209 0.065825425
-0.12906031 -0.013191226 0.45096084 -0.93700898 0.17819645 0.30043346 0.059982359
-0.12441245 -0.0056344531 0.45728004 -0.90855056 0.20265645 0.36533037 0.049784467
0.14891532 -0.007984818 0.45829913 0.8591882 0.18857837 0.47564045 0.083174102
0.17192709 -0.007296239 0.45012617 0.94949394 0.093685903 0.29947346 0.079603292
0.14637506 0.010876439 0.45845708 0.84486419 0.35159895 0.40321541 0.11221913
0.15028504 0.012783908 0.45430681 0.84745592 0.36931252 0.38134873 0.12209024
0.15388791 0.039542474 0.45935121 0.72530472 0.61941898 0.30042166 0.11102553
0.16584432 0.033118121 0.45215508 0.79043907 0.58279306 0.1885695 0.12997352
0.068290539 0.0483349 0.45018587 0.11921003 0.98973852 0.078782424 0.020454884
0.07350266 0.047534905 0.45466685 0.15396993 0.9816094 0.11285491 0.030542741
0.095406689 0.049091537 0.45405412 0.24070692 0.96183056 0.1301627 0.056257218
0.10395125 0.049784865 0.45467073 0.27817214 0.94932014 0.14632717 0.072794832
0.1184388 0.048059341 0.45976925 0.48990628 0.83842111 0.23883452 0.099889576
0.13740383 0.044461641 0.45754215 0.65940452 0.68733662 0.30455562 0.11140694
0.15253751 0.043182425 0.45328134 0.69479972 0.68406755 0.22204718 0.11531746
-0.11631124 0.050038837 0.45406625 -0.6161654 0.73812497 0.27479416 0.078877017
-0.094803147 0.05213869 0.45389441 -0.37013569 0.90959495 0.18877615 0.060833786
-0.051264804 0.050302409 0.45343301 -0.12230065 0.98960239 0.075695381 0.026086129
-0.046902966 0.050682582 0.45270717 -0.095296994 0.99324793 0.066159345 0.022076437
-0.0073747057 0.054243337 0.45951682 0.015846904 0.99987346 -0.0014142959 0.0043138298
0.057100717 0.054655567 0.45145258 0.061150242 0.99728525 0.041023407 0.0057036248
0.15653694 0.054470729 0.45382968 0.59776545 0.7821402 0.17587847 0.10315146
-0.13165158 -0.25304279 0.46099997 -0.8236084 -0.32229373 0.46668625 0.11918821
-0.12601197 -0.25250411 0.4659006 -0.76490235 -0.43773472 0.47255981 0.12326742
-0.11508904 -0.25087804 0.46684593 -0.59337825 -0.68434089 0.42376873 0.12908621
-0.10570817 -0.25191107 0.46699372 -0.36095834 -0.87642044 0.31874174 0.11849803
-0.01421344 -0.25258929 0.46528581 -0.017374484 -0.99981022 0.0088136466 0.0008771866
-0.0049091475 -0.25258929 0.4656536 -0.0018390333 -0.99999654 0.0018885204 0
0.0023452342 -0.25258929 0.46636295 -0.001085849 -0.99999833 0.0014965293 0
0.08929503 -0.25258929 0.4617036 0.088389434 -0.98414862 0.15374908 0.064940132
0.090735547 -0.25258929 0.46152291 0.076317869 -0.98564082 0.15062481 0.064763069
0.10716318 -0.25238287 0.46116701 0.12964222 -0.98205423 0.13697644 0.093703255
0.11606292 -0.2519111 0.46428049 0.11231205 -0.984083 0.13771963 0.11912989
0.12963349 -0.25089616 0.46516162 0.00055591617 -0.9997794 0.020996444 0.12864217
0.13437802 -0.25049177 0.46665698 -0.043323681 -0.99905455 -0.0036156266 0.13271198
0.15351762 -0.25238669 0.46305913 -0.070103168 -0.99263781 -0.098771535 0.11527029
0.1712997 -0.25637421 0.46817887 -0.12405975 -0.98538917 -0.11669329 0.091183335
0.20437911 -0.25821751 0.46118656 -0.19160764 -0.97594398 -0.10401872 0.10284205
0.21466523 -0.25522172 0.46357143 -0.24237211 -0.96405572 -0.10886867 0.11073533
0.22107151 -0.2533251 0.46206516 -0.27153793 -0.95438564 -0.12415776 0.11032476
-0.12579241 -0.24443227 0.46403646 -0.8203283 -0.28298354 0.49697259 0.095467106
0.14254121 -0.24780226 0.46682987 -0.119933 -0.99137729 -0.052793082 0.14355618
-0.12858407 -0.23594922 0.46252465 -0.86789292 -0.15723431 0.47121045 0.10187355
0.14485423 -0.23304124 0.46832749 -0.25705653 -0.96414751 -0.065890089 0.20116699
0.1457732 -0.22905967 0.4679082 -0.42668149 -0.89191842 -0.14974827 0.22019136
0.15107389 -0.22195274 0.46031657 0.73888755 0.56718022 0.36380184 0.24839699
-0.12317088 -0.21075624 0.46769816 -0.83444464 -0.052833289 0.54855341 0.059624765
-0.12771195 -0.20743316 0.46302581 -0.8610118 -0.038285349 0.50714201 0.061343864
-0.12282974 -0.1651904 0.46357912 -0.89817172 0.013313181 0.43944323 0.030954726
0.14792313 -0.16276494 0.46451056 0.87046206 -0.043166202 0.49033928 0.036252525
-0.11671856 -0.13635136 0.46958908 -0.86049789 0.052051447 0.50678807 0.026017569
-0.12352768 -0.12805781 0.4636468 -0.87936938 0.033138666 0.47498572 0.029213026
-0.11707549 -0.12387298 0.46975651 -0.86950958 0.019144278 0.493545 0.030114673
-0.11883844 -0.11101288 0.46804938 -0.87384707 -0.00099010323 0.48619998 0.031610738
0.14347565 -0.11197511 0.46475378 0.78556615 -0.0066620926 0.61874181 0.025730459
-0.12490746 -0.10138039 0.46098298 -0.91107631 -0.0063881339 0.41218826 0.039736409
0.15090251 -0.1027619 0.46050426 0.80179113 0.0088209845 0.59753937 0.025652036
0.14913544 -0.090735748 0.46252111 0.79350209 0.030315263 0.60781205 0.027514365
0.14579712 -0.082309484 0.46548855 0.78015351 0.028989729 0.62491602 0.026308026
0.14456946 -0.067942038 0.46665269 0.77747548 0.024094073 0.62845165 0.026056509
0.14626755 -0.050591115 0.46187687 0.8105765 0.078262977 0.58037978 0.041878305
-0.11695983 -0.035131756 0.46371019 -0.8762725 0.032377217 0.48072687 0.045168877
0.14688529 -0.032416347 0.4616591 0.81590927 0.044783004 0.57644314 0.043302245
0.1474669 -0.024647785 0.46148261 0.82069808 0.058592632 0.5683499 0.045306668
0.14648072 -0.0062686843 0.46369845 0.8311677 0.1807747 0.52581441 0.077608898
0.14283495 0.0064202151 0.46329212 0.83568847 0.29383746 0.46398756 0.099653445
0.13253543 0.015988957 0.46820822 0.76184529 0.39731547 0.51159763 0.097738318
-0.11074495 0.044906519 0.46486568 -0.65200984 0.67613441 0.3431116 0.0731069
-0.10423298 0.046614058 0.46579885 -0.54094249 0.78804141 0.2938911 0.070231602
-7.7117016e-05 0.04910836 0.46241394 0.030416109 0.99951178 -0.0071471506 0.0027418958
0.0028732319 0.047863133 0.46750617 0.026485007 0.99964565 -0.0026716557 0.0027480116
0.088854298 0.048591387 0.46145362 0.24131081 0.95139861 0.19133684 0.06106025
0.090422288 0.048779197 0.46134728 0.25392941 0.94832999 0.19023697 0.062366545
0.10658774 0.049725249 0.46073803 0.30135259 0.93149096 0.2037431 0.091985479
0.11290056 0.048882488 0.46353927 0.39620852 0.88125253 0.25770682 0.085307233
0.13413607 0.04384321 0.46753034 0.62662494 0.68987972 0.3625015 0.10220854
0.14294143 0.042765997 0.4675025 0.67093199 0.63554096 0.38201824 0.10097577
-0.010245193 0.055101939 0.46697289 -0.021382168 0.99954706 0.021179168 0.0082819033
-0.0094733164 0.055402 0.46431178 0.0020861081 0.99997813 0.0062774462 0.0051209992
-0.13116176 -0.25860661 0.47284079 -0.77963018 -0.32445455 0.53563607 0.097288728
-0.12184068 -0.25276944 0.47180954 -0.70514405 -0.48787457 0.51453882 0.11832058
-0.11537227 -0.25212899 0.47743785 -0.66501302 -0.49721152 0.5572598 0.11023393
-0.098130584 -0.25307396 0.47660947 -0.32259646 -0.89202213 0.31658828 0.11587285
-0.0075857788 -0.25258929 0.47557151 -0.0185856 -0.99973464 0.013612928 0.0010775258
0.085238248 -0.25258929 0.47575325 0.17786284 -0.94527292 0.27353963 0.10634326
0.100048 -0.25223485 0.47532895 0.077722773 -0.96692079 0.24294731 0.10439844
0.11612757 -0.25011742 0.47659966 0.060144186 -0.98596513 0.15574177 0.13524148
0.15964429 -0.25519097 0.47839093 -0.11916104 -0.98718059 -0.10618471 0.077953294
0.16127765 -0.25607863 0.47853863 -0.12194872 -0.98696959 -0.10497438 0.078820869
0.17907566 -0.2562173 0.47613063 -0.15521173 -0.97911566 -0.13130844 0.082227029
0.18123877 -0.25559926 0.47860339 -0.1498228 -0.97887379 -0.13913743 0.075906299
0.20612592 -0.2598694 0.47747436 -0.18851766 -0.97200471 -0.14024246 0.074359916
0.21429372 -0.25353608 0.47640482 -0.24061845 -0.96044332 -0.1401837 0.07967747
-0.11630713 -0.24139446 0.47543848 -0.76864827 -0.23407759 0.59530461 0.098061047
0.12860425 -0.2477673 0.47359556 -0.067607142 -0.99740857 0.024605773 0.14660285
0.13351953 -0.24399804 0.474051 -0.14429568 -0.98876214 -0.039092015 0.16544139
0.14040132 -0.24244259 0.47005463 -0.18127193 -0.98289734 -0.032457076 0.15888019
0.21043219 -0.24062914 0.47737074 -0.25258219 -0.95177907 -0.17412317 0.091365643
0.1404018 -0.23331971 0.47307488 -0.28505945 -0.95448434 -0.087754183 0.20304026
-0.11688556 -0.22247228 0.47433597 -0.78560495 -0.14489135 0.60152423 0.081854776
-0.11586889 -0.21794029 0.47431138 -0.7870568 -0.11879563 0.60533392 0.07313066
-0.11929641 -0.18642496 0.47176525 -0.81788826 -0.0039059608 0.57536393 0.021154135
-0.11251487 -0.17903467 0.47881341 -0.78275025 0.0024289368 0.62233126 0.0062335236
0.14534971 -0.16085044 0.4701212 0.85407972 -0.029582055 0.51930034 0.033136651
-0.11675587 -0.15613955 0.47002107 -0.83303475 0.034194488 0.55216295 0.011219518
0.14287353 -0.15867338 0.47581279 0.8222059 -0.01972265 0.56884837 0.022291768
-0.11658394 -0.13239002 0.47026211 -0.86077952 0.039960131 0.50740689 0.02580196
0.12039607 -0.13877636 0.47747707 0.76958072 0.0001584608 0.63854963 0.015454149
-0.11106694 -0.12795523 0.47769785 -0.81990397 0.015236114 0.57229835 0.013773239
-0.11562189 -0.117539 0.47151911 -0.86224258 0.017278738 0.50620079 0.029150257
-0.11294459 -0.10223253 0.47508395 -0.81803197 0.013809579 0.57500702 0.015905935
0.13486153 -0.10485116 0.47622061 0.75445151 0.010797647 0.65626705 0.013162218
0.14081666 -0.10360795 0.47058383 0.76604331 0.0053243898 0.64276695 0.015601157
-0.1145438 -0.098880075 0.4738628 -0.82842332 0.014310161 0.55991966 0.018148188
0.13627005 -0.095655769 0.47505662 0.74972105 0.015238581 0.66157848 0.013512536
0.14049579 -0.093949817 0.47103488 0.75893068 0.019122899 0.65089059 0.014959255
-0.12104248 -0.082265146 0.47198483 -0.84656256 0.018568046 0.53196532 0.020440347
-0.1173044 -0.074604459 0.4767293 -0.82058597 0.042610608 0.56993246 0.01580644
0.1429939 -0.071051188 0.47204688 0.76770073 0.020080984 0.64049393 0.022526328
0.13412277 -0.053153396 0.47822869 0.74162084 0.033328846 0.66999084 0.015372769
-0.10872062 -0.040295772 0.47131804 -0.82029343 0.064317286 0.56831503 0.018505067
0.13318378 -0.048152987 0.47844237 0.74794358 0.043353003 0.66234511 0.017205056
0.13807577 -0.03014099 0.47369748 0.77346295 0.037323035 0.63274169 0.029770013
0.13859533 -0.024293691 0.47389379 0.7839368 0.046657424 0.61908501 0.033263721
0.13544413 0.0087162741 0.47169882 0.77892637 0.29570755 0.55301976 0.080947213
0.12879962 0.012576973 0.47450846 0.73689282 0.36423483 0.5694927 0.084886104
-0.10093696 0.0243099 0.47879392 -0.72484773 0.47245926 0.50137615 0.064318381
-0.099602081 0.027301004 0.47937316 -0.71531266 0.49393773 0.49432111 0.067330264
-0.10110597 0.030911699 0.47666955 -0.71289313 0.50861561 0.48279768 0.067264847
-0.099040255 0.03552141 0.47821784 -0.69219756 0.54186833 0.47669831 0.071944341
0.085955851 0.048758171 0.47604543 0.28887904 0.92103463 0.26123568 0.066765845
0.1005535 0.048774108 0.47433215 0.32289371 0.8982231 0.29821956 0.067277737
0.11307586 0.047599878 0.47560602 0.41235012 0.83249545 0.37002528 0.092211805
0.12367243 0.046192374 0.47057146 0.5620814 0.74921399 0.35034686 0.097705439
0.13534917 0.041561548 0.47663996 0.63537753 0.6366809 0.43695861 0.091842808
-0.097676963 0.050514918 0.47775009 -0.50842857 0.79206192 0.33784372 0.068997413
-0.0072877961 0.053114519 0.47526616 -0.030707553 0.99885547 0.036672268 0.010503775
-0.11551692 -0.25733313 0.48522452 -0.5278458 -0.6882171 0.49773088 0.11979396
-0.10662583 -0.25226665 0.48601905 -0.56012523 -0.63677472 0.52988458 0.1228079
-0.096817829 -0.25265622 0.48445842 -0.52018303 -0.70435953 0.48299831 0.12238739
-0.085865892 -0.2519635 0.48557448 -0.35999265 -0.86282408 0.35488027 0.12216247
-0.067501456 -0.2523877 0.48232788 -0.16982749 -0.95817459 0.23034774 0.097101286
-0.053145625 -0.25258929 0.48473796 -0.14371248 -0.96845353 0.2035792 0.090613417
-0.043919086 -0.25258929 0.48504913 -0.11945118 -0.97989774 0.15978691 0.071889527
-0.014646439 -0.25258929 0.48312283 -0.047541704 -0.99802005 0.04118032 0.011321536
0.01052892 -0.25258929 0.48176479 0.0074593057 -0.99981153 0.017925929 0.0015743716
0.042580366 -0.25258929 0.48109907 0.072400399 -0.99386817 0.083571717 0.023441158
0.078444012 -0.25260115 0.48954132 0.30766717 -0.89818233 0.31402141 0.10318243
0.090145469 -0.25258479 0.4841432 0.16698782 -0.94123143 0.29359576 0.11785632
0.10589406 -0.25178772 0.48860207 0.0088023152 -0.97025591 0.24192153 0.14471786
0.11288878 -0.25010464 0.48746195 -0.017289247 -0.98511404 0.17103051 0.14793564
0.16613412 -0.25662136 0.48862159 -0.14777602 -0.97948289 -0.13702366 0.076586545
0.21487653 -0.25358948 0.48742861 -0.16345526 -0.9818086 -0.096614115 0.034326699
-0.11072813 -0.24850845 0.4803755 -0.66771489 -0.47203049 0.57562494 0.10832304
-0.10412522 -0.2425313 0.48805949 -0.69686246 -0.35290733 0.62437099 0.12104958
0.1201687 -0.24948454 0.4810749 -0.033479702 -0.99534273 0.090399154 0.14065762
-0.11087009 -0.23014602 0.48020601 -0.75939262 -0.17258903 0.6273244 0.085872069
-0.10376941 -0.23673718 0.48958713 -0.73178917 -0.24399449 0.6363579 0.11384838
0.12579012 -0.23802876 0.48614362 -0.14697878 -0.98899323 0.017019726 0.18241619
-0.10380403 -0.22761427 0.48864731 -0.75101626 -0.15868564 0.64093173 0.069967575
-0.10693601 -0.21700825 0.48052493 -0.76411891 -0.13469766 0.63085568 0.07428474
0.12223768 -0.20158286 0.48280752 0.73969871 -0.067521989 0.66954201 0.099546194
-0.11080614 -0.18999009 0.48252496 -0.77094287 -0.014328033 0.63674307 0.01588854
0.12245477 -0.18045881 0.48469505 0.76238519 -0.023968525 0.64667946 0.018222438
-0.10744008 -0.17048939 0.48309183 -0.77656597 0.011496401 0.62993121 0.002488917
0.12292697 -0.17566019 0.48594576 0.76014054 -0.010906753 0.64966714 0.0086313421
-0.10705502 -0.16748092 0.48208314 -0.77529782 0.014081112 0.63143879 0.0021145002
-0.10694797 -0.14132637 0.48711073 -0.76553339 0.019510608 0.64310032 0.0018946314
-0.10822233 -0.13965815 0.48414949 -0.7777319 0.022851238 0.62818074 0.0035660886
0.11434396 -0.13071585 0.48793861 0.73134845 0.01321994 0.68187588 0.0056916731
0.12048432 -0.135554 0.48281121 0.74940044 0.00756393 0.66207391 0.0087632108
-0.10888786 -0.1286329 0.48069674 -0.79997677 0.027720731 0.59939039 0.010261788
-0.10308847 -0.11590199 0.48608613 -0.7588194 0.028415307 0.65068102 0.0022350033
-0.11024266 -0.091250189 0.48035643 -0.79178077 0.024049954 0.61033177 0.0092583885
0.1313915 -0.096920982 0.48000509 0.73991519 0.01064486 0.67261606 0.011925776
-0.10531929 -0.089556322 0.4868567 -0.75608653 0.023970369 0.65403265 0.0018827153
-0.11271667 -0.076039448 0.48069179 -0.80170798 0.042296451 0.59621757 0.011147877
0.11478095 -0.07833831 0.48725975 0.71386212 0.012299281 0.70017833 0.0058911303
0.13163477 -0.05749201 0.48627356 0.72436559 0.019824853 0.6891309 0.0089099845
0.11569579 -0.04236871 0.48965237 0.71127951 0.033992369 0.70208693 0.0074901967
-0.098532043 -0.022288229 0.48089182 -0.77326173 0.079950549 0.62902641 0.0046620243
0.11084532 -0.022974543 0.48930162 0.6976794 0.095970251 0.70995295 0.013102793
0.13657169 -0.028921608 0.48022759 0.76386392 0.022098588 0.64499891 0.026087178
-0.094683528 -0.013795563 0.48822558 -0.75143999 0.12922008 0.6470241 0.0083637778
0.11054215 -0.019929063 0.48995361 0.69371325 0.12065403 0.71007371 0.018376205
-0.10185272 -0.0036327946 0.48037922 -0.75521308 0.18312287 0.62938011 0.019899335
-0.097553208 -0.0050980826 0.48564661 -0.74609917 0.18010588 0.64101321 0.018526182
0.12396454 0.0053558517 0.48421523 0.7101807 0.24562047 0.6597833 0.055175859
0.11891396 0.012870315 0.48862121 0.69002604 0.27913201 0.66779453 0.056476995
0.1232175 0.014000685 0.48263407 0.71135938 0.32312107 0.62414795 0.0677016
0.1160428 0.029125197 0.48845479 0.62939364 0.47778216 0.61285222 0.084141925
-0.093747467 0.037215255 0.48445353 -0.63707411 0.60679907 0.47532243 0.078503646
-0.089392908 0.03885325 0.48943448 -0.58725262 0.66139531 0.46657336 0.077307478
-0.095270708 0.04712544 0.48000053 -0.55888414 0.72201777 0.40784678 0.074244849
-0.087538429 0.049920987 0.48914006 -0.5367251 0.73102683 0.42133832 0.082788065
-0.042780899 0.046307784 0.48413703 -0.22689731 0.95480168 0.1920194 0.062909923
0.0085604889 0.049957085 0.48450059 0.023435248 0.99923581 0.031282745 0.0035459427
0.042642839 0.045608014 0.48144132 0.16685213 0.97905469 0.11667179 0.039720722
0.078376755 0.04962815 0.48942262 0.36157164 0.8978768 0.25116378 0.073727056
0.089827575 0.048455048 0.48380825 0.34448063 0.88424683 0.31534222 0.070513152
0.10278763 0.045745742 0.48884276 0.42861518 0.80636954 0.40750122 0.076290242
0.11457045 0.043530047 0.48436314 0.48653328 0.74774587 0.45184225 0.080166027
-0.079416111 0.052070998 0.48749554 -0.37345865 0.87818635 0.29886031 0.079500832
-0.067537308 0.058168061 0.48347178 -0.23254198 0.94851661 0.2150359 0.067029908
-0.05346714 0.055719923 0.48685381 -0.25944701 0.94459498 0.20106624 0.069848232
-0.013197133 0.053056151 0.48387229 -0.073776081 0.99330395 0.08890669 0.018142609
-0.1182488 -0.26304898 0.49160641 -0.65998763 -0.40452492 0.63306868 0.11271557
0.15893194 -0.26297694 0.49167728 -0.10594157 -0.98851401 -0.1077801 0.058373131
-0.10429373 -0.25363433 0.4912177 -0.60633123 -0.56106931 0.56352788 0.12681146
-0.094371095 -0.2510168 0.49434534 -0.58826518 -0.57299477 0.57063222 0.12989715
-0.08764293 -0.25191262 0.49145055 -0.46580854 -0.75161374 0.46701092 0.12232601
-0.066692919 -0.25200605 0.49574405 -0.23147431 -0.93198508 0.2789686 0.1105041
-0.049170762 -0.25258708 0.49292803 -0.16543928 -0.96569318 0.20016643 0.09179318
-0.01676297 -0.25258929 0.49390289 -0.10060199 -0.99064863 0.092165798 0.04054312
-0.0074704341 -0.25258929 0.4966667 -0.046829384 -0.99671727 0.066043705 0.018737102
0.01022566 -0.25258929 0.49406189 0.018272145 -0.99887383 0.043785919 0.0055494653
0.02988434 -0.25258929 0.49536341 0.080105573 -0.99072939 0.10971941 0.024478186
0.033369977 -0.25258929 0.4940944 0.11127283 -0.98575264 0.1261352 0.038260233
0.044534922 -0.25258929 0.49750799 0.12957981 -0.97863799 0.15961444 0.051663112
0.077019103 -0.25258279 0.49138829 0.35573611 -0.87115341 0.33844292 0.097711034
0.088543057 -0.25191945 0.49701372 0.23230502 -0.88726556 0.39848986 0.12880802
0.095051549 -0.25205716 0.49697837 0.29018828 -0.82967234 0.47690099 0.13720636
0.10643266 -0.25108185 0.49632093 0.00053101894 -0.96396875 0.26601508 0.16584569
0.11488181 -0.25048387 0.49636662 -0.055214766 -0.97380179 0.22059338 0.16958503
0.16185486 -0.25276923 0.49216488 -0.13647358 -0.98012155 -0.14400251 0.07651753
-0.10091896 -0.24124771 0.4921006 -0.71811384 -0.28831002 0.63339549 0.11564196
0.1210084 -0.24645746 0.49524462 -0.11381894 -0.98163664 0.15308416 0.1723465
0.11919951 -0.23312968 0.49243534 0.010594276 -0.97381973 0.22707479 0.19465095
-0.095266357 -0.22175144 0.49895003 -0.72281289 -0.14154975 0.6763913 0.059700485
-0.10163859 -0.19303042 0.49271485 -0.75730771 -0.020432936 0.65273845 0.014919661
0.10929498 -0.19080587 0.49979573 0.68770331 -0.099630654 0.71912307 0.050198261
0.11716156 -0.193075 0.4913885 0.71295977 -0.069390312 0.6977632 0.061373353
-0.099710442 -0.18245932 0.49264568 -0.75580984 -0.0065627829 0.65475827 0.0059765503
0.11491155 -0.1852484 0.49575984 0.72492355 -0.0647678 0.68577766 0.029931501
-0.097076684 -0.17573594 0.49425608 -0.76013756 -0.0013495907 0.64976078 0.0025793305
0.11985884 -0.17625488 0.49711522 0.73085666 0.0089982236 0.68247169 0.011096058
-0.095284678 -0.1664162 0.49568191 -0.75675017 0.010082868 0.65362644 0.0013417021
0.12730934 -0.13388252 0.49056825 0.73826867 0.0079589942 0.67445982 0.0066977446
0.11646032 -0.12605622 0.49894333 0.71026945 0.022571353 0.70356804 0.0044525038
-0.093896538 -0.11182451 0.49674076 -0.74339688 0.028755957 0.66823214 0.0010528902
-0.10274097 -0.090575874 0.49066186 -0.75112987 0.024756642 0.65969014 0.0014568734
0.11683526 -0.094825238 0.49291039 0.70695651 0.023321133 0.70687246 0.004618499
0.12615791 -0.099376865 0.49328947 0.71503562 0.02448765 0.69865906 0.0060814396
0.10954934 -0.074505031 0.49607068 0.69802541 0.011917353 0.71597385 0.0028867845
0.11678886 -0.061025959 0.493442 0.70637697 0.012487995 0.7077257 0.0038534875
0.11114812 -0.055182666 0.49727553 0.68950033 0.02156071 0.72396445 0.0027998658
0.10851533 -0.04028637 0.49642611 0.6826973 0.036634333 0.72978246 0.0028041215
0.11702758 -0.044580042 0.49036321 0.70829523 0.025804523 0.70544457 0.0066876039
0.10718986 -0.038207855 0.49700323 0.67705846 0.03707438 0.73499483 0.0023607828
0.11203434 -0.039052181 0.49260712 0.69521701 0.037420657 0.71782517 0.0047692228
0.10912232 -0.020402571 0.49447322 0.67724997 0.10092696 0.72879791 0.012379666
0.11016402 -0.019339211 0.49041462 0.69428706 0.12066694 0.70951045 0.018515684
-0.091924898 0.014346891 0.49159059 -0.73922801 0.29417819 0.60580617 0.041123617
0.11613161 0.011208623 0.49377501 0.6766777 0.24997731 0.692545 0.052190367
0.095564812 0.024801591 0.4965601 0.61231935 0.43286842 0.6615814 0.086635567
-0.087466486 0.044385511 0.49053705 -0.56928867 0.68846601 0.44936061 0.086735502
0.033136237 0.049651247 0.49446547 0.13306992 0.98494816 0.11031545 0.025637835
0.087484561 0.047144473 0.49668533 0.42868736 0.82920659 0.35866919 0.073354438
0.092920966 0.045534238 0.49622947 0.48140424 0.74894857 0.45533076 0.079340898
0.1033686 0.042731993 0.49527544 0.49890012 0.69688445 0.51521903 0.082066394
-0.086239815 0.051438015 0.49014613 -0.49400875 0.77641094 0.39133298 0.08445923
-0.066653982 0.053527385 0.49588451 -0.32279164 0.90522742 0.27634925 0.082986005
-0.051046517 0.054273184 0.49073792 -0.26531833 0.94332647 0.19935235 0.068293884
-0.048321985 0.053301118 0.49310029 -0.24588419 0.94290417 0.22466151 0.066344768
-0.013774397 0.053380139 0.49695048 -0.111016 0.98526216 0.13013016 0.025709052
-0.0072136708 0.05380575 0.49656501 -0.074189812 0.99151373 0.10675409 0.018660082
0.010323112 0.052173864 0.49449053 0.020390997 0.99802655 0.0593911 0.0088870768
0.030129462 0.050130475 0.49547169 0.11226816 0.9886989 0.099349424 0.019641509
0.04425808 0.050424159 0.49803048 0.20305035 0.96517199 0.16496541 0.046533167
0.15625244 -0.26134473 0.50302142 -0.11956716 -0.98803514 -0.0974181 0.062065903
0.216728 -0.26018217 0.50548685 0.01683441 -0.99961126 -0.022223419 0.0060105016
-0.08555311 -0.25138223 0.50564986 -0.59637046 -0.50837445 0.62120652 0.11831111
-0.076682553 -0.25107637 0.50505626 -0.50709146 -0.66172117 0.55225295 0.11286419
-0.067908615 -0.25106555 0.50450617 -0.33772799 -0.82885313 0.44602942 0.12335515
-0.056315564 -0.2522358 0.50669098 -0.30134767 -0.8625468 0.40645123 0.12597039
-0.046506312 -0.25259343 0.50296742 -0.20317426 -0.92807055 0.31209823 0.11318043
-0.022585271 -0.25258929 0.50994521 -0.19818178 -0.96077937 0.1939768 0.084572718
-0.015952716 -0.25258929 0.50118542 -0.13186826 -0.98464471 0.11439229 0.053337481
0.01648635 -0.25258929 0.50029701 0.050186925 -0.99537385 0.081928618 0.013224257
0.03519468 -0.25258929 0.50527596 0.14928681 -0.97381204 0.17147462 0.049639892
0.04287995 -0.25258929 0.50254554 0.16554061 -0.96815073 0.18783121 0.060198784
0.064500473 -0.2528992 0.50328583 0.30330822 -0.9035024 0.30279949 0.089409187
0.077167526 -0.25221863 0.50333273 0.45614064 -0.76259029 0.45868486 0.09989389
0.086535372 -0.25071645 0.50675154 0.33122268 -0.82455689 0.45869103 0.12868491
0.095274083 -0.25019413 0.50431043 0.19573374 -0.89985341 0.38981047 0.15742891
0.11121346 -0.25038624 0.50488162 0.037881453 -0.93720764 0.34670866 0.18391615
0.130885 -0.25162578 0.50550783 -0.34365892 -0.93789387 -0.047472883 0.18246175
0.15874758 -0.25280696 0.50608456 -0.20006903 -0.96985596 -0.13911055 0.079655111
0.21674359 -0.25258932 0.50548601 0.01683441 -0.99961126 -0.022223419 0.0060105016
-0.090541504 -0.24755774 0.50040466 -0.62690896 -0.45790747 0.63032204 0.11879127
-0.084717907 -0.24561878 0.50518948 -0.6454519 -0.38549745 0.65938115 0.11008274
0.10417558 -0.2496973 0.50593501 0.085510217 -0.93375498 0.3475481 0.17806002
0.16094995 -0.24314453 0.50844014 -0.31488732 -0.93326277 -0.17281976 0.11845295
-0.091967553 -0.23638317 0.50140965 -0.69119775 -0.2436441 0.68035525 0.10398196
-0.082841836 -0.23415793 0.50845551 -0.68053299 -0.25905111 0.68539578 0.093895532
-0.079257727 -0.23804982 0.50948656 -0.66623938 -0.31480166 0.67603624 0.091266617
0.10527289 -0.23477575 0.50496334 0.082578838 -0.93904859 0.33371928 0.17787331
-0.093168348 -0.22193761 0.50088036 -0.72406381 -0.13755573 0.67587721 0.064845547
0.10271852 -0.22583243 0.50684243 0.23325947 -0.80514336 0.54528362 0.19123428
-0.084294483 -0.21774749 0.50915682 -0.7146244 -0.13868731 0.68562222 0.054590993
0.098975286 -0.19065723 0.50907552 0.69752544 -0.10869307 0.70826846 0.031244388
-0.090348333 -0.18828997 0.5034582 -0.73441505 -0.027084094 0.67816001 0.012549995
-0.08937905 -0.18997517 0.50493646 -0.73007208 -0.033851929 0.6825313 0.016229691
0.10716188 -0.18599084 0.50696802 0.68970501 -0.073036201 0.72039753 0.033029348
0.11214764 -0.18369623 0.50490177 0.69263422 -0.057503108 0.71899319 0.027743667
-0.08396633 -0.15281092 0.50672865 -0.74139518 0.02486931 0.67060775 0.00087819295
-0.082129106 -0.14934374 0.50655001 -0.7402879 0.027284931 0.67173612 0.00093186955
-0.089756861 -0.11584523 0.50132257 -0.73787951 0.036624394 0.6739381 0.0013197695
0.095582895 -0.11205567 0.50826216 0.67807025 0.045565255 0.73358333 0.0028581563
-0.083677866 -0.10149771 0.50856078 -0.73010391 0.026609732 0.68281788 0.0010663238
0.10067857 -0.098703355 0.50566721 0.67999238 0.040421318 0.73210418 0.0031452379
0.098844066 -0.086111844 0.50830537 0.67851907 0.015048342 0.7344287 0.0020928476
-0.088035017 -0.079143815 0.50099349 -0.73442537 0.032640256 0.67790407 0.0009822381
0.098244324 -0.070157774 0.50992227 0.6754725 0.018468292 0.73715389 0.0021183616
0.10293954 -0.070715934 0.50561529 0.67755812 0.016091144 0.73529321 0.0021433623
0.097867563 -0.061463386 0.50892073 0.67436206 0.018467685 0.73816991 0.0017892385
0.10345998 -0.064472347 0.50603616 0.67605549 0.018277654 0.73662406 0.0020197765
0.10692421 -0.056589976 0.50073326 0.6769461 0.017466871 0.73582536 0.001805005
0.097219534 -0.042918783 0.50701648 0.67785078 0.031773772 0.73451251 0.0024517395
0.10272216 -0.042547099 0.50209641 0.67336047 0.035831768 0.73844558 0.002163755
0.09924873 -0.034553774 0.50775677 0.68036336 0.033569496 0.73210573 0.0022944852
0.10351685 -0.031745493 0.50082099 0.67648083 0.042386573 0.73523945 0.0021731504
-0.090889588 -0.025044132 0.50853974 -0.7386049 0.072124049 0.67026931 0.0012209713
-0.086082652 -0.0267119 0.50646055 -0.73737931 0.067392141 0.67210871 0.0011213958
0.10952917 -0.018550083 0.50260949 0.66673607 0.08401826 0.74054301 0.0083539672
-0.07755705 -0.0096895397 0.50992692 -0.7296024 0.14507988 0.66830546 0.01323383
0.095192 -0.0074025062 0.50394571 0.65351915 0.18238883 0.73460668 0.034045231
0.097874515 0.0032273114 0.50760645 0.63209516 0.24026085 0.73670244 0.04480058
-0.082039267 0.019607084 0.50365186 -0.72062546 0.33153719 0.60891873 0.05746603
-0.08087083 0.023387283 0.50435501 -0.70418793 0.36257899 0.61045545 0.065532096
-0.07577765 0.022836192 0.50956023 -0.68118 0.4151597 0.60302258 0.071428366
-0.077743128 0.038724706 0.50298297 -0.58057582 0.62861001 0.51747572 0.093275383
0.094369225 0.038667526 0.50421536 0.57190245 0.59825575 0.56126428 0.083154395
-0.074344501 0.049676437 0.50060683 -0.49600855 0.77524656 0.39111167 0.10300875
-0.066487417 0.049801148 0.50704676 -0.5012992 0.74657768 0.43740246 0.10235634
0.076140448 0.049478672 0.50207305 0.42203146 0.83466244 0.35387573 0.068735883
0.097073875 0.04147622 0.50478333 0.55054688 0.6301778 0.54751623 0.07889691
-0.067458808 0.051646054 0.50347787 -0.39391565 0.851138 0.34697923 0.093809187
-0.057800062 0.05280368 0.50835919 -0.35419309 0.87929821 0.31840527 0.083108127
-0.045745708 0.053458318 0.50257599 -0.23928049 0.93416834 0.26471576 0.062220406
-0.02191872 0.052661516 0.50522077 -0.16927257 0.96934146 0.17811218 0.04165978
-0.0080160825 0.057289794 0.50854886 -0.069623552 0.98629731 0.14956667 0.024029542
0.016441036 0.050595354 0.50036728 0.042026836 0.99443752 0.096580386 0.017787464
0.035271052 0.051243976 0.50531167 0.17939071 0.97065842 0.16012874 0.040907979
0.042856906 0.051439166 0.50263339 0.21903123 0.9600203 0.17431699 0.04801726
0.064262576 0.050623901 0.50301641 0.26848194 0.93372506 0.2368017 0.057692382
-0.084470704 -0.25054315 0.51417226 -0.59331375 -0.50244987 0.62890613 0.13174862
-0.055043921 -0.2521432 0.51383549 -0.36190256 -0.82534993 0.43338668 0.13179989
-0.044163868 -0.25259826 0.51753235 -0.27774385 -0.88155454 0.3817327 0.12050795
-0.039072372 -0.25256962 0.51687634 -0.2484362 -0.91895235 0.30627772 0.11221711
-0.0062530581 -0.25258929 0.51093978 -0.038802702 -0.99162555 0.12317925 0.03477475
0.024901837 -0.25258929 0.51635218 0.11210357 -0.97618884 0.18571001 0.045703031
0.039954759 -0.25251952 0.51972848 0.19844058 -0.94743598 0.25097102 0.073479481
0.04071489 -0.25258929 0.5144394 0.18827915 -0.95156699 0.24304572 0.072421044
0.058207735 -0.25228757 0.51866055 0.32263333 -0.86455393 0.38529772 0.08606831
0.063578442 -0.25263906 0.51238632 0.3817609 -0.84281617 0.37936732 0.085267358
0.074372791 -0.25001076 0.51820004 0.43533719 -0.82791615 0.35360488 0.12760149
0.08021614 -0.25001112 0.51997823 0.28692502 -0.92097175 0.26360038 0.13771465
0.11684581 -0.25237864 0.51728708 -0.27608952 -0.94771433 -0.16003831 0.18946278
-0.083687842 -0.24855715 0.51200849 -0.62400198 -0.42742711 0.65416175 0.11604969
-0.071925148 -0.24948901 0.51527631 -0.6147303 -0.45622048 0.64340466 0.11101548
-0.065381296 -0.24999788 0.51803267 -0.60118484 -0.50562799 0.61880302 0.11914846
0.087136008 -0.24857497 0.51418751 0.25324076 -0.92717677 0.27606589 0.15178233
0.092096053 -0.24642093 0.51511163 0.13068679 -0.97992706 0.15054551 0.16931297
0.10306267 -0.24881138 0.51130927 0.0337593 -0.98200047 0.18583708 0.17929915
0.095144466 -0.23475155 0.5130446 0.30915976 -0.804667 0.50688392 0.17934392
-0.082012236 -0.21875314 0.5111441 -0.71259785 -0.1309194 0.68924916 0.0533376
0.093431324 -0.21264495 0.51544118 0.57022083 -0.29095843 0.76823914 0.10127992
0.094746135 -0.20891212 0.51457489 0.60153383 -0.2361619 0.76314127 0.085512966
-0.083502047 -0.19474684 0.51346785 -0.15759836 -0.98317581 -0.092347562 0.032201659
0.099447481 -0.19173039 0.51117682 0.69522268 -0.10969967 0.71037418 0.031534605
0.11637548 -0.17415521 0.51652789 0.70435756 0.020476053 0.70954996 0.0070522362
-0.083738111 -0.1659096 0.5156042 -0.73969418 0.014996246 0.67277616 0.00093754637
-0.085294276 -0.15994319 0.51130569 -0.74104905 0.017393321 0.67122555 0.00087912852
-0.080980003 -0.12235523 0.51124269 -0.73175532 0.035927325 0.68061984 0.0010374447
-0.080545567 -0.115041 0.51216942 -0.73002887 0.038156539 0.6823504 0.0010292546
0.090655543 -0.11451872 0.51359636 0.67671984 0.044424694 0.7348991 0.0028770538
0.087940104 -0.10762283 0.51758373 0.67313337 0.054986965 0.73747402 0.002985192
0.095018692 -0.1005969 0.51039726 0.67664027 0.040553886 0.73519617 0.003246967
0.087739028 -0.093094461 0.51837242 0.67890245 0.026447797 0.73375201 0.0020446058
0.090863526 -0.096605815 0.51499844 0.67824894 0.025547531 0.73438799 0.0020961913
-0.078706168 -0.083798923 0.51168233 -0.73153043 0.032086469 0.68105346 0.00093790493
0.087932386 -0.083905667 0.51880074 0.67735654 0.020895833 0.73535806 0.0019350103
0.09239243 -0.084703393 0.5146327 0.67554319 0.019968625 0.73704994 0.002046414
-0.074199177 -0.072959729 0.51445526 -0.7317059 0.031700205 0.68088299 0.00085559394
0.092977822 -0.077616937 0.51459467 0.67488515 0.01881467 0.73768288 0.002022157
-0.071294084 -0.051253408 0.51697779 -0.73118633 0.035784271 0.68123871 0.00087304553
0.086965486 -0.053210236 0.51443946 0.67724526 0.021492235 0.73544341 0.0022187494
-0.074305505 -0.049470089 0.51272047 -0.73091215 0.037173159 0.68145853 0.00098496326
0.091779187 -0.045190424 0.51125586 0.67698956 0.028512698 0.73544008 0.0024346504
-0.068636224 -0.03878722 0.51934522 -0.73334962 0.041441977 0.67858738 0.00092753483
0.086229973 -0.036473013 0.5198977 0.68240941 0.025093175 0.73053938 0.002540533
0.091526538 -0.034626484 0.51471788 0.68180871 0.031225195 0.73086387 0.0025400983
-0.072702035 -0.025472945 0.51596266 -0.73816633 0.070981562 0.67087418 0.0017430347
-0.069811687 -0.023648934 0.51788414 -0.73936707 0.07711526 0.668872 0.0022898039
-0.075811572 -0.011938731 0.51177329 -0.73239785 0.14042652 0.66623849 0.012864005
0.086795904 -0.0063544773 0.51695633 0.6483869 0.17884158 0.74000674 0.029478908
0.093253233 -0.0087848818 0.51051873 0.66191566 0.14988154 0.7344408 0.023209468
-0.064772487 0.027961448 0.51880372 -0.67998976 0.4211047 0.60023731 0.077052921
-0.070655428 0.036382854 0.51134264 -0.61842436 0.56348562 0.54775476 0.093282938
-0.064622596 0.033073574 0.51807505 -0.64538229 0.51550496 0.56368113 0.082294747
-0.055863325 0.045486372 0.5196535 -0.51176798 0.70667315 0.48857611 0.092447758
0.02078679 0.049464326 0.51692021 0.028734697 0.97571391 0.21715605 0.038608298
0.058518823 0.049688917 0.51976293 0.31725949 0.90527683 0.28252494 0.060848296
0.063203573 0.049343765 0.51946908 0.38254067 0.85439456 0.35167107 0.056844342
0.071275629 0.047973756 0.51644427 0.45699114 0.79120541 0.4063904 0.055695899
0.084749065 0.043414701 0.51514935 0.56221211 0.62253588 0.54439569 0.068942785
-0.046895362 0.053030074 0.51798725 -0.30783835 0.89429164 0.32477385 0.070715815
-0.038732067 0.053478457 0.51652074 -0.24962214 0.93460125 0.25339568 0.055006854
0.027182963 0.050572362 0.51607251 0.10283723 0.97551173 0.19442539 0.038588531
0.039944887 0.051171325 0.51971346 0.21207377 0.95407951 0.21155873 0.050153006
0.040708814 0.051338334 0.51433194 0.23206715 0.95345086 0.19255233 0.051471237
0.062382102 0.050313096 0.51707774 0.34897074 0.88537437 0.30713484 0.058694456
-0.084978618 -0.25593102 0.52389497 0.096738622 -0.99522048 0.013336729 0.14815749
-0.077526785 -0.25385806 0.52706522 -0.34293398 -0.84893763 0.40212098 0.17391211
-0.068247318 -0.25025079 0.52730888 -0.67821789 -0.36731499 0.63647491 0.12423091
-0.055337917 -0.2509608 0.52516484 -0.51814425 -0.6701932 0.5313828 0.1341736
-0.044867877 -0.25259003 0.52922821 -0.34686536 -0.88274676 0.3169269 0.11277007
-0.034329895 -0.25262871 0.52956384 -0.26432708 -0.93815494 0.22359914 0.10229067
0.026214112 -0.25257555 0.52410311 0.15246882 -0.96890622 0.19486931 0.058854844
0.034742594 -0.25249085 0.52534777 0.22951142 -0.94453257 0.23491007 0.074915543
0.044520929 -0.25249839 0.52222383 0.23086156 -0.92552012 0.30019248 0.080948807
0.059144575 -0.25223073 0.52157015 0.2844035 -0.90841931 0.30641317 0.10557607
0.065290704 -0.25234184 0.52506202 0.33229798 -0.88819021 0.31732681 0.12294561
0.15609556 -0.25720096 0.52864826 -0.14164798 -0.98560601 -0.092285916 0.036638673
0.17632945 -0.25087044 0.52417219 -0.12062122 -0.98879242 -0.087978072 0.023662245
0.18857184 -0.25798419 0.52985168 -0.11647559 -0.98798978 -0.10153662 0.017982377
-0.065834999 -0.24265176 0.52809095 -0.70167667 -0.30055612 0.64599991 0.10460073
0.076633409 -0.24865921 0.52465403 0.43142155 -0.81372869 0.38951385 0.13172676
-0.066393919 -0.2339844 0.52778196 -0.72481841 -0.20194027 0.65867925 0.089485921
0.082915194 -0.23514335 0.52636772 0.58501095 -0.52585626 0.61744422 0.14322492
-0.073629931 -0.21005739 0.5207237 -0.71210641 -0.087101229 0.69664764 0.035902116
-0.073907577 -0.20558167 0.52159899 -0.71584123 -0.078012347 0.69389141 0.032970618
0.077463716 -0.20167075 0.52895027 0.64135319 -0.20913455 0.73819304 0.049865026
0.084481977 -0.19631135 0.5245139 0.65241724 -0.1648652 0.73971015 0.038805313
-0.085692614 -0.18617252 0.52528048 -0.73594773 -0.022838686 0.67665309 0.006906928
0.094457291 -0.18517819 0.52283728 0.68010825 -0.055974633 0.73097169 0.018210614
0.10106988 -0.18135272 0.52187788 0.68288213 -0.019283952 0.73027408 0.011319906
-0.073035121 -0.17469549 0.52670896 -0.73747075 0.0024793351 0.67537457 0.0021067355
-0.075410828 -0.16776428 0.52274209 -0.73816365 0.01336748 0.67448932 0.00097920967
-0.067032307 -0.16056405 0.52962607 -0.73039627 0.027176486 0.68248284 0.00078023947
-0.066680938 -0.15733989 0.52944255 -0.72948903 0.029642515 0.68334997 0.00075909647
0.076449476 -0.15313157 0.52799201 0.68246973 0.036590043 0.72999752 0.0036900665
-0.068462282 -0.14010708 0.5256142 -0.72952873 0.037407283 0.68292654 0.00069332763
-0.07123246 -0.13455138 0.52250302 -0.73074812 0.037506998 0.68161607 0.00064432924
-0.066404775 -0.13500364 0.52744901 -0.72788215 0.037748829 0.6846624 0.0006618296
0.07883998 -0.10907923 0.52742141 0.67234844 0.055186518 0.73817486 0.0029667064
0.079092018 -0.096928857 0.5279038 0.68182051 0.027306354 0.73100966 0.0019275339
-0.066508256 -0.088168606 0.52348596 0.020073744 0.99787778 -0.061943758 0.010250649
0.076651797 -0.081687532 0.52842575 0.68261576 0.022467339 0.73043197 0.0016875457
0.081466138 -0.082203045 0.52416259 0.68190837 0.02073249 0.73114377 0.0018530498
0.080808967 -0.078653298 0.52447134 0.68048525 0.021664409 0.73244154 0.0017894497
0.074877359 -0.061127104 0.527668 0.68233949 0.018795878 0.73079377 0.0018437838
0.083229929 -0.062875114 0.52029872 0.67705917 0.020670801 0.73563832 0.0019633295
-0.063051924 -0.056253351 0.52777487 -0.72466576 0.029192647 0.68848193 0.00079520664
0.077041566 -0.055204574 0.52460682 0.6811682 0.015917985 0.73195392 0.0019234514
0.078554794 -0.04692572 0.52441639 0.68210322 0.025873354 0.73079813 0.002526799
0.08137963 -0.041661285 0.52330911 0.68205017 0.020385016 0.73102123 0.0027534622
-0.067185707 -0.039532412 0.52181578 -0.73300666 0.040340278 0.67902434 0.00091076479
-0.058730014 -0.025614625 0.52984029 -0.73364216 0.061322421 0.67676347 0.00221707
0.085826688 -0.020609075 0.52029848 0.68057632 0.077068202 0.72861272 0.0065806978
-0.064458527 -0.0032888381 0.52278131 -0.7251085 0.17125896 0.66699928 0.020104684
0.080401942 -0.0068539446 0.52171218 0.64693844 0.18853419 0.7388677 0.032897517
-0.06347134 0.027512476 0.52007347 -0.68546176 0.38963467 0.61508304 0.073339723
-0.062054828 0.031072969 0.52070796 -0.63605082 0.50531745 0.5831756 0.084609188
-0.051495336 0.031773735 0.5293619 -0.62104905 0.49791697 0.60529071 0.080605529
-0.053254802 0.045561586 0.52351683 -0.48876402 0.73810506 0.46509209 0.091675736
0.022872752 0.049588036 0.52227199 0.043073326 0.97195774 0.23117721 0.047544703
0.059035756 0.049210444 0.52119076 0.3426688 0.88555664 0.31363598 0.060173675
0.065897338 0.044734862 0.52913451 0.47477925 0.76862806 0.42871395 0.061947737
0.083090469 0.040922225 0.52181679 0.60074466 0.55649751 0.57394814 0.065412693
-0.043784056 0.050918013 0.52892441 -0.37272334 0.85235679 0.36683124 0.0686616
-0.034542579 0.053461365 0.52920729 -0.2509152 0.9213984 0.29676026 0.059184879
0.029386982 0.05041793 0.52640885 0.11978008 0.95794082 0.2607722 0.055253372
0.035131983 0.050973721 0.52501112 0.16185492 0.95762962 0.23821926 0.052038647
0.044477187 0.050982185 0.52220058 0.25752914 0.94013542 0.2232133 0.056684751
-0.06325832 -0.25201395 0.53246462 -0.66489917 -0.37168035 0.6478911 0.12216754
-0.054262824 -0.25180057 0.53480172 -0.65751284 -0.44384849 0.60883123 0.1034894
-0.044407994 -0.25254306 0.53391218 -0.39824221 -0.84060711 0.36712784 0.10789369
-0.025404153 -0.25255591 0.53441638 -0.20824984 -0.95399177 0.21571235 0.10314514
0.01352987 -0.25258929 0.53263569 0.029240437 -0.98197472 0.18673703 0.065754876
0.02864706 -0.25224978 0.53643698 0.19238357 -0.95491076 0.22612824 0.077922396
0.033642404 -0.25166675 0.53460044 0.25858149 -0.92657959 0.27310413 0.072369762
0.065455295 -0.25224584 0.53595436 0.29253876 -0.90003884 0.32303432 0.13828784
0.075201035 -0.25062644 0.53452462 0.23484388 -0.95109272 0.20067611 0.15951346
0.08390025 -0.25115234 0.53441656 -0.031772491 -0.99748474 -0.063361667 0.14303556
0.16758052 -0.25689882 0.53220707 -0.1267561 -0.98824179 -0.085504688 0.019549651
0.17292906 -0.25690207 0.53149289 -0.11890155 -0.98894382 -0.088614993 0.020068323
0.18670517 -0.25834394 0.53031242 -0.11012822 -0.98902124 -0.098533526 0.016810769
-0.05923336 -0.24200091 0.53757715 -0.71205938 -0.25564274 0.65392524 0.093061291
0.081425488 -0.22560282 0.53530687 0.66140544 -0.3070327 0.68430537 0.12781627
-0.061794449 -0.20021448 0.53544486 -0.73852432 -0.066900864 0.67089957 0.031726979
-0.064031057 -0.195435 0.53356737 -0.73575622 -0.063567929 0.6742565 0.026565099
0.079072356 -0.19096127 0.53579813 0.66038591 -0.12443503 0.74054462 0.025649436
-0.065722823 -0.18696761 0.53268325 -0.73327208 -0.034699228 0.67904931 0.013452478
0.087888584 -0.18217945 0.53537965 0.68155891 -0.031245161 0.73109591 0.010733535
-0.0648425 -0.15502194 0.53108776 -0.72810864 0.029973932 0.68480617 0.00075621402
-0.054551907 -0.15176378 0.53861445 -0.70711541 0.035539221 0.70620453 0.0017678534
-0.060862929 -0.14338961 0.53427768 -0.72533792 0.039735086 0.68724531 0.0006523449
-0.059216328 -0.1421259 0.53585327 -0.72134936 0.040096313 0.69140977 0.00089086365
0.069132112 -0.14560989 0.53687048 0.67125118 0.038345128 0.74023747 0.0031989061
0.073938839 -0.14534561 0.53065467 0.67772675 0.032805827 0.73458177 0.0036701858
-0.060511999 -0.13834578 0.53440946 -0.7235325 0.0400552 0.68912727 0.0006952284
-0.055835985 -0.13110946 0.53904283 -0.70049948 0.04213661 0.71240789 0.0018513625
0.072722934 -0.1368653 0.53925198 0.6699084 0.040275224 0.74135059 0.0033324233
-0.053724051 -0.11236927 0.5387969 -0.69957882 0.036439218 0.71362573 0.002039914
0.068251319 -0.11269952 0.53697115 0.66648656 0.051257607 0.74375296 0.0022596247
0.072855853 -0.10316287 0.53435719 0.67662019 0.035850041 0.73545897 0.0017211793
-0.058510479 -0.098641276 0.53097582 -0.72059166 0.033611387 0.69254464 0.00048429187
0.066421047 -0.080655083 0.53604817 0.67743945 0.025393562 0.73514009 0.001605696
0.064172968 -0.07992126 0.53539592 0.67094618 0.027726805 0.74098754 0.0019457209
-0.0562081 -0.062349197 0.53584093 -0.71119487 0.022133987 0.70264649 0.0020064351
-0.058345497 -0.058448598 0.53447556 -0.72138965 0.02653783 0.69202077 0.0014826345
0.065429807 -0.056648254 0.53719842 0.68505424 0.012693144 0.72838151 0.0013056826
-0.05045829 -0.03673188 0.53932774 -0.71914452 0.034059435 0.6940254 0.0023543627
0.069247074 -0.038934812 0.53556842 0.69217813 0.023157891 0.72135514 0.0018231295
-0.056853414 -0.024647351 0.53176296 -0.73185515 0.062994972 0.67854238 0.0022584496
0.082525171 0.035727847 0.53308934 0.64949995 0.42357969 0.63145077 0.057700131
-0.043701157 0.049679164 0.53306526 -0.42487311 0.78514475 0.45058921 0.07246767
0.013391026 0.048053917 0.53263563 -0.023639625 0.95036757 0.31022999 0.06470225
0.065880857 0.04323722 0.53451431 0.53353757 0.66963887 0.51664454 0.062443398
-0.039944723 0.051552907 0.53262955 -0.34894487 0.85132962 0.39175943 0.07046479
-0.026929673 0.055077519 0.53623176 -0.14772502 0.96590734 0.21260373 0.10793656
0.02801591 0.050262459 0.53660321 0.065839723 0.95183682 0.29945257 0.061062701
0.033933461 0.050649419 0.5346393 0.14432377 0.94244564 0.30160716 0.063880526
-0.063736655 -0.26064754 0.54300803 -0.39562219 -0.82167888 0.41027659 0.15062068
-0.056381151 -0.25148621 0.54254365 -0.69782084 -0.34420112 0.62814939 0.10016468
-0.045456726 -0.25256121 0.54607683 -0.52102816 -0.7100367 0.47368512 0.10938133
-0.015465826 -0.25270644 0.54789746 -0.12157165 -0.9578256 0.2603662 0.12901856
0.013192613 -0.25258675 0.54550731 0.021642797 -0.97996438 0.19799344 0.11173055
0.0270718 -0.25213048 0.54435003 0.14038092 -0.95480114 0.26200765 0.097748592
0.036539473 -0.25043681 0.546893 0.24311653 -0.92771888 0.28325254 0.11239883
0.054693583 -0.25086361 0.54804802 0.0042057624 -0.99983299 -0.01778814 0.11519875
0.063826859 -0.25230855 0.54448676 0.059964683 -0.99776036 -0.02963971 0.14533706
0.076232135 -0.25277355 0.54231656 0.010563751 -0.99974692 -0.019864503 0.14897045
0.16289841 -0.25798559 0.54525566 -0.13553455 -0.98432082 -0.11288495 0.016767645
0.045866601 -0.24867561 0.54640913 0.24972551 -0.9346292 0.25319058 0.11189222
-0.053786006 -0.23644763 0.54240376 -0.72995502 -0.23785979 0.64077175 0.075420082
0.04453278 -0.2355936 0.54671299 0.48690891 -0.65257007 0.58057892 0.12777591
-0.054422211 -0.22563162 0.54332435 -0.74157721 -0.16056103 0.65137041 0.067619115
-0.053835385 -0.2181596 0.54373753 -0.74280995 -0.11623964 0.65933436 0.061182763
-0.049711194 -0.20516874 0.54783624 -0.73379874 -0.049745552 0.67754328 0.043808185
-0.046868898 -0.19083004 0.54984969 -0.70830971 -0.0075756637 0.70586115 0.019089589
-0.052364454 -0.18743004 0.54468131 -0.7080459 -0.026035894 0.70568633 0.013140773
-0.047424689 -0.18655463 0.54886836 -0.70191336 -0.013114962 0.71214151 0.015155833
0.074109204 -0.16102889 0.54085726 0.67408878 0.023450641 0.73827803 0.0035953033
0.065141238 -0.15325625 0.54524469 0.64402604 0.030295024 0.76440352 0.003334265
0.063427269 -0.14624958 0.54328287 0.6435892 0.035502162 0.76454729 0.0035374479
-0.046447936 -0.13454154 0.54895198 -0.67199755 0.0470073 0.73906004 0.0067555243
-0.050917584 -0.12562405 0.54385781 -0.68672961 0.044762395 0.72553349 0.0032665045
-0.048387755 -0.12305118 0.54619175 -0.67270428 0.047302257 0.73839796 0.0053475122
-0.050920472 -0.11510026 0.5424059 -0.68610489 0.037294656 0.72654617 0.0032618633
-0.047777668 -0.11861587 0.54640377 -0.67161804 0.042397946 0.73968351 0.0063735917
0.05478866 -0.11240531 0.54859328 0.60080206 0.059361812 0.79719079 0.0082162349
0.064464241 -0.11218516 0.54043317 0.65982169 0.040166162 0.75034791 0.0025299203
-0.042365771 -0.091807865 0.54715466 -0.63414145 0.022565324 0.77288783 0.019506114
0.064515941 -0.081062526 0.54582816 0.65673393 0.030683599 0.75349796 0.0026260966
-0.042135738 -0.074568957 0.548922 -0.65040219 0.0097012287 0.7595281 0.013978949
-0.044406626 -0.067234449 0.54696906 -0.67208028 0.014393055 0.74033839 0.0087555014
-0.051452301 -0.057161 0.5405581 -0.70594341 0.020274702 0.70797807 0.0025489265
-0.045086659 -0.052306224 0.5461396 -0.68079704 0.008435077 0.7324236 0.0080217402
0.058760323 -0.054490231 0.54356462 0.65130788 0.01866553 0.75858402 0.0027796668
0.062295318 -0.054408908 0.54119116 0.66570312 0.013486567 0.74609488 0.0021616952
-0.042145014 -0.041507296 0.54908538 -0.68003058 0.024932386 0.73275971 0.016643755
0.058219362 -0.04684972 0.54649198 0.65162337 0.010830155 0.75846541 0.0026220728
0.062040303 -0.044154976 0.54294306 0.66713578 0.021075444 0.74463803 0.0017634432
0.055846024 -0.038274847 0.54915798 0.6421842 0.013599256 0.76642978 0.0045730653
0.063008524 -0.039224014 0.54265946 0.67373949 0.019725597 0.73870564 0.0014864249
-0.044956081 -0.027511723 0.54524267 -0.69704807 0.049378712 0.71532214 0.010903393
-0.047601111 -0.0099756755 0.54110813 -0.71354949 0.13150118 0.68815309 0.014796075
-0.043757301 0.016760647 0.54467058 -0.64021844 0.32994157 0.69372833 0.046874464
-0.03848581 0.028449517 0.54874277 -0.53459436 0.48115253 0.69476694 0.068602405
-0.036467448 0.036588531 0.54853642 -0.49249229 0.56534916 0.66168845 0.075643882
-0.035431929 0.04261525 0.54575586 -0.42186978 0.7017594 0.5740729 0.07508035
0.013168239 0.048966359 0.54520524 -0.028573049 0.9057467 0.4228552 0.089056194
0.027086737 0.049750555 0.54438376 0.068603076 0.92001438 0.38583308 0.082884192
0.036952149 0.048701033 0.5463202 0.21555935 0.86842448 0.44651213 0.086059116
0.051972814 0.045143664 0.54544699 0.49013734 0.67764944 0.54823047 0.072668254
-0.014969323 0.054676689 0.54752982 -0.16086039 0.89255226 0.42127725 0.076397307
