# .PCD v0.7 - Point Cloud Data file format
VERSION 0.7
FIELDS x y z normal_x normal_y normal_z curvature
SIZE 4 4 4 4 4 4 4
TYPE F F F F F F F
COUNT 1 1 1 1 1 1 1
WIDTH 526
HEIGHT 1
VIEWPOINT 0 0 0 1 0 0 0
POINTS 526
DATA ascii
0.27352953 0 0.20621994 -0 1 -0 0
0.28075609 0 0.20094749 -0 1 -0 0
0.29357755 0 0.20815119 -0 1 -0 0
0.3083235 0 0.2060397 -0 1 -0 0
0.31567895 0 0.20701225 -0 1 -0 0
0.32795581 0 0.2037943 -0 1 -0 0
0.34243965 0 0.20507367 -0 1 -0 0
0.35707533 0 0.2029409 -0 1 -0 0
0.36968809 0 0.2016699 -0 1 -0 0
0.39315149 0 0.2086996 -0 1 -0 0
0.1978495 0 0.21910191 -0 1 -0 0
0.27854329 0 0.2178095 -0 1 -0 0
0.28583255 0 0.21255602 -0 1 -0 0
0.2946057 0 0.21510614 -0 1 -0 0
0.3028138 0 0.2133908 -0 1 -0 0
0.31359902 0 0.21596165 -0 1 -0 0
0.3241204 0 0.21418545 -0 1 -0 0
0.35462895 0 0.21499449 -0 1 -0 0
0.39565331 0 0.21663859 -0 1 -0 0
0.1967876 0 0.2224797 -0 1 -0 0
0.27800789 0 0.2213295 -0 1 -0 0
0.28679457 0 0.22343092 -0 1 -0 0
0.29359919 0 0.2247247 -0 1 -0 0
0.30262119 0 0.2230833 -0 1 -0 0
0.31421289 0 0.2283344 -0 1 -0 0
0.32463709 0 0.22243389 -0 1 -0 0
0.34645075 0 0.2214127 -0 1 -0 0
0.39672992 0 0.22805713 -0 1 -0 0
0.1818624 0 0.2374966 -0 1 -0 0
0.28318071 0 0.2385235 -0 1 -0 0
0.29616281 0 0.23485319 -0 1 -0 0
0.32326686 0 0.232669 -0 1 -0 0
0.36145031 0 0.23512439 -0 1 -0 0
0.38599792 0 0.23200156 -0 1 -0 0
0.39969 0 0.2362427 -0 1 -0 0
0.40516955 0 0.23704851 -0 1 -0 0
0.1900453 0 0.2442148 -0 1 -0 0
0.20685171 0 0.24694981 -0 1 -0 0
0.2365558 0 0.2416013 -0 1 -0 0
0.33792591 0 0.2477233 -0 1 -0 0
0.39123669 0 0.24493919 -0 1 -0 0
0.40418947 0 0.2463339 -0 1 -0 0
0.43979579 0 0.2499983 -0 1 -0 0
0.54392087 0 0.2490638 -0 1 -0 0
0.1204407 0 0.25852501 -0 1 -0 0
0.1458489 0 0.25229499 -0 1 -0 0
0.18367051 0 0.2558566 -0 1 -0 0
0.19488689 0 0.25813991 -0 1 -0 0
0.2160826 0 0.2582626 -0 1 -0 0
0.2498837 0 0.2508435 -0 1 -0 0
0.26436591 0 0.258609 -0 1 -0 0
0.30351269 0 0.25525701 -0 1 -0 0
0.4056516 0 0.25447589 -0 1 -0 0
0.41012731 0 0.25602779 -0 1 -0 0
0.55302513 0 0.25917 -0 1 -0 0
0.1153037 0 0.264837 -0 1 -0 0
0.1461343 0 0.26801389 -0 1 -0 0
0.16144641 0 0.26391011 -0 1 -0 0
0.2359073 0 0.2653476 -0 1 -0 0
0.25525299 0 0.2646035 -0 1 -0 0
0.31666681 0 0.2610161 -0 1 -0 0
0.3251009 0 0.26128185 -0 1 -0 0
0.3351365 0 0.26311269 -0 1 -0 0
0.36890379 0 0.26179561 -0 1 -0 0
0.37801701 0 0.26204699 -0 1 -0 0
0.38327229 0 0.2614888 -0 1 -0 0
0.39792702 0 0.26730779 -0 1 -0 0
0.40532503 0 0.26441723 -0 1 -0 0
0.41350019 0 0.26936561 -0 1 -0 0
0.44699159 0 0.26859689 -0 1 -0 0
0.1266427 0 0.2742638 -0 1 -0 0
0.24904411 0 0.2768051 -0 1 -0 0
0.34611931 0 0.27422029 -0 1 -0 0
0.37936291 0 0.27668649 -0 1 -0 0
0.38581067 0 0.27219933 -0 1 -0 0
0.39436021 0 0.27613112 -0 1 -0 0
0.4354237 0 0.27127099 -0 1 -0 0
0.51632267 0 0.2719534 -0 1 -0 0
0.53016299 0 0.27091739 -0 1 -0 0
0.1210704 0 0.2846998 -0 1 -0 0
0.15783036 0 0.28331292 -0 1 -0 0
0.16305339 0 0.28634429 -0 1 -0 0
0.22812191 0 0.28904331 -0 1 -0 0
0.2981447 0 0.28144839 -0 1 -0 0
0.30181509 0 0.2819154 -0 1 -0 0
0.38858601 0 0.28263661 -0 1 -0 0
0.39470506 0 0.28733784 -0 1 -0 0
0.40488911 0 0.28940248 -0 1 -0 0
0.45258075 0 0.28465068 -0 1 -0 0
0.46572006 0 0.28735942 -0 1 -0 0
0.5106284 0 0.28715429 -0 1 -0 0
0.10100596 0 0.29192516 -0 1 -0 0
0.13263141 0 0.2912457 -0 1 -0 0
0.1603729 0 0.29313639 -0 1 -0 0
0.1945575 0 0.2956171 -0 1 -0 0
0.33464941 0 0.2990306 -0 1 -0 0
0.3422747 0 0.29251981 -0 1 -0 0
0.35268289 0 0.29001081 -0 1 -0 0
0.3890999 0 0.2964693 -0 1 -0 0
0.4096244 0 0.2920959 -0 1 -0 0
0.41489601 0 0.29734117 -0 1 -0 0
0.42677376 0 0.29833519 -0 1 -0 0
0.44574699 0 0.2995677 -0.016546039 0.99524212 0.096017554 0.02444298
0.47538042 0 0.29488778 -0 1 -0 0
0.1019431 0 0.30392531 -0 1 -0 0
0.12686969 0 0.30221969 -0 1 -0 0
0.156074 0 0.3047902 -0 1 -0 0
0.17657889 0 0.30785409 -0 1 -0 0
0.2474667 0 0.30737361 -0 1 -0 0
0.42635107 0 0.30651474 -0.01764307 0.99511456 0.097138166 0.026010457
0.47214049 0 0.30246699 -0.0025146073 0.99278527 0.11987955 0.037370492
0.4951531 0 0.30288431 -0 1 -0 0
0.1290779 0 0.31351981 -0 1 -0 0
0.13905489 0 0.31037509 -0 1 -0 0
0.4246732 0 0.31548929 -0.020843795 0.99377739 0.10941608 0.027604295
0.47118789 0 0.3106128 0.0067311954 0.99133235 0.1312052 0.041594569
0.097502373 0 0.3244454 -0 1 -0 0
0.1451731 0 0.3286151 -0 1 -0 0
0.1738961 0 0.32554999 -0 1 -0 0
0.46226549 0 0.32412961 -0.00019085666 0.96196288 0.2731801 0.073707819
0.47963029 0 0.32195881 0.064280681 0.94439584 0.32246637 0.08344537
0.1639773 0 0.3391473 -0 1 -0 0
0.18157271 0 0.33547425 -0 1 -0 0
0.45691511 0 0.33680591 -0.082024433 0.83468628 0.54458308 0.10589927
0.1124015 0 0.34797704 -0 1 -0 0
0.1497412 0 0.34752411 -0 1 -0 0
0.15424359 0 0.34830055 -0 1 -0 0
0.176625 0 0.34718379 -0 1 -0 0
0.097909138 0 0.3538453 -0 1 -0 0
0.1180829 0 0.35178161 -0 1 -0 0
0.1208252 0 0.35689309 -0 1 -0 0
0.13345391 0 0.35213929 -0 1 -0 0
0.15617016 0 0.35389474 -0 1 -0 0
0.16656139 0 0.35135946 -0 1 -0 0
0.1704122 0 0.3508049 -0 1 -0 0
0.26213405 0 0.35500807 -0 1 -0 0
0.2721099 0 0.35969341 -0 1 -0 0
0.31970459 0 0.35164791 -0 1 -0 0
0.4380098 0 0.35791311 -0.15330075 0.76713586 0.62289768 0.1146359
0.45436111 0 0.3564195 -0.13688743 0.76617759 0.62788033 0.13442311
0.11385091 0 0.3619858 -0 1 -0 0
0.1210212 0 0.36864054 -0 1 -0 0
0.27164793 0 0.36267105 -0 1 -0 0
0.28262749 0 0.36302131 -0 1 -0 0
0.45258367 0 0.36435962 -0.051645525 0.76317859 0.64412051 0.14356293
0.28689829 0 0.3794978 -0 1 -0 0
0.29206201 0 0.37513959 -0 1 -0 0
0.12569579 0 0.38952175 -0 1 -0 0
0.13731819 0 0.38301131 -0 1 -0 0
0.26208019 0 0.38034391 -0.83058983 0.42578122 0.35893011 0.15567182
0.28423202 0 0.3869223 -0 1 -0 0
0.034952801 0 0.39300719 -0 1 -0 0
0.15340561 0 0.3953847 -0 1 -0 0
0.2817007 0 0.39385349 0.5433318 0.44751561 0.71029603 0.17773657
0.61644298 0.00029640223 0.39921191 0.15369236 0.97139519 0.18102497 0.11262023
0.026670299 0 0.40392482 -0 1 -0 0
0.16392106 0 0.40130788 -0 1 -0 0
0.27944681 0 0.40554789 0.5433318 0.44751561 0.71029603 0.17773657
0.53944707 -0.010426246 0.41324255 0.24776193 0.94984913 0.19078967 0.1157821
0.58709663 -0.0012394973 0.41188413 0.26521671 0.91893739 0.29191464 0.11938603
0.6017735 -0.0022475119 0.4092125 0.25412947 0.66034281 0.70665812 0.13443458
0.02704384 0 0.41338769 -0 1 -0 0
0.037775591 0 0.41261041 -0 1 -0 0
0.52740055 -0.0097474409 0.422122 0.34628069 -0.11136928 0.93149692 0.11187514
0.55913162 -0.0055673742 0.41994426 0.38473916 -0.08876127 0.91874766 0.11833563
0.57659501 -0.0023062238 0.42205057 0.38413879 -0.09194009 0.91868615 0.10537095
0.58289087 -0.0048775175 0.41570294 0.24722846 0.95026267 0.18941717 0.11577971
0.01506196 0 0.4297795 -0 1 -0 0
0.036898911 0 0.42429817 -0 1 -0 0
0.040417101 0 0.42467341 -0 1 -0 0
0.15973119 0 0.42411149 -0 1 -0 0
0.1815076 0 0.4277575 -0 1 -0 0
0.5557633 -0.0043634987 0.42260653 0.38403484 -0.089130193 0.91900653 0.095605604
0.56683356 -0.0048782122 0.42215589 0.38413879 -0.09194009 0.91868615 0.10537095
0.57068735 -0.0029338193 0.42773825 0.38413879 -0.09194009 0.91868615 0.10537095
0.00091811601 0 0.43070871 -0 1 -0 0
0.048577901 0 0.43726921 -0 1 -0 0
0.53702772 -0.0031409902 0.43582535 0.40307757 -0.082318567 0.91145611 0.066185802
0.54333693 -0.0029964701 0.43286428 0.34846526 -0.10161088 0.9317978 0.077421412
0.55737436 -0.0038151357 0.4377616 0.38406891 -0.088388935 0.91906399 0.087438062
0.57175463 0.0014762275 0.43022507 0.38403484 -0.089130193 0.91900653 0.095605604
0.0043105329 0 0.4486196 -0 1 -0 0
0.04212961 0 0.4435634 -0 1 -0 0
0.1698624 0 0.44637859 -0 1 -0 0
0.51557785 0.0013183356 0.44474119 0.43707809 -0.13149999 0.88975865 0.067623816
0.52565873 -0.0015296901 0.44610164 0.42833298 -0.052489657 0.9020952 0.068920679
0.53221846 -0.00080883707 0.44815987 0.40459311 -0.080616809 0.91093647 0.063600451
0.59333152 -0.012813365 0.43762004 0.24722846 0.95026267 0.18941717 0.11577971
0.53003412 0.00021407235 0.45272017 0.42250413 -0.074164689 0.90332162 0.061424673
0.53454262 -0.00083066529 0.45543182 0.40078697 -0.081474714 0.91254139 0.066536143
0.54518801 -0.0016989227 0.44005099 0.34846526 -0.10161088 0.9317978 0.077421412
0.0059149559 0 0.46625289 -0 1 -0 0
0.47177756 -0.00070094573 0.46143594 -0.1326302 0.93238127 -0.33626533 0.0055601783
0.52040917 0.0072765439 0.45908728 0.41254967 -0.096027218 0.90585953 0.067984939
0.46717432 0.0016327082 0.47509125 0.2956613 -0.73037386 0.61574215 0.0069492068
0.4701966 0.0028853721 0.47897708 0.28818026 -0.74782676 0.5980863 0.0064477231
0.43640861 -0.00025355403 0.49697638 0.52803707 -0.21362004 0.82191443 0.012734029
0.4591051 0.0030010422 0.48955265 0.42970455 -0.47329003 0.7689932 0.0072542964
0.42116958 -0.00029844441 0.50568867 0.52803707 -0.21362004 0.82191443 0.012734029
0.42126399 0.00016542402 0.50569427 0.52803707 -0.21362004 0.82191443 0.012734029
0.40817493 -0.0003038643 0.51533693 0.43981671 -0.26231036 0.85892642 0.0040330328
0.41265574 0.00040401096 0.51212525 0.44359693 -0.40024969 0.8018865 0.01024097
0.30933851 -0.0027933146 0.53214514 0.40520123 0.40017536 0.82199246 0.1445352
0.28965354 -0.0014699402 0.55055541 0.31726706 0.62420392 0.7139405 0.16123873
0.3293938 0.00088227255 0.54291523 0.36134753 -0.025394304 0.93208534 0.13507871
0.34245521 -2.3822744e-05 0.54067206 0.36095762 -0.6078555 0.70726323 0.050303619
0.2777248 -0.0076831835 0.55735832 0.51232541 0.36758503 0.77614683 0.16032085
0.29837549 -0.0028131919 0.55357504 0.057988673 0.8814038 0.4687905 0.15848607
0.27989754 -0.00097048451 0.5696348 -0.47043729 0.882056 0.025808554 0.17504853
0.33003232 -0.0018286912 0.56512618 0.74943203 -0.42702582 0.50596499 0.16426663
0.3324272 -0.0021333466 0.56780255 0.66053569 -0.68358451 0.31049106 0.16541547
0.32919019 -0.0035441488 0.57662034 -0.45672312 0.88956636 -0.0087032774 0.11544412
0.34361649 0.0003938083 0.57081932 -0.44521642 0.87317926 -0.1983439 0.11831427
0.2758075 -0.00094449776 0.58254868 -0.30615756 0.92504209 0.22486591 0.16618702
0.27383649 5.2182881e-05 0.58910531 -0.29534119 0.94908476 0.1095978 0.10911666
0.27279714 4.3427549e-06 0.592305 -0.29534119 0.94908476 0.1095978 0.10911666
0.27309105 -3.8885468e-05 0.5999772 -0.30384511 0.9456957 0.11548918 0.11672126
0.27307296 -5.4658733e-05 0.59964478 -0.29534069 0.94908494 0.10959806 0.10911677
0.27313691 1.7850673e-05 0.60082257 -0.30384511 0.9456957 0.11548918 0.11672126
0.28130805 -0.010454791 0.62615246 -0.34306002 0.93139291 0.12172538 0.13518517
0.30644801 0 0.64082831 -0.21341941 0.97526592 0.057520155 0.097541317
0.0080892928 0 1.178063 -0 1 -0 0
0.03264774 0 1.185533 -0 1 -0 0
0.0076356679 0 1.193772 -0 1 -0 0
0.098529764 0 1.468752 -0 1 -0 0
0.089099452 0 1.475837 -0 1 -0 0
0.087375723 0 1.485381 -0 1 -0 0
0.087375723 -0.51989239 1.485381 0.46939796 -0.86948943 -0.15379779 0.00062329439
0.038576417 -0.25461939 0.42783055 -0.52558583 -0.81282026 -0.25116277 0.008656173
0.037670527 -0.25333294 0.42578569 -0.52558583 -0.81282026 -0.25116277 0.008656173
0.093407758 -0.27144217 0.32525405 0.086341225 -0.99621004 -0.010523348 0.017109156
0.11227376 -0.25394768 0.34891722 0.084099814 -0.99411374 0.06830088 0.022164732
0.10077177 -0.25125203 0.29324487 0.06422434 -0.99772942 0.020279163 0.015587062
0.1205399 -0.25120193 0.25873417 0.05635374 -0.99685651 -0.055688459 0.011245209
0.10079387 -0.25122565 0.29062128 0.06422434 -0.99772942 0.020279163 0.015587062
0.11545286 -0.25064957 0.26515147 0.05635374 -0.99685651 -0.055688459 0.011245209
0.11438632 -0.24914791 0.36123303 0.10045597 -0.99059147 0.092936009 0.027776727
0.15471895 -0.24797358 0.34859526 0.094976082 -0.99186045 0.084808037 0.020963034
0.42791662 -0.2451193 0.30740246 0.079010107 -0.97980678 0.18367395 0.018050913
0.4278222 -0.23784511 0.2974194 0.085159287 -0.9845525 0.1529846 0.01606933
0.37098756 -0.24887875 0.20399727 -0.031803966 -0.99830627 0.048715454 0.0015620873
0.36191109 -0.25194892 0.23623838 -0.0085951239 -0.99944955 0.032042056 0.0022130061
0.41498515 -0.23639321 0.29778779 0.095580518 -0.9851855 0.14238663 0.015564354
0.43802598 -0.073034734 0.35789523 0.85790342 0.02698897 0.51310176 0.035971981
0.41246936 -0.23771875 0.29480207 0.10066576 -0.98565412 0.13547066 0.014262218
0.55628622 -0.13036954 0.42544955 0.37699866 -0.1718629 0.91012919 0.0028481144
0.28219143 -0.2472488 0.23772228 0.00032245182 -0.99839199 0.056686681 0.003698823
0.27704269 -0.25168616 0.22194193 0.0068325121 -0.99542582 0.095292464 0.0029592742
0.27271259 -0.25134468 0.20974824 -0.024883194 -0.99648452 0.079996116 0.004467865
0.4725059 -0.23975821 0.29380766 0.03839384 -0.96624291 0.25475582 0.017941063
0.47219571 -0.23541537 0.30493882 0.029626675 -0.9679426 0.24941771 0.022142824
0.44572142 -0.23495027 0.29964897 0.060013592 -0.97773099 0.20109843 0.015390948
0.38853619 -0.25088125 0.23262659 0.0041725375 -0.99791974 0.064333379 0.0057377443
0.45049492 -0.24081953 0.28226751 0.063994974 -0.98293734 0.1724495 0.014643308
0.52607858 -0.0072354712 0.41574985 0.34628069 -0.11136928 0.93149692 0.11187514
0.38872507 -0.24648188 0.28278756 0.050041396 -0.99204844 0.11548056 0.015298897
0.38603893 -0.24461567 0.29283437 0.067745298 -0.98848897 0.13527793 0.017318917
0.39637116 -0.24857919 0.26651955 0.056788951 -0.99382025 0.095374703 0.014697687
0.33926219 -0.24805954 0.26369968 -0.0088666789 -0.99946308 0.031542737 0.0019630643
0.32582375 -0.01004415 0.57826263 -0.19258201 0.97735822 0.087652683 0.065800615
0.27191642 -0.032214288 0.58995748 -0.34063637 0.93400449 0.10771514 0.12464365
0.15298688 -0.23567523 0.39519802 0.12842681 -0.95459265 0.26881108 0.040610041
0.14946683 -0.23956731 0.39591271 0.12842681 -0.95459265 0.26881108 0.040610041
0.11102397 -0.26235488 0.36459318 0.1018467 -0.98920548 0.1053556 0.028340353
0.12822191 -0.25324517 0.31491512 0.04926132 -0.99878544 -0.00096231565 0.01142073
0.12350535 -0.26058286 0.38903219 0.14542992 -0.95307487 0.26551542 0.041035604
0.27801973 -0.25042444 0.21803471 0.0072059389 -0.99552679 0.094204322 0.0027705024
0.27175847 -0.032532718 0.58936161 -0.34063637 0.93400449 0.10771514 0.12464365
0.15672925 -0.24956608 0.35480583 0.13633318 -0.98105437 0.13764298 0.027354216
0.13623938 -0.24484022 0.38194519 0.15336134 -0.96199 0.22595468 0.037558168
0.15612707 -0.24895643 0.30472431 0.044207759 -0.99898386 0.0087776892 0.0073560225
0.16664799 -0.24981675 0.34979802 0.080499619 -0.99224299 0.094728641 0.02143307
0.16381374 -0.24871063 0.33921668 0.097253092 -0.9921658 0.078415319 0.019107698
0.18231685 -0.24980719 0.33197901 0.05089023 -0.99465638 0.089826949 0.012777153
0.17391118 -0.25030246 0.32572597 0.044103425 -0.99573529 0.081032395 0.011641237
0.17643186 -0.25107485 0.3079322 0.026797885 -0.99961716 0.0068814573 0.0040726908
0.16145439 -0.25017512 0.26390693 0.043231994 -0.99794376 -0.04732056 0.0040353909
0.28914461 -0.24887058 0.22433735 -0.009942567 -0.99656612 0.08220131 0.0034686343
0.30341747 -0.2444389 0.25519854 -0.027328484 -0.9994173 0.020451128 0.0043461346
0.2931338 -0.24816735 0.22466443 -0.009942567 -0.99656612 0.08220131 0.0034686343
0.26441231 -0.24037588 0.25745678 -0.0097458744 -0.9992165 0.038359143 0.0056310622
0.29024121 -0.0010438751 0.55021036 0.31726706 0.62420392 0.7139405 0.16123873
0.15853122 -0.25098899 0.2822834 0.042076811 -0.9989031 -0.020544874 0.0034676269
0.26975313 -0.032107268 0.58063656 -0.32449868 0.94045341 0.10123249 0.11573738
0.40228805 -0.24653351 0.26383731 0.062325437 -0.99345785 0.095692731 0.013962382
0.27277178 -0.2485587 0.20408724 -0.020124571 -0.99461752 0.10164097 0.0043167411
0.32432076 -0.2451629 0.22151372 -0.019495033 -0.9996689 0.016794384 0.0027008371
0.31792247 -0.2463322 0.21462569 -0.023155628 -0.9981401 0.05639185 0.002711816
0.33238709 0.085619293 0.56812918 -0.42793339 0.55346978 0.71452373 0.026302956
0.39052823 -0.2469472 0.27889338 0.050523527 -0.99258369 0.11056694 0.014949939
0.51656932 0.00069316901 0.44215813 0.41983581 -0.090951443 0.90303141 0.07468266
0.41653341 -0.23556708 0.29854861 0.091555156 -0.98556012 0.14243887 0.01450533
0.45609906 -0.2441611 0.28319654 0.061201829 -0.98014718 0.18858927 0.013746113
0.47812465 -0.23953828 0.29513276 0.019822065 -0.96893537 0.24651803 0.02361293
0.39830425 -0.24852355 0.26516521 0.056788951 -0.99382025 0.095374703 0.014697687
0.38736364 -0.25109059 0.23241031 0.0031924271 -0.99793553 0.064144604 0.0055691749
0.440855 -0.23682961 0.24888176 0.067061402 -0.98612881 0.15183093 0.013188744
0.30185646 -0.24751709 0.21318933 -0.0020458044 -0.99732995 0.072998248 0.0034820912
0.51553649 -0.23636746 0.27178916 0.099030815 -0.9927386 0.068285801 0.0089590037
0.56092578 -0.096253119 0.42566356 0.77306235 -0.11809613 0.62323987 0.007723514
0.58599085 -0.026216311 0.40844643 0.39754707 -0.0010400021 0.9175812 0.12521243
0.40208563 -0.2465023 0.26481643 0.062325437 -0.99345785 0.095692731 0.013962382
0.27807227 -0.016626129 0.5692209 -0.27474275 0.95602363 0.1026409 0.10121689
0.55881488 0.072964072 0.43865508 0.54842556 0.0024510478 0.83619577 0.019160544
0.5324192 0.069115445 0.44858745 0.4669545 -0.027534204 0.8838526 0.026640469
0.32796663 -0.24773829 0.20406088 -0.016471507 -0.99874055 0.047391467 0.0023145608
0.34334809 -0.25029424 0.2037733 -0.013614516 -0.99874467 0.04820507 0.0019957898
0.3179794 -0.24687876 0.20928763 -0.018622156 -0.99843746 0.052686676 0.0028500021
0.3260527 -0.24654184 0.21160504 -0.019340197 -0.99855828 0.050072834 0.0023485755
0.28618154 -0.016857443 0.54852974 -0.27231431 0.95698017 0.10016984 0.11874218
0.15657616 -0.24911672 0.2844246 0.053988129 -0.99846625 -0.012266815 0.0083497688
0.28901097 -0.24829715 0.21091425 -0.0055295397 -0.99592477 0.090018094 0.0034296084
0.3993164 -0.24540453 0.2751298 0.063699812 -0.9920696 0.10835234 0.013778474
0.35739508 -0.24834849 0.21791933 -0.009011724 -0.99960244 0.026714787 0.0017078563
0.19768637 -0.23476398 0.22082202 0.042780302 -0.99890274 -0.019060723 0.009509041
0.19486541 -0.25015402 0.25783336 0.048253715 -0.99598414 -0.075413063 0.0042994008
0.23689491 -0.24028996 0.26664582 -0.009439039 -0.99995369 0.0018859606 0.006192565
0.28087673 -0.24853224 0.20087533 0.016966173 -0.99134684 0.13016756 0.0022807787
0.19705254 -0.23614724 0.22093906 0.042780302 -0.99890274 -0.019060723 0.009509041
0.2474667 -0.25157899 0.30737361 0.18262318 -0.94893324 0.25724402 0.019939734
0.28775048 -0.24903253 0.22239216 -0.009942567 -0.99656612 0.08220131 0.0034686343
0.29984185 -0.24757314 0.21454024 -0.0020458044 -0.99732995 0.072998248 0.0034820912
0.32623765 -0.2419191 0.23413992 -0.020082982 -0.99953109 0.023115298 0.0022247615
0.29268605 -0.24774952 0.20674817 0.0016397136 -0.99673474 0.080729611 0.0034611763
0.324671 -0.24307288 0.2599442 -0.020570086 -0.99916136 0.035404529 0.0021469253
0.31458265 -0.24401982 0.22898042 -0.026028104 -0.99937749 0.023815161 0.0034081666
0.30834591 -0.24836151 0.20608783 -0.010152829 -0.99728638 0.072916128 0.0034589258
0.30181122 -0.24776864 0.28193682 -0.026419383 -0.99953008 0.015548475 0.0048624054
0.29674318 -0.24610271 0.23535641 -0.031950831 -0.99887276 0.03510597 0.0045335614
0.28466845 -0.24907544 0.21214029 0.0018524114 -0.99548548 0.094895862 0.0031442365
0.15895358 -0.24907933 0.35323808 0.11651664 -0.98789608 0.10239675 0.022788102
0.23009714 -0.24643095 0.28759757 0.031867076 -0.99662524 -0.075648136 0.0048589553
0.1458068 -0.24908951 0.25241071 0.036778841 -0.99686146 -0.070103943 0.004854654
0.15485466 -0.24808078 0.34929174 0.097890876 -0.99095345 0.091807492 0.021507656
0.28316104 -0.25002295 0.22068535 0.0065258658 -0.9955678 0.093820326 0.0029454934
0.18189545 -0.24395564 0.2379161 0.056037907 -0.99502546 -0.082365274 0.0048986902
0.24756742 -0.24043079 0.25664917 -0.0089221587 -0.99941158 0.033118244 0.0055356924
0.30035421 -0.24335697 0.28248146 -0.024136534 -0.99957275 0.0164843 0.0050928504
0.24554789 -0.23876819 0.27397376 -0.016570585 -0.99982405 0.0087921545 0.0068224245
0.41436422 0.014736132 0.51319581 0.44359693 -0.40024969 0.8018865 0.01024097
0.33740938 -0.2433037 0.24810666 -0.0080100056 -0.9995259 0.02972923 0.0018170817
0.11755263 -0.24510126 0.35029468 0.096222013 -0.99178773 0.084252864 0.021976313
0.036779243 -0.2485074 0.41222697 -0.5255993 -0.81279999 -0.2512002 0.0086555602
0.038877524 -0.26061919 0.4412013 -0.52558583 -0.81282026 -0.25116277 0.008656173
0.040304571 -0.25330293 0.42444274 -0.52558583 -0.81282026 -0.25116277 0.008656173
0.20618545 -0.246286 0.24831499 0.012102203 -0.99939841 -0.032501109 0.0075793075
0.27284151 -0.021260679 0.5997842 -0.30384511 0.9456957 0.11548918 0.11672126
0.18366569 -0.24999672 0.25585181 0.052397449 -0.99675161 -0.061162453 0.0045184949
0.14640132 -0.24944702 0.26785827 0.048706021 -0.99784827 -0.043892767 0.0043422277
0.17616831 -0.24812713 0.34725374 0.092722014 -0.99010503 0.10533105 0.021673165
0.14529163 -0.24808095 0.32858384 0.091429308 -0.99363929 0.065738805 0.01687517
0.13940808 -0.24700969 0.31035742 0.039579362 -0.99914521 0.011928685 0.0095997304
0.13268456 -0.24869482 0.2912769 0.04296834 -0.99905097 0.0071367393 0.0091946488
0.12672849 -0.24864419 0.27401412 0.049808513 -0.99832046 0.029585108 0.011633139
0.15786752 -0.25030124 0.357591 0.13633318 -0.98105437 0.13764298 0.027354216
0.1597206 -0.22956972 0.39984724 0.15271051 -0.94939756 0.27445167 0.041036949
0.12101007 -0.24791226 0.35728404 0.095139556 -0.99078804 0.096372217 0.02578393
0.12123708 -0.25063285 0.36617407 0.10045597 -0.99059147 0.092936009 0.027776727
0.11846989 -0.24608277 0.35267672 0.096698485 -0.991777 0.083832249 0.0238009
0.10427982 -0.25486168 0.29916409 0.050292425 -0.99868262 0.010183317 0.01336863
0.16705792 -0.225329 0.40074208 0.15527855 -0.9487325 0.27530956 0.042623706
0.16316746 -0.25125578 0.28635558 0.048582166 -0.99859667 -0.02108614 0.0033816979
0.13186111 -0.25312048 0.38774323 0.14579575 -0.95916039 0.24239391 0.038469318
0.043906637 -0.26301792 0.4386346 -0.52558583 -0.81282026 -0.25116277 0.008656173
0.16043107 -0.25064835 0.29312864 0.039802432 -0.99913508 0.012034516 0.0073415772
0.19035016 -0.24718897 0.24700901 0.057387672 -0.99496776 -0.082132354 0.0044252239
0.30644801 -0.028968729 0.64082831 -0.60509056 0.7828843 0.14476787 0.22170225
0.19328631 -0.2476106 0.29513413 0.041375145 -0.99858397 -0.033438809 0.0033289802
0.54391915 -0.22688298 0.2489613 -0.022156773 -0.98903137 -0.14603382 0.0095774289
0.53652883 -0.0091535682 0.40953436 0.22722168 0.97384077 0.002096768 0.12253767
0.60153395 -0.0077478033 0.40875322 0.22746876 0.63273114 0.74020892 0.13529506
0.55303854 -0.23268129 0.25997493 -0.022156773 -0.98903137 -0.14603382 0.0095774289
0.53019577 -0.23597489 0.27005401 0.19052868 -0.96005696 0.20491348 0.0055564689
0.47115833 -0.23324993 0.30928913 0.019096119 -0.96954626 0.24416241 0.026277985
0.46643811 -0.24285939 0.28631482 0.050949506 -0.97561204 0.213507 0.015545386
0.44692707 -0.24496546 0.2688553 0.066574365 -0.984936 0.15959005 0.012891247
0.39146701 -0.24983826 0.24499266 0.031835172 -0.99587148 0.085008256 0.012186224
0.35527635 -0.24712528 0.20119661 -0.018586047 -0.99903929 0.039688479 0.0015128508
0.40735874 -0.24158014 0.28870615 0.096714981 -0.98658508 0.13151482 0.014418053
0.35888699 -0.24776685 0.20468865 -0.01919619 -0.99888039 0.043238536 0.0014075073
0.53395939 0.07299614 0.4484607 0.46529973 -0.02403721 0.88482678 0.02631399
0.29525921 -0.24769199 0.20884673 0.0016397136 -0.99673474 0.080729611 0.0034611763
0.32210085 -0.24567369 0.21629237 -0.019253589 -0.99916458 0.036048766 0.0026150323
0.31357124 -0.24757279 0.20574118 -0.016012853 -0.99821866 0.057472777 0.0031844717
0.49521729 -0.2342491 0.30307782 0.036687046 -0.990453 0.13287887 0.027127987
0.59169096 -0.023303157 0.4432798 0.24787775 0.94983405 0.19071411 0.12109307
0.5689016 -0.1190729 0.41952723 0.37699866 -0.1718629 0.91012919 0.0028481144
0.39313635 -0.25110438 0.2090504 -0.0064767376 -0.99950683 0.030727303 0.0031107296
0.3957881 -0.24968892 0.2167403 -0.0047496757 -0.99925739 0.038238455 0.0031211628
0.56338269 0.097109564 0.4203527 0.48509622 0.19116852 0.85330904 0.041509975
0.47942254 -0.22925052 0.32132578 0.015581387 -0.94317782 0.33192286 0.029564291
0.43542704 -0.24551679 0.2709823 0.068426408 -0.98584628 0.15305236 0.013588408
0.40739989 -0.24594069 0.23659348 0.059968784 -0.99363226 0.095386557 0.013827359
0.39849702 -0.24825406 0.22687984 0.020483974 -0.99758798 0.066322088 0.0062132655
0.40445048 -0.24706379 0.24484353 0.06004646 -0.99427468 0.088387564 0.013872559
0.56036633 -0.021950345 0.45318612 0.3748062 -0.035484571 0.92642385 0.1246084
0.54374039 -0.01322322 0.44289875 0.18136515 0.98325688 -0.017677547 0.10493481
0.42953283 -0.23296201 0.29989281 0.06492389 -0.97980422 0.18912552 0.017908487
0.35075462 -0.24999204 0.21253857 -0.0090307649 -0.99951136 0.029924259 0.0015957897
0.39442736 -0.2480686 0.22771578 0.0017184778 -0.99779397 0.066365175 0.0051777679
0.38968775 -0.24854849 0.27065176 0.043899648 -0.99439698 0.096163213 0.013691732
0.38324887 -0.2483646 0.26153129 0.034139019 -0.99572414 0.085836597 0.012488646
0.34330261 -0.24986362 0.20515878 -0.013604419 -0.99889868 0.044903904 0.0018762505
0.55983949 0.071346633 0.4397018 0.55528527 -0.010575381 0.83159274 0.022036364
0.56037003 0.00409442 0.44036385 0.38411653 -0.088266507 0.91905582 0.080304466
0.3937467 -0.2444129 0.28498814 0.067513801 -0.9901219 0.12288394 0.015636964
0.45394883 -0.062206708 0.36318836 0.81812847 0.04259057 0.57345599 0.030854974
0.38275263 -0.24820651 0.27435699 0.045931913 -0.99468529 0.092149824 0.013976476
0.34794626 -0.24737898 0.22372949 -0.0040821517 -0.99971783 0.023400554 0.0017343472
0.40618917 -0.245344 0.26363215 0.076480895 -0.99261004 0.094212025 0.013163577
0.34371191 -0.24733783 0.22059384 -0.0053762491 -0.99983346 0.017437486 0.0017532405
0.3689605 -0.24949698 0.26230192 0.021324428 -0.99648273 0.081039585 0.010434645
0.53747874 0.0089532491 0.45846355 0.40198651 -0.11089288 0.90890574 0.069037564
0.34046188 -0.24888621 0.20891453 -0.013925586 -0.99914473 0.038935822 0.0018077437
0.45125005 -0.067856804 0.36549592 0.85790342 0.02698897 0.51310176 0.035971981
0.34590524 -0.24720116 0.27325371 -0.0053438824 -0.99903238 0.043655064 0.0031218578
0.32097831 -0.24470934 0.23267268 -0.027104668 -0.99932909 0.024632215 0.0026725703
0.3103466 -0.24715674 0.21352977 -0.014220631 -0.99781519 0.064518549 0.0033308943
0.31217846 -0.24661475 0.21859886 -0.020906983 -0.99805468 0.058735538 0.0032188939
0.47168279 0.0034446223 0.48058546 0.27473766 -0.77450275 0.56979364 0.0061078928
0.31671244 -0.24283762 0.26112297 -0.033413518 -0.99876779 0.036693249 0.0028688156
0.29034951 -0.24859478 0.21552864 -0.0055295397 -0.99592477 0.090018094 0.0034296084
0.28477469 -0.24919504 0.21389553 0.0018524114 -0.99548548 0.094895862 0.0031442365
0.2884517 -0.24905707 0.22563525 -0.00492401 -0.99673319 0.080615133 0.0032817344
0.40442407 -0.24730134 0.2611067 0.062327553 -0.99345511 0.095719248 0.013951894
0.42325398 0.013860875 0.50645185 0.52803707 -0.21362004 0.82191443 0.012734029
0.43969905 0.00163463 0.49552429 0.52803707 -0.21362004 0.82191443 0.012734029
0.25501686 -0.24075516 0.26264527 -0.0051003415 -0.99940723 0.034047525 0.0054684454
0.41488278 0.011958781 0.51235747 0.44359693 -0.40024969 0.8018865 0.01024097
0.2363407 -0.24887674 0.24106409 -0.014858881 -0.99974328 0.017107219 0.0056485469
0.28111199 -0.18318084 0.36586115 -0.7324456 -0.026153052 0.68032306 0.0096613308
0.27354768 -0.20981374 0.36104468 -0.8353039 -0.088029429 0.54269546 0.010035266
0.28428519 -0.135996 0.38723856 -0.57709485 -0.18213786 0.79610759 0.014109553
0.28457224 -0.12137829 0.38681382 -0.59526956 -0.22500804 0.77137899 0.027360966
0.21588439 -0.24735992 0.25764987 0.0042274189 -0.99961007 -0.027599474 0.0069562686
0.27944681 -0.077689573 0.40554789 -0.96049762 -0.085425116 0.26485279 0.02155664
0.29104587 -0.11542253 0.374603 -0.59526956 -0.22500804 0.77137899 0.027360966
0.27183601 -0.20723912 0.36020663 -0.8353039 -0.088029429 0.54269546 0.010035266
0.33010322 -0.0017987543 0.564906 0.74943203 -0.42702582 0.50596499 0.16426663
0.28351709 -0.10764313 0.39339557 -0.90013903 -0.34329253 0.26814151 0.057610035
0.41230145 0.020358725 0.51564521 0.46046171 -0.030646127 0.88715047 0.0044626216
0.34372091 0.071725331 0.57077539 -0.82503724 -0.080657713 0.55929232 0.046470672
0.18070942 -0.24761306 0.33922005 0.057399932 -0.9946925 0.085394129 0.016434392
0.17039187 -0.24890248 0.35082009 0.092722014 -0.99010503 0.10533105 0.021673165
0.3025499 -0.24705736 0.22306779 -0.016938314 -0.99707782 0.074490398 0.0032003021
0.14952932 -0.2481048 0.34720972 0.095918484 -0.99213386 0.080437034 0.020120805
0.16008252 -0.2105006 0.42345884 0.4492552 -0.80885017 0.37938255 0.01847491
0.15182146 -0.24887082 0.35176533 0.097890876 -0.99095345 0.091807492 0.021507656
0.15749429 -0.23111022 0.39893672 0.12842681 -0.95459265 0.26881108 0.040610041
0.27234671 -0.019819899 0.59969926 -0.30384511 0.9456957 0.11548918 0.11672126
0.12080868 -0.25289911 0.37203133 0.13364545 -0.97257704 0.19034892 0.036400471
0.098529764 -0.51093239 1.468752 0.46939796 -0.86948943 -0.15379779 0.00062329439
0.089099452 -0.51725781 1.475837 0.46939796 -0.86948943 -0.15379779 0.00062329439
0.029803099 -0.2389937 0.39282197 -0.5255993 -0.81279999 -0.2512002 0.0086555602
0.026964977 -0.23789713 0.4059307 -0.5255993 -0.81279999 -0.2512002 0.0086555602
0.02520811 -0.24180996 0.40946826 -0.5255993 -0.81279999 -0.2512002 0.0086555602
0.005721238 -0.23832679 0.46618912 -0.52558583 -0.81282026 -0.25116277 0.008656173
0.0044816132 -0.24351507 0.44841358 -0.52558583 -0.81282026 -0.25116277 0.008656173
0.026900131 -0.2387404 0.40533641 -0.5255993 -0.81279999 -0.2512002 0.0086555602
0.014264286 -0.24256207 0.42937085 -0.52558583 -0.81282026 -0.25116277 0.008656173
0.03264774 -0.48073709 1.185533 nan nan nan nan
0.008327079 -0.2410492 0.43383428 -0.52558583 -0.81282026 -0.25116277 0.008656173
0.028075801 -0.23964342 0.40594852 -0.5255993 -0.81279999 -0.2512002 0.0086555602
0.12656952 -0.24834797 0.29947597 0.041730236 -0.99908054 0.0098282453 0.010725734
0.12166516 -0.24695286 0.28671217 0.034942158 -0.99927413 0.015172048 0.0084859766
0.13194917 -0.24541897 0.3477689 0.096222013 -0.99178773 0.084252864 0.021976313
0.11278102 -0.23377572 0.34675053 0.096698485 -0.991777 0.083832249 0.0238009
0.15398496 -0.23504631 0.39541629 0.12842681 -0.95459265 0.26881108 0.040610041
0.10041829 -0.2469943 0.34870616 0.099057958 -0.99405867 0.045109414 0.024383839
0.27187636 -0.20445663 0.3603096 -0.8353039 -0.088029429 0.54269546 0.010035266
0.2727946 -0.025948549 0.58964002 -0.29534119 0.94908476 0.1095978 0.10911666
0.3089838 0.099728294 0.53200918 -0.42793339 0.55346978 0.71452373 0.026302956
0.28813854 -0.11000973 0.38015273 -0.59526956 -0.22500804 0.77137899 0.027360966
0.27061942 -0.065627523 0.6011104 -0.99015063 0.052117012 0.12994426 0.069230892
0.16317217 -0.24917997 0.35050485 0.11651664 -0.98789608 0.10239675 0.022788102
0.32522479 -0.24241859 0.25953272 -0.020068815 -0.99917918 0.035189185 0.0021081348
0.43742841 0.096253797 0.49617511 -0.011770033 0.99990231 -0.0075375387 0
0.43183935 -0.004782673 0.49887675 0.52803707 -0.21362004 0.82191443 0.012734029
0.42099249 0.096140489 0.50725102 0.39432088 0.073353805 0.91604054 0.0013851118
0.2652913 -0.18119894 0.35747629 -0.7324456 -0.026153052 0.68032306 0.0096613308
0.25863805 -0.20685785 0.35317454 -0.80042839 -0.15873517 0.5780291 0.01792712
0.32203281 0.076231621 0.55482388 -0.68945473 -0.032509003 0.7235989 0.03188543
0.26208019 -0.078016467 0.38034391 -0.97571409 -0.21024075 0.061488938 0.020617219
0.29802799 0.068037242 0.55369133 -0.093481295 0.071014091 0.99308521 0.082202449
0.27885702 -0.018774467 0.6285845 -0.58959377 0.79089189 0.16391863 0.18476181
0.27203757 -0.026502848 0.59391123 -0.30383295 0.94569898 0.11549409 0.11672086
0.39714432 -0.24811833 0.22960947 0.011813046 -0.99681073 0.078923203 0.0062071709
0.40356618 -0.24809597 0.23746227 0.048663601 -0.99386793 0.099288948 0.013886075
0.54221046 -0.0034864123 0.43103164 0.34846526 -0.10161088 0.9317978 0.077421412
0.54367214 -0.0048466758 0.4305099 0.36997172 -0.094429299 0.92423159 0.078794524
0.39946097 -0.24844258 0.23630862 0.03409636 -0.99516571 0.092101119 0.012886713
0.40362972 -0.24742879 0.24773435 0.051571701 -0.99425983 0.09374319 0.013714234
0.53564185 -0.0038221327 0.43312386 0.38516149 -0.088320747 0.91861308 0.076766409
0.41007832 -0.2466121 0.25602028 0.068907857 -0.99315655 0.09429615 0.013278277
0.40527189 -0.24709877 0.25441647 0.068513289 -0.99374145 0.088225171 0.013647759
0.38126293 -0.24956496 0.23101443 -0.0036225312 -0.99885625 0.047675196 0.0042294441
0.40845555 -0.24489163 0.26706305 0.070826121 -0.99229175 0.10168954 0.012917479
0.51371145 0.089052908 0.45005828 0.50946552 0.1786249 0.84174705 0.016674712
0.39803582 -0.24696766 0.26944217 0.063066825 -0.99275416 0.10228189 0.014221165
0.40068734 -0.2441247 0.28865552 0.087199636 -0.98758543 0.13065697 0.014622989
0.39456448 -0.24431396 0.28858837 0.067065164 -0.99018192 0.12264569 0.014815938
0.37936687 -0.24845316 0.27668229 0.039491836 -0.99442267 0.097795673 0.012744866
0.39548537 -0.24664478 0.2752198 0.063066825 -0.99275416 0.10228189 0.014221165
0.45986459 0.096469916 0.49026701 -0.19093159 0.86809379 -0.45821211 0.00093426916
0.42220408 0.012943968 0.50708187 0.52803707 -0.21362004 0.82191443 0.012734029
0.52747077 0.096174419 0.45844072 0.50946552 0.1786249 0.84174705 0.016674712
0.57916588 -0.0259593 0.42511806 0.39880827 -0.010992273 0.91696846 0.11309611
0.52266866 0.088118337 0.45368779 0.50946552 0.1786249 0.84174705 0.016674712
0.53095144 0.0021480026 0.45401713 0.40078697 -0.081474714 0.91254139 0.066536143
0.52705121 0.064703226 0.45009843 0.46564171 -0.071735755 0.88206112 0.047105536
0.45431337 -0.053819917 0.35647234 0.99344683 -0.11192162 -0.023169238 0.13876918
0.42334756 -0.23236915 0.30084544 0.083781101 -0.98361415 0.15963654 0.016359946
0.42715275 -0.23366527 0.29908159 0.085159287 -0.9845525 0.1529846 0.01606933
0.42845938 -0.2157364 0.29811275 0.062088881 -0.97762859 0.20096585 0.018225897
0.46509191 -0.24253453 0.2870608 0.05477066 -0.97650892 0.20839997 0.015372002
0.35270283 -0.25299004 0.29000092 0.0092088422 -0.99750793 0.069950841 0.0069891466
0.42986619 -0.21658553 0.3019858 0.062088881 -0.97762859 0.20096585 0.018225897
0.41293919 -0.24403164 0.26893058 0.076068349 -0.99045366 0.11495747 0.013869049
0.55731297 0.0019667987 0.44114214 0.38411653 -0.088266507 0.91905582 0.080304466
0.56833029 -0.12447722 0.42054933 0.37699866 -0.1718629 0.91012919 0.0028481144
0.50999987 -0.23662184 0.28623039 0.10591669 -0.9913969 0.076901339 0.0084475297
0.58265883 -0.11915238 0.41497934 0.37699866 -0.1718629 0.91012919 0.0028481144
0.57245421 -0.06119759 0.43151531 0.33820707 -0.042990569 0.94008929 0.060260907
0.3349331 -0.25083748 0.29852703 -0.0070583071 -0.99997348 0.001784995 0.0053412491
0.34265184 -0.25201336 0.29245609 -0.004078215 -0.99905616 0.043244578 0.0060974401
0.37761497 -0.25049299 0.26176733 0.03052129 -0.99615198 0.082157008 0.011276034
