# .PCD v0.7 - Point Cloud Data file format
VERSION 0.7
FIELDS x y z
SIZE 4 4 4
TYPE F F F
COUNT 1 1 1
WIDTH 339
HEIGHT 1
VIEWPOINT 0 0 0 1 0 0 0
POINTS 339
DATA ascii
0.087375723 -0.51989239 1.485381
0.036721841 -0.26196811 0.42402941
0.037075981 -0.255689 0.42456689
0.097502373 -0.27729329 0.3244454
0.1120356 -0.25330439 0.3486329
0.1007506 -0.25115961 0.29324561
0.1204407 -0.2496855 0.25852501
0.1012613 -0.25326619 0.29060471
0.1153037 -0.2483695 0.264837
-0.07252799 -0.51650059 1.166968
0.004632398 -0.51299858 1.298654
-0.0056323409 -0.26995721 0.49767601
-0.032092679 -0.57084221 1.397534
0.1144727 -0.25000331 0.36087921
0.15438449 -0.2509692 0.3481994
0.3894276 -0.20527411 0.34050539
0.39771321 -0.36324891 0.35024869
0.42253271 -0.24312121 0.31592259
0.42681369 -0.2468455 0.315056
0.36968809 -0.26529109 0.2016699
0.36145031 -0.26697391 0.23512439
0.41353229 -0.232096 0.296709
0.4380098 -0.073019698 0.35791311
0.4096244 -0.2279297 0.2920959
0.61630023 -0.1388468 0.39866221
0.55498952 -0.1309723 0.4215377
0.28318071 -0.25700831 0.2385235
0.27800789 -0.25671449 0.2213295
0.27379009 -0.25637171 0.20914219
0.71760988 -0.25201541 0.48410049
0.56848389 -0.2359768 0.3138071
0.47246441 -0.23853689 0.29336789
0.47214049 -0.23047601 0.30246699
0.44574699 -0.2347814 0.2995677
0.38919169 -0.25455719 0.232631
0.4501279 -0.24615701 0.28308529
0.52477127 -0.02282913 0.4184213
0.38858601 -0.2457677 0.28263661
0.3890999 -0.25663501 0.2964693
0.3967163 -0.25655961 0.2667813
0.3351365 -0.26196319 0.26311269
0.58329189 -0.57056057 0.5941205
0.32912359 -0.01401718 0.57716292
0.27921611 -0.032655481 0.58825821
0.2433171 -0.076610193 0.43658441
0.15380371 -0.2371248 0.39614329
0.1505039 -0.24051251 0.39499271
0.1132291 -0.2637018 0.36309239
0.1290779 -0.2592864 0.31351981
0.1234176 -0.26048601 0.38907599
0.27854329 -0.2542263 0.2178095
0.27076229 -0.03247251 0.58959353
0.30997199 -0.41323411 0.42830831
0.47080421 -0.3796846 0.46108341
0.37824279 -0.3632648 0.4481096
0.15647291 -0.25488669 0.35403869
0.13731819 -0.24999949 0.38301131
0.156074 -0.25101459 0.3047902
0.16772801 -0.24479841 0.35058811
0.1639773 -0.24711201 0.3391473
0.1822443 -0.24650609 0.33175781
0.1738961 -0.24691141 0.32554999
0.2718448 -0.06623929 0.55364782
0.17657889 -0.2490142 0.30785409
0.16144641 -0.24926829 0.26391011
0.28953901 -0.25326961 0.22424591
0.30351269 -0.2451327 0.25525701
0.29359919 -0.2519204 0.2247247
0.26436591 -0.2429471 0.258609
0.28997731 -0.00087854732 0.54996502
0.15873431 -0.2471527 0.28230351
0.26637 -0.03190279 0.58142412
0.40233389 -0.246811 0.26386219
0.273269 -0.25155729 0.2032977
0.40679249 0.067968734 0.51347518
0.32463709 -0.2521385 0.22243389
0.31822941 -0.25407219 0.2157286
0.33238709 0.085619293 0.56812918
0.39161199 -0.25239131 0.27993229
0.45691511 -0.1098922 0.33680591
0.51649982 0.000190217 0.44232991
0.41625971 -0.23410571 0.2979733
0.4550336 -0.2499153 0.28621611
0.4782964 -0.2423286 0.2964077
0.39874789 -0.2580193 0.26547939
0.3875095 -0.25190851 0.2324113
0.74787259 -0.2666997 0.50976789
0.43979579 -0.2331958 0.2499983
0.3028138 -0.25675949 0.2133908
0.51632267 -0.2416036 0.2719534
0.55903298 -0.095121711 0.41862649
0.58312857 -0.025521601 0.40366241
0.4022724 -0.247591 0.26491809
0.27198079 -0.0158794 0.5678395
0.55779362 0.069852829 0.43484709
0.5321942 0.069185302 0.44799209
0.32795581 -0.24620339 0.2037943
0.34348699 -0.2470331 0.2027643
0.3178671 -0.24115659 0.2085713
0.32609189 -0.2481869 0.2118329
0.284637 -0.01638101 0.54678297
0.15692639 -0.2474158 0.28432229
0.28855169 -0.24319971 0.2113595
0.396476 -0.2356669 0.27358931
0.35773569 -0.2453914 0.2173717
0.1978495 -0.23726299 0.21910191
0.19488689 -0.24908701 0.25813991
0.2359073 -0.2354279 0.2653476
0.28075609 -0.2478804 0.20094749
0.1967876 -0.2330627 0.2224797
0.2474667 -0.25157899 0.30737361
0.28747761 -0.246397 0.2224711
0.29907361 -0.2410192 0.21449409
0.3254475 -0.23469821 0.2325248
0.29175109 -0.2364687 0.2075853
0.324844 -0.2357662 0.26121181
0.31421289 -0.24010751 0.2283344
0.3083235 -0.2480218 0.2060397
0.30181509 -0.2478241 0.2819154
0.29616281 -0.2405214 0.23485319
0.28438941 -0.2470763 0.2122934
0.1589573 -0.2490489 0.3532424
0.22812191 -0.2389407 0.28904331
0.1458489 -0.25168419 0.25229499
0.1541027 -0.25481579 0.3484017
0.2817966 -0.2412478 0.22134639
0.1818624 -0.24495371 0.2374966
0.2498837 -0.2293666 0.2508435
0.2981447 -0.2398165 0.28144839
0.24904411 -0.2311164 0.2768051
0.41725919 0.01409981 0.51709449
0.33792591 -0.2306267 0.2477233
0.1183501 -0.23935349 0.35249799
0.094068818 -0.47988299 1.377225
0.037775591 -0.2472129 0.41261041
0.03641386 -0.50302267 1.3497519
0.061890889 -0.24556801 0.31670251
0.04212961 -0.25548759 0.4435634
0.040417101 -0.252857 0.42467341
0.20685171 -0.25057271 0.24694981
0.2805427 -0.021827489 0.59923589
0.18367051 -0.25085679 0.2558566
0.1461343 -0.25180909 0.26801389
0.176625 -0.2532545 0.34718379
0.1451731 -0.25059491 0.3286151
0.13905489 -0.25071499 0.31037509
0.13263141 -0.2498446 0.2912457
0.1266427 -0.2512303 0.2742638
0.15752441 -0.25431681 0.35685
0.16105901 -0.23294771 0.4022899
0.1208252 -0.249339 0.35689309
0.1216348 -0.24739739 0.36731589
0.1178157 -0.25026381 0.35106519
0.1019431 -0.2475982 0.30392531
0.16678309 -0.2247466 0.40032589
0.16305339 -0.25341049 0.28634429
0.1815076 -0.070019677 0.4277575
0.127974 -0.2495316 0.3899675
0.048577901 -0.26282749 0.43726921
0.1603729 -0.25127739 0.29313639
0.1900453 -0.2544696 0.2442148
0.30644801 -0.028968729 0.64082831
0.1945575 -0.25831109 0.2956171
0.54392087 -0.2266856 0.2490638
0.5360502 -0.0066676028 0.40903819
0.46226549 -0.094187267 0.32412961
0.49595129 -0.25524721 0.22916131
0.60059857 -0.01058622 0.4074426
0.55302513 -0.23423129 0.25917
0.53016299 -0.233429 0.27091739
0.47118789 -0.23589499 0.3106128
0.46645659 -0.2421498 0.28603911
0.44699159 -0.24387079 0.26859689
0.39123669 -0.24843159 0.24493919
0.35525161 -0.2473333 0.2011506
0.4084793 -0.2456746 0.28963491
0.35889909 -0.2475674 0.2047312
0.53769231 0.071837217 0.45833829
0.29540399 -0.249439 0.20871709
0.32214889 -0.24665061 0.216538
0.31349081 -0.2453022 0.2054532
0.4951531 -0.2337092 0.30288431
0.59883589 -0.02825477 0.44204149
0.56943792 -0.1188236 0.4211452
0.39315149 -0.2481712 0.2086996
0.39565331 -0.2475269 0.21663859
0.56338269 0.097109564 0.4203527
0.47963029 -0.2309548 0.32195881
0.4354237 -0.2463116 0.27127099
0.40696931 -0.2441688 0.2366394
0.39835179 -0.2465982 0.2268995
0.40433809 -0.2463526 0.2448394
0.55409181 -0.02942534 0.4527576
0.55254108 -0.01292861 0.45403069
0.4295758 -0.22951441 0.29776579
0.35152221 -0.2454053 0.21261729
0.3941814 -0.2436523 0.2279103
0.38901469 -0.24521109 0.27026749
0.38327229 -0.2449131 0.2614888
0.34339711 -0.2476449 0.2044723
0.55985612 0.071397297 0.43976381
0.55787772 0.0135483 0.43702
0.3935236 -0.2434226 0.28471521
0.4538154 -0.062082671 0.363336
0.38260669 -0.2459794 0.27413121
0.3490279 -0.24123409 0.2224742
0.40730321 -0.25024709 0.26404601
0.34387359 -0.24626359 0.2203512
0.36890379 -0.2447844 0.26179561
0.5363754 0.01332767 0.45569199
0.34043491 -0.2464218 0.2079844
0.45135191 -0.067951493 0.36538321
0.34611931 -0.2449844 0.27422029
0.3210862 -0.2464612 0.23281319
0.31041011 -0.2479853 0.2135684
0.31215751 -0.246282 0.21858799
0.47069669 0.0091341091 0.47951829
0.46745729 0.071973018 0.4753975
0.31666681 -0.2458473 0.2610161
0.2901378 -0.2460403 0.21571819
0.2845566 -0.2476324 0.2140152
0.2883651 -0.2482207 0.22566029
0.40473011 -0.2504296 0.26126349
0.42304069 0.01390776 0.50616461
0.43886131 0.0019674699 0.49405879
0.25525299 -0.2451997 0.2646035
0.41401961 0.01214851 0.511195
0.2365558 -0.25029999 0.2416013
0.28262749 -0.18309771 0.36302131
0.27304149 -0.2098415 0.36199319
0.28428641 -0.135996 0.38723919
0.2841776 -0.1213766 0.38660541
0.2160826 -0.2494535 0.2582626
0.27944681 -0.077689573 0.40554789
0.29206201 -0.1154269 0.37513959
0.2721099 -0.2072241 0.35969341
0.32995981 0.001817252 0.56535149
0.2817007 -0.1083201 0.39385349
0.4122026 0.02038045 0.51551211
0.34372091 0.071725331 0.57077539
0.1809011 -0.24976499 0.33919069
0.1704122 -0.24913929 0.3508049
0.30262119 -0.2476669 0.2230833
0.1497412 -0.244627 0.34752411
0.15973119 -0.2112691 0.42411149
0.15172599 -0.2511999 0.35144779
0.158068 -0.23255821 0.39998379
0.27840519 -0.020012669 0.59968632
0.1204076 -0.25826389 0.3699652
0.098529764 -0.51093239 1.468752
0.28789949 -0.26122379 0.9939661
0.03942427 -0.27301869 0.52976191
0.089099452 -0.51725781 1.475837
0.1462982 -0.2389053 0.72620338
0.2437012 -0.53203893 1.451324
0.034952801 -0.2356884 0.39300719
0.02868049 -0.23604131 0.4068394
0.1667912 -0.49663481 1.476492
0.02704384 -0.2340994 0.41338769
0.0059149559 -0.2385323 0.46625289
0.0043105329 -0.2443123 0.4486196
0.02618444 -0.2405172 0.40408981
0.1682764 -0.4843736 1.461354
0.01506196 -0.24090099 0.4297795
0.0011016279 -0.5034101 1.249332
0.03264774 -0.48073709 1.185533
0.0076356679 -0.4539305 1.193772
-0.061304189 -0.2428997 0.34281451
0.00091811601 -0.25417891 0.43070871
-0.15789481 -0.49220261 0.9095009
0.0080892928 -0.50652981 1.178063
-0.1919892 -0.49866599 0.86103189
0.02514597 -0.2469171 0.40084529
0.12686969 -0.2315331 0.30221969
0.1210704 -0.23154999 0.2846998
0.13345391 -0.22967 0.35213929
0.1127674 -0.2333833 0.34732121
0.1698624 -0.071953282 0.44637859
0.1512468 -0.2281355 0.39041901
0.097909138 -0.24345741 0.3538453
0.2702544 -0.2045456 0.3633489
0.267874 -0.025834581 0.59086162
0.3089838 0.099728294 0.53200918
0.28689829 -0.1100044 0.3794978
0.27069741 -0.06569948 0.60095608
0.1653948 -0.2388525 0.3521308
0.32535779 -0.2302288 0.26135191
0.43742841 0.096253797 0.49617511
0.4310216 -0.004419297 0.49734601
0.42099249 0.096140489 0.50725102
0.31970459 -0.20252191 0.35164791
0.34245539 -0.05525687 0.54067183
0.2639904 -0.1812703 0.359914
0.26027769 -0.2067679 0.3501021
0.32942879 0.068037167 0.54280651
0.26208019 -0.078016467 0.38034391
0.29802799 0.068037242 0.55369133
0.2686905 -0.033455931 0.63239771
0.26888341 -0.026270701 0.59413582
0.39853919 -0.2516171 0.2269896
0.40493771 -0.2479555 0.2356324
0.54802161 -0.0091655403 0.43552741
0.54310822 -0.022080719 0.43237391
0.4011921 -0.25233781 0.23455919
0.40557641 -0.25257409 0.2463585
0.54541498 -0.01512218 0.44362399
0.4117932 -0.24893419 0.25466809
0.40791339 -0.2531473 0.25400099
0.38237491 -0.25257331 0.2289881
0.41230649 -0.25378031 0.26785481
0.5202533 0.091899984 0.45358381
0.40020281 -0.25138319 0.26919559
0.40129891 -0.2469085 0.28917009
0.39588651 -0.25076741 0.2899605
0.37936291 -0.24915271 0.27668649
0.39499271 -0.2443866 0.27487171
0.45986459 0.096469916 0.49026701
0.41981179 0.0134698 0.50386012
0.52998471 0.098051131 0.45271981
0.57606411 -0.02803294 0.41995609
0.51890129 0.085305907 0.46226111
0.5301351 0.0105882 0.45226929
0.52535337 0.06523034 0.44560581
0.45436111 -0.0538643 0.3564195
0.4235841 -0.22921009 0.2987287
0.42716131 -0.2326818 0.29851109
0.4253355 -0.21237791 0.30706149
0.46498349 -0.2467014 0.28867969
0.35268289 -0.2527937 0.29001081
0.42736661 -0.21566249 0.30596799
0.41350019 -0.2466685 0.26936561
0.55615789 0.01087345 0.43935239
0.57043278 -0.1234999 0.4268921
0.5106284 -0.23981211 0.28715429
0.5814575 -0.1197108 0.4113552
0.57245421 -0.06119759 0.43151531
0.33464941 -0.2553651 0.2990306
0.3422747 -0.25233641 0.29251981
0.37801701 -0.25527129 0.26204699
