# .PCD v0.7 - Point Cloud Data file format
VERSION 0.7
FIELDS x y z
SIZE 4 4 4
TYPE F F F
COUNT 1 1 1
WIDTH 1403
HEIGHT 1
VIEWPOINT 0 0 0 1 0 0 0
POINTS 1403
DATA ascii
-0.028859621 -0.42741951 0.74211413
-0.3430486 -0.64438671 0.88266379
-0.1224442 -0.61629379 0.61341763
0.093437359 -0.26767391 0.69175422
-0.2316452 -0.62679893 0.79313469
0.26455981 -0.62881321 0.54813641
-0.2353593 -0.63009483 0.41898161
0.1034387 -0.3077063 0.69096673
0.018525351 -0.63307297 0.44826409
-0.1175411 -0.33697829 0.78265458
-0.090258837 -0.63156879 0.39809689
0.1030693 -0.28628671 0.68988103
-0.2753258 -0.66876978 0.92544359
0.0505413 -0.41300511 0.70545322
0.0062868451 -0.24728 0.8230024
-0.0134332 -0.62127799 0.52654922
0.1590634 -0.66367412 0.71220511
-0.02751152 -0.279221 0.73312402
0.1093917 -0.6197325 0.65661073
0.0056923479 -0.25309059 0.73374832
-0.018070821 -0.40219471 0.73484153
-0.02599892 -0.62354022 0.51492929
-0.070196971 -0.32805869 0.75816357
0.22464821 -0.58747631 0.92757589
0.03228211 -0.44240251 0.71288162
0.02624115 -0.34748 0.72691858
0.0073067099 -0.32214341 0.73036689
-0.0036608579 -0.62576318 0.3550896
-0.39474821 -0.60409611 1.25946
-0.01356374 -0.2586579 0.73859042
-0.030664271 -0.38854539 0.74210751
0.1033018 -0.41298419 0.68664819
-0.077653341 -0.62919313 0.3250708
-0.2867721 -0.63133472 0.4002254
0.1403807 -0.63342828 0.37560159
-0.1033366 -0.62888777 0.42892039
-0.1813273 -0.64036173 0.8148852
-0.0060349852 -0.29494879 0.73488849
-0.2429443 -0.56227738 0.36126149
0.066139407 -0.25115931 0.70742631
-0.2311496 -0.62018651 0.34992599
-0.036772981 -0.43439111 0.74579042
0.104037 -0.3446897 0.68756181
0.24031609 -0.63272941 0.61787587
0.01222733 -0.66238278 0.67073631
-0.01238386 -0.38415661 0.73418063
0.075314432 -0.33472231 0.70307249
-0.42286551 -0.57439828 1.233868
-0.33232191 -0.60467738 1.477216
-0.3699173 -0.62735093 0.85861152
-0.003499717 -0.54919732 0.62587708
-0.02005863 -0.2363791 0.72471511
-0.1057648 -0.4925459 0.67938828
0.01503345 -0.51180702 0.62875217
0.082327753 -0.34939861 0.60297388
0.006428868 -0.2344445 0.67497921
0.021482321 -0.23840611 0.70899838
-0.1046402 -0.32147321 0.69408268
-0.1098849 -0.3018721 0.71311313
0.0305796 -0.55989772 0.2279222
-0.30713221 -0.57500988 1.403723
-0.096819557 -0.229415 0.63733321
0.093767777 -0.21917769 0.64435762
-0.02553764 -0.2194878 0.65469652
-0.087021589 -0.23792391 0.63762319
-0.02071384 -0.21946999 0.67806631
-0.01451067 -0.21965539 0.78232872
0.023915401 -0.2186802 0.5777331
-0.080930553 -0.2175505 0.64271331
-0.1132778 -0.22092029 0.64628232
0.092353851 -0.2146499 0.65317541
0.1178172 -0.2208135 0.69233781
0.064469866 -0.23696201 0.56741881
-0.084207147 -0.2136728 0.63861352
-0.080475569 -0.22769409 0.63259113
0.01965028 -0.2213386 0.58709389
-0.085363001 -0.22112989 0.63428408
0.03927584 -0.2175197 0.6725508
0.037186701 -0.23636369 0.58924419
0.05586559 -0.2343971 0.56813592
0.06192958 -0.2498526 0.56870472
0.016613189 -0.25067011 0.58796138
0.021047469 -0.2224907 0.6156832
0.0536437 -0.27799749 0.56905752
0.088825516 -0.21912611 0.64195907
0.04987723 -0.2342713 0.57903677
-0.04491904 -0.54509258 0.56220597
0.060603321 -0.2203463 0.56983912
-0.044416551 -0.21981309 0.73321378
-0.007300138 -0.21654209 0.8165096
0.019537151 -0.2191698 0.60592502
0.112424 -0.22355761 0.68881512
-0.1324562 -0.27291501 0.65286201
0.1550798 -0.2198102 0.77486253
0.044630591 -0.23012809 0.57696468
0.13358089 -0.219246 0.73754358
-0.0061677098 -0.2163377 0.82031858
-0.089194387 -0.211082 0.75282168
-0.12638579 -0.2190831 0.66983479
-0.046575341 -0.2189467 0.83652478
-0.091071963 -0.2224623 0.6930303
0.01383197 -0.21995839 0.58960199
-0.1672783 -0.52913058 0.74676359
-0.03522021 -0.21743231 0.83842731
-0.25199881 -0.52818799 0.72787797
-0.01715577 -0.2198043 0.83828819
-0.1282652 -0.2136649 0.65417743
0.02400315 -0.28577459 0.58217537
0.044438541 -0.2798954 0.57766509
-0.02443004 -0.22072551 0.77848113
0.12646221 -0.2184637 0.75649488
0.020513 -0.26699871 0.58502293
-0.1637831 -0.52583247 0.7471025
0.1476319 -0.21318141 0.75396061
-0.1496291 -0.53272933 0.75641042
-0.16265631 -0.53148979 0.71225768
-0.064465523 -0.4943881 0.61659533
-0.025494991 -0.2132666 0.84373879
0.1117854 -0.22155081 0.72370958
0.083675981 -0.22169089 0.74683112
-0.02889904 -0.2201609 0.7636798
-0.0088440264 -0.2202654 0.76536202
-0.079027116 -0.2189437 0.72986102
0.01456612 -0.2434627 0.59145719
-0.1226302 -0.5179221 0.720011
-0.1144281 -0.52591032 0.8684622
0.00021642449 -0.2211974 0.60259831
0.082443357 -0.21515749 0.77606058
0.059154749 -0.221423 0.75854123
-0.02615851 -0.21893521 0.63209218
0.045168038 -0.28005001 0.57607412
0.0083020926 -0.2186466 0.76120019
0.02305788 -0.29070011 0.58546323
0.057257831 -0.32496679 0.5707624
0.00518924 -0.21508969 0.77054793
0.038324121 -0.2112996 0.82214302
-0.1232848 -0.40722939 0.64583182
-0.1368151 -0.3677755 0.65637398
-0.1220738 -0.38747141 0.64932889
-0.13888051 -0.46480119 0.65469909
-0.1208297 -0.4281064 0.64487231
-0.1394511 -0.3761943 0.653377
-0.12534671 -0.5140335 0.64982522
-0.068770587 -0.51016879 0.85784727
-0.13332079 -0.4494558 0.65960121
-0.1315387 -0.25748691 0.65448833
-0.067481987 -0.38629839 0.83814448
-0.1374587 -0.39378369 0.66131479
-0.12671299 -0.53281021 0.61167377
-0.1119727 -0.2289823 0.64632863
0.1066807 -0.2160527 0.65559882
0.070132971 -0.2777372 0.56938022
-0.13512599 -0.43040141 0.66118252
-0.1226179 -0.2165349 0.69906873
-0.0041239858 -0.21654651 0.68123913
-0.15805779 -0.53052402 0.66457582
-0.2831836 -0.52651972 0.74125957
-0.059207711 -0.2442849 0.84171951
-0.1395321 -0.52843207 0.78106141
-0.037064701 -0.2133107 0.60830933
0.091513216 -0.208913 0.79292059
-0.12768421 -0.52232039 0.83002591
-0.0096928477 -0.2235025 0.6123125
-0.07347694 -0.53612119 0.92415369
-0.094261348 -0.52776378 0.87943542
0.036755741 -0.22201499 0.78471857
-0.077262998 -0.29919839 0.80190772
-0.091407537 -0.2164969 0.64708471
-0.01802689 -0.46829069 0.5926494
0.024232149 -0.48375171 0.57294732
0.04614282 -0.21390089 0.62521112
-0.046112511 -0.2205292 0.778332
-0.079167292 -0.3908141 0.80650449
-0.072241008 -0.31984189 0.81726038
-0.1008979 -0.40025589 0.76045948
-0.054192539 -0.28609201 0.85723621
-0.085035831 -0.27080971 0.7777614
-0.05934627 -0.31087229 0.84187448
-0.06000175 -0.36444429 0.83192772
-0.1089748 -0.3981185 0.72491533
-0.070948727 -0.4659296 0.82783431
-0.061064299 -0.24756999 0.84029299
-0.058438569 -0.50787091 0.86043119
-0.06558387 -0.4408015 0.84499812
-0.095450543 -0.46214759 0.77659929
-0.1002539 -0.25280911 0.73986202
-0.1253864 -0.45216891 0.70155662
-0.063764051 -0.4104695 0.83413792
-0.1267277 -0.36356139 0.70302588
-0.07977964 -0.21741951 0.77391922
-0.119541 -0.34513009 0.70490432
-0.055946499 -0.46493909 0.86383277
0.022979921 -0.2153758 0.68093503
-0.15982389 -0.52463633 0.67268252
-0.041877601 -0.2183599 0.75883019
-0.055204179 -0.33369309 0.85828078
-0.084745713 -0.31528601 0.79691482
-0.13126589 -0.2521385 0.67981273
-0.13448919 -0.2472965 0.66188878
0.036523461 -0.2154633 0.74522787
0.1051214 -0.2170759 0.8038255
-0.135424 -0.43732321 0.66713428
-0.087861247 -0.39051321 0.79114908
0.01473206 -0.4432829 0.83933538
-0.05914095 -0.46526939 0.85351461
-0.1184635 -0.21955881 0.66781938
-0.059623361 -0.51084602 0.85673761
0.073641092 -0.50846869 0.81498998
-0.062121078 -0.4955498 0.84781939
-0.043603729 -0.27496651 0.85661888
-0.1220188 -0.217778 0.6573543
-0.13421629 -0.23289821 0.6649887
-0.101451 -0.33224121 0.77429992
-0.0051046908 -0.2191308 0.74063212
0.039441589 -0.34809831 0.82522768
-0.04776955 -0.215425 0.63375449
-0.096921504 -0.45705101 0.78329247
-0.1188498 -0.4758029 0.71840048
-0.1029949 -0.51777589 0.75506449
-0.04293758 -0.4570567 0.85715932
-0.029919 -0.267344 0.85710388
0.093102433 -0.48913869 0.80906749
0.048124369 -0.52744228 0.83255577
0.1385902 -0.36727789 0.78757292
0.1332802 -0.32687241 0.79062682
0.016335441 -0.2782667 0.83182538
-0.0050573498 -0.30206919 0.84533262
0.02831978 -0.2156385 0.65113741
-0.099605978 -0.2166536 0.72710198
-0.093429863 -0.2170186 0.75000101
-0.015698491 -0.51348501 0.86231148
0.1329255 -0.28636831 0.78980541
0.1330107 -0.4512088 0.79125309
0.15252671 -0.52839112 0.79135197
0.1316978 -0.40799469 0.78891999
0.1167287 -0.2166734 0.73079228
-0.001577497 -0.34427819 0.84312212
0.08189182 -0.2175189 0.72479498
0.1014153 -0.21452489 0.7273376
0.077946357 -0.2157079 0.71029198
0.13246159 -0.28651461 0.79025668
0.1554939 -0.29242799 0.77409238
0.14580791 -0.35069749 0.78506839
-0.04566944 -0.22017901 0.75615472
-0.01122326 -0.21579359 0.64930469
0.15016159 -0.46109599 0.7745477
-0.0037774439 -0.2129581 0.82287472
-0.0044405609 -0.21838211 0.77288592
0.03517485 -0.2203414 0.83193833
0.024235429 -0.2153424 0.83362877
0.1072545 -0.20721669 0.70255947
0.1135316 -0.2165374 0.70185173
0.1770954 -0.53044689 0.85278201
0.046268221 -0.21298809 0.82082379
-0.018283719 -0.2138457 0.82724798
0.1202113 -0.218555 0.73269749
-0.092289388 -0.2176168 0.68248731
0.1140479 -0.2158933 0.77058589
0.084476501 -0.2172253 0.64269811
-0.05398285 -0.2183463 0.64867342
0.091290921 -0.216905 0.64138979
0.063541047 -0.2155744 0.7607944
0.071187139 -0.21263871 0.73820323
0.1217109 -0.21314891 0.69103378
-0.032661591 -0.22027621 0.71765482
0.1578002 -0.2209549 0.77615738
0.1398838 -0.21491881 0.78284001
0.1036285 -0.4107537 0.65700012
0.15263741 -0.43917009 0.76617998
0.05260485 -0.21387769 0.81561089
-0.04379141 -0.30283391 0.85948968
0.026750419 -0.2129648 0.75011373
0.03530151 -0.2127794 0.73756373
0.14971609 -0.3802872 0.75277799
0.1180752 -0.3777822 0.66874802
0.1047091 -0.41621581 0.64194471
0.1577609 -0.47177419 0.76774812
0.15694541 -0.21607719 0.77213311
0.038429979 -0.2162593 0.78488648
0.02644988 -0.21255431 0.82691282
-0.1168069 -0.2216309 0.67295361
0.040146649 -0.21095569 0.75174749
0.0390695 -0.2187323 0.60966939
0.042070571 -0.2156111 0.6286757
0.047887679 -0.21634699 0.58961493
0.063859127 -0.2204074 0.72419882
0.072979629 -0.2167846 0.76422751
0.043076809 -0.2133465 0.7612803
0.1443765 -0.2238695 0.75479567
0.1214069 -0.2113034 0.77749419
0.1501978 -0.21939179 0.7788173
0.1149181 -0.35326761 0.65748483
0.1413189 -0.36460349 0.72525102
0.14566161 -0.3392826 0.74323648
0.14467309 -0.26601431 0.72951549
0.109506 -0.3593066 0.67995888
0.1307134 -0.3120245 0.70221943
0.14772549 -0.29768091 0.75435948
0.1591647 -0.26910409 0.77315092
0.1258951 -0.34994051 0.69816411
0.1004351 -0.2213462 0.64914387
0.1454722 -0.45709759 0.74970633
0.05429345 -0.21616989 0.73636907
0.14107279 -0.234483 0.73816389
0.14824469 -0.35223311 0.75477707
0.069027603 -0.3505815 0.56361538
0.067132413 -0.2145147 0.78604019
-0.040841579 -0.21333779 0.78022838
-0.02662343 -0.2149795 0.79672629
0.055814981 -0.2140319 0.79095131
0.024112049 -0.2131073 0.81659991
0.083200842 -0.2165385 0.79369402
0.087438107 -0.2219186 0.72619498
0.055031631 -0.2143745 0.76450592
0.13970269 -0.30158159 0.73370332
0.1375556 -0.27131659 0.73488951
0.15419219 -0.2400704 0.7678386
0.098400533 -0.2917802 0.64104629
0.1511824 -0.3610625 0.74653238
0.1546853 -0.44262829 0.76651281
0.1060031 -0.2151458 0.69198138
0.1491095 -0.299633 0.75778872
0.13972031 -0.2183096 0.76165873
0.1146665 -0.47009411 0.67463028
0.15844379 -0.2668381 0.77174717
0.1443646 -0.36560851 0.77808583
0.024012569 -0.25705311 0.83353209
0.1203465 -0.2231494 0.70073497
0.1110604 -0.2679455 0.65839022
0.098225437 -0.27998719 0.62795168
0.12953851 -0.2190406 0.71030879
0.1100738 -0.2723352 0.65946293
0.1125525 -0.2222946 0.67567861
0.1308586 -0.40279579 0.70737582
0.1220338 -0.42096049 0.68389517
-0.028525051 -0.21431381 0.64088309
0.078095756 -0.2180949 0.79764211
-0.04269081 -0.2138935 0.79292142
0.1301571 -0.37788171 0.79795599
0.1021474 -0.222324 0.64874518
0.1457838 -0.29625201 0.72872508
0.1563863 -0.35408589 0.76406288
0.1419621 -0.3759442 0.72878528
0.1243799 -0.31289491 0.70955509
0.076123178 -0.3249349 0.59302741
0.1473664 -0.38471201 0.7556417
0.13082621 -0.37694991 0.69390053
0.1425131 -0.49439889 0.72334188
0.1107976 -0.46105051 0.65006822
0.1479243 -0.28644359 0.743613
0.13032161 -0.4018575 0.69668239
0.1467263 -0.50222778 0.74652749
0.1128571 -0.49778971 0.65330261
0.086232163 -0.3215442 0.61312169
0.01479426 -0.2149971 0.60963541
0.097106934 -0.3086096 0.63268387
0.155499 -0.45302129 0.76985693
0.120759 -0.2273279 0.69760841
0.1530769 -0.3767027 0.77998853
0.1220548 -0.4317449 0.69639271
0.1266167 -0.43769869 0.69988358
0.1078124 -0.45795611 0.65655589
0.094584577 -0.4517577 0.62598878
0.1463923 -0.3358219 0.78295583
-0.020498389 -0.2129811 0.62670147
0.1474375 -0.412819 0.78304118
0.1157351 -0.2826753 0.67538422
0.1254971 -0.27155751 0.69215631
0.1515514 -0.41269869 0.77466542
-0.053275231 -0.21780699 0.66523129
0.1472282 -0.28248209 0.75580329
-0.038770821 -0.2186341 0.66919267
0.1178132 -0.50601351 0.67826468
-0.02407825 -0.2149539 0.61217302
0.039699789 -0.21394581 0.79261798
0.1106357 -0.21338721 0.78388327
-0.056741949 -0.2150552 0.826029
-0.35699621 -0.51586622 1.052905
0.073070697 -0.51287138 0.81861907
0.078062862 -0.2145277 0.66097498
-7.1525566e-05 -0.2165826 0.6432628
-0.0090676993 -0.21669561 0.68145549
-0.0499289 -0.21721619 0.63457352
0.016818279 -0.2166432 0.68300718
-0.1122196 -0.2188054 0.65574509
0.083616763 -0.2131786 0.76059937
-0.00059825182 -0.21988291 0.66078871
0.076654106 -0.21293581 0.75344813
0.02085902 -0.2166705 0.74460542
-0.1254174 -0.2164022 0.6548323
-0.1203222 -0.2165821 0.66670293
0.068659067 -0.2182245 0.74258381
0.052445918 -0.218134 0.63639241
-0.0430963 -0.208876 0.70842111
0.01232216 -0.2158455 0.67135048
0.01930077 -0.2133864 0.61706358
0.068348408 -0.38522509 0.56998259
0.15264501 -0.24042851 0.76483518
0.11756 -0.34998119 0.66545027
0.1215943 -0.36900771 0.68175858
0.1112763 -0.31204459 0.67673218
0.064900823 -0.36028069 0.56820011
0.1156565 -0.3545478 0.67916203
0.062576063 -0.4605256 0.56924331
0.14519741 -0.3802028 0.77855951
0.086155973 -0.33312711 0.62206209
0.1304708 -0.3703506 0.7156418
0.1117152 -0.33730859 0.66677392
0.079508454 -0.35253319 0.58272171
0.128215 -0.32316491 0.70153451
0.1462131 -0.312967 0.75422359
0.1254058 -0.3813962 0.67919761
0.1135075 -0.31114399 0.68162811
0.069398344 -0.35163471 0.58001149
0.1273656 -0.49703559 0.69649118
-0.022611979 -0.2168761 0.68828791
0.004452676 -0.2167815 0.68971848
0.1335945 -0.26577899 0.72636062
0.058602549 -0.21635389 0.70542979
0.1397451 -0.2215303 0.72827739
0.099101841 -0.2179303 0.7072255
-0.039059099 -0.21737771 0.68165761
0.059371829 -0.21261489 0.69217962
0.1508026 -0.45372519 0.75278491
0.1262998 -0.44803199 0.69229269
0.1363505 -0.3775323 0.71030521
0.031193441 -0.21714661 0.6376096
0.1195644 -0.4667801 0.67893243
0.073669203 -0.2178943 0.67213601
0.110991 -0.38285881 0.6582756
0.071139373 -0.21546119 0.63094842
0.1499698 -0.3406769 0.74768168
0.1102054 -0.33439729 0.65223002
-0.03229377 -0.2189288 0.66679698
0.148678 -0.53152871 0.75335908
0.087009013 -0.2152494 0.63341218
0.1390752 -0.21602771 0.74903733
0.12507901 -0.2158161 0.72391248
0.090512156 -0.2099575 0.80708963
0.067960262 -0.29759619 0.57468468
0.1530564 -0.52009249 0.77832627
0.1569844 -0.30088061 0.76982927
0.062824667 -0.51954842 0.5698781
0.15248279 -0.25344071 0.76328599
0.091756761 -0.47705621 0.62351543
0.15109409 -0.2294824 0.78001982
0.093514711 -0.33008721 0.61484128
0.0097529888 -0.2177261 0.70508403
0.12713531 -0.3360289 0.70009238
0.1337605 -0.2340802 0.72185051
0.13180511 -0.31956539 0.71048158
0.1186129 -0.52489728 0.67461997
0.11211 -0.2166542 0.67961448
0.089080296 -0.49815831 0.61235279
0.086599648 -0.27282989 0.59327632
0.08704561 -0.2961551 0.60843807
0.02048951 -0.21570949 0.69989979
0.094585747 -0.2509698 0.61617929
0.15352 -0.27012751 0.76242638
0.1106748 -0.45823309 0.66180271
0.073830754 -0.37112829 0.57840991
-0.042443391 -0.2136749 0.72446299
-0.05801392 -0.2301237 0.72808492
0.01105291 -0.2090297 0.76272929
0.101268 -0.38848239 0.80437487
0.1554094 -0.34794411 0.77709597
0.118257 -0.28308061 0.79202139
0.036599759 -0.2209606 0.59000349
-0.01245731 -0.22058471 0.70113152
0.016837239 -0.2136994 0.61205012
0.065859564 -0.2155458 0.69726002
0.01679194 -0.21482851 0.60124362
-0.02115405 -0.2204424 0.6317482
0.02291983 -0.21747179 0.62764591
0.036934789 -0.217401 0.70652038
0.096860379 -0.2174229 0.65867847
0.1049994 -0.32537171 0.64081109
0.15020479 -0.2618663 0.75628787
0.069267988 -0.4122034 0.57563198
0.1058458 -0.3138037 0.66338909
0.1173599 -0.33115199 0.68259829
0.068790317 -0.48416659 0.57266122
0.1172679 -0.32491741 0.68359178
0.1431493 -0.41567579 0.74223399
0.087329388 -0.29907101 0.60829711
0.1479072 -0.34978491 0.755274
0.1538251 -0.3617616 0.76507038
0.077354759 -0.39180139 0.58825809
0.1221105 -0.31174999 0.69901419
0.13978641 -0.45480821 0.72608548
0.1273361 -0.3644428 0.69546449
0.1085792 -0.32658851 0.65482497
-0.037045959 -0.2143908 0.81210542
0.095895648 -0.27557781 0.62721002
0.068928182 -0.2090922 0.80260098
-0.04301101 -0.45907849 0.86820668
-0.073041856 -0.22095659 0.68553227
0.14268459 -0.41472381 0.72434711
0.09416151 -0.50674093 0.62341797
0.1068458 -0.3051599 0.64935207
-0.039994031 -0.2206782 0.70450038
0.084438153 -0.50591999 0.5983839
0.07988438 -0.34172729 0.59654391
-0.50721312 -0.52059323 1.073334
0.094032884 -0.36918789 0.6328389
0.1543121 -0.3283048 0.77641302
0.1476263 -0.5195415 0.75071859
-0.08192265 -0.2183975 0.62412852
0.094374478 -0.351659 0.63337898
0.140218 -0.26017711 0.73857272
0.1019078 -0.2208873 0.75543499
0.077500403 -0.49243191 0.58726048
0.1333133 -0.27077201 0.71367449
-0.54953462 -0.53110778 1.029006
0.1159362 -0.2250196 0.67457968
0.082989991 -0.34901029 0.59531069
0.1594321 -0.44458479 0.76114023
0.077736847 -0.25812069 0.59483868
0.066495001 -0.2436977 0.57302493
0.1344225 -0.44492021 0.70254147
0.1219497 -0.44635981 0.67402941
0.06667456 -0.27443701 0.57111162
0.1410037 -0.36831701 0.73541278
0.1024776 -0.32820311 0.62889332
0.152355 -0.27841249 0.74903691
0.1091445 -0.3245472 0.6692282
0.1490173 -0.41069049 0.7729423
0.1091268 -0.27347019 0.67093742
0.08870697 -0.52597028 0.6058628
-0.01721919 -0.2166499 0.85031033
0.151445 -0.48093501 0.77624381
-0.042032659 -0.27518401 0.85939473
0.12646011 -0.27922791 0.69988471
0.1010435 -0.37811509 0.63715369
0.1508082 -0.28614289 0.76168972
0.1053171 -0.42799571 0.63990909
0.1405116 -0.2932575 0.73738188
0.1422372 -0.34708989 0.73649317
0.14693519 -0.4046846 0.75057662
0.095841773 -0.37370351 0.62609023
0.14011919 -0.27132919 0.7383405
0.096942343 -0.45854661 0.61919349
0.1035382 -0.27709159 0.64766502
0.09682712 -0.4453828 0.61969548
0.1060657 -0.2132203 0.73897809
0.04918164 -0.2147585 0.69134068
-0.01596087 -0.2140362 0.74668598
0.097033799 -0.2194961 0.72737509
-0.05394036 -0.218365 0.79619271
-0.04791468 -0.220103 0.78786069
-0.05041388 -0.2185939 0.65671039
-0.035855241 -0.2153841 0.73600638
-0.039498139 -0.2160251 0.79235882
0.056384619 -0.21720269 0.64358652
0.074734017 -0.21078029 0.71045119
0.14506461 -0.54257888 0.78511697
-0.059666511 -0.2172413 0.75393039
0.044477019 -0.22022679 0.58544677
-0.065379597 -0.21899191 0.75055838
0.067431167 -0.2194701 0.72715628
-0.08874622 -0.221992 0.63894433
-0.03116733 -0.3126463 0.85292459
0.057425961 -0.2178299 0.7108925
-0.062826037 -0.2168735 0.82348728
0.1097819 -0.2247548 0.79970741
-0.072520383 -0.2227325 0.76989132
0.01113486 -0.2211328 0.589311
-0.1040555 -0.2231089 0.6440866
-0.1339428 -0.22264341 0.66693163
-0.051755909 -0.2169403 0.83733958
0.039141309 -0.2141405 0.59729397
0.0387601 -0.21550231 0.62540478
-0.01235665 -0.2148823 0.6626305
-0.02193734 -0.2167252 0.66737491
0.070353791 -0.2161727 0.65694147
0.0146949 -0.2125937 0.66828561
0.1123117 -0.21369611 0.77351141
0.02787219 -0.2091601 0.73959267
-0.028136101 -0.213486 0.72683197
0.163109 -0.52734482 0.7744863
-0.046953619 -0.38347349 0.86103082
0.005299076 -0.2217458 0.59835023
-0.053854119 -0.2221972 0.85992533
0.01559091 -0.44887409 0.83463722
0.1545521 -0.46013719 0.78111029
-0.0089776516 -0.2166262 0.64770383
0.004894108 -0.2155451 0.69217908
0.088615119 -0.2214648 0.65939641
-0.047686461 -0.2327413 0.85405588
-0.047972169 -0.2181372 0.84415472
-0.047129869 -0.31179109 0.85399038
0.1137428 -0.2178224 0.79243368
0.0382566 -0.2166211 0.67592537
-0.042339019 -0.51918238 0.87049901
0.1746584 -0.52398038 0.85238022
-0.025926949 -0.44088101 0.85150069
-0.058522109 -0.51096898 0.84473431
-0.04730114 -0.46297419 0.85377651
0.1324562 -0.4070611 0.78990728
-0.04093796 -0.2155875 0.83378673
-0.052310821 -0.21889681 0.65967268
-0.098162979 -0.21331 0.74013847
-0.048034109 -0.2326804 0.85376811
0.052860249 -0.2137917 0.72443831
0.075340807 -0.51630032 0.80803943
-0.0035465511 -0.38695431 0.84959018
-0.0066218232 -0.3988218 0.84927112
0.01832724 -0.39400741 0.82889462
0.03034319 -0.48999971 0.83480269
0.094649032 -0.46185759 0.80542612
-0.055271629 -0.51889628 0.85907948
-0.086821847 -0.2171084 0.70446432
-0.093249112 -0.22181571 0.68313849
-0.053030469 -0.21509799 0.73543662
-0.052166671 -0.2262229 0.79336017
-0.07160195 -0.52674621 0.86015391
0.01338741 -0.2123979 0.69050449
0.030919131 -0.2217029 0.63441521
0.1159166 -0.2198998 0.79732728
-0.05038742 -0.52609187 0.86561322
0.1567582 -0.52597499 0.7771076
0.108681 -0.25396079 0.79723138
0.1497549 -0.53530401 0.78374141
-0.029971169 -0.36869881 0.85501498
-0.01655769 -0.36732131 0.84789228
0.062484439 -0.4456012 0.81860238
-0.0060887709 -0.38427559 0.8484332
-0.03083029 -0.38740319 0.85398048
0.12573481 -0.44696689 0.79616928
0.021995259 -0.47079331 0.8322047
-0.01405709 -0.42918909 0.85370177
-0.0093718171 -0.52283961 0.8568511
0.034470409 -0.51786047 0.82621032
0.01010707 -0.52014208 0.835334
0.01722035 -0.50485402 0.8398068
-0.046798479 -0.37116671 0.86290169
-0.01353486 -0.3930715 0.85022873
0.079900444 -0.51779163 0.81079543
-0.084402591 -0.2152154 0.76582038
-0.06198201 -0.2117364 0.74779928
0.035472989 -0.224048 0.67311913
0.14965039 -0.34310091 0.77309573
0.1399022 -0.45340639 0.7797153
0.099869072 -0.5018357 0.79916728
0.1280205 -0.50849217 0.78913391
0.1141944 -0.45790979 0.7971608
0.088684559 -0.4889158 0.80967581
-0.01568339 -0.47785991 0.85085398
-0.1195576 -0.52904332 0.86644179
0.1132256 -0.5094552 0.79740918
0.074638262 -0.46839651 0.81528872
-0.1151136 -0.52928412 0.8671338
0.16845161 -0.52767998 0.82735842
-0.019699041 -0.53132802 0.859855
-0.023368871 -0.36999381 0.85887277
0.0014208111 -0.4906995 0.84381717
-0.0058377981 -0.51098943 0.85615772
-0.044796292 -0.21523421 0.81408769
-0.030169349 -0.2183167 0.77584708
-0.1081345 -0.2177846 0.70056713
-0.03210355 -0.34577841 0.8527137
0.0685817 -0.21620061 0.71394682
0.036880251 -0.2146772 0.74471349
0.1298307 -0.216368 0.76531738
0.40574601 -0.43261999 0.31725821
-0.02994528 -0.52763778 0.86885798
-0.089138903 -0.52326971 0.88221592
-0.2048247 -0.52100658 0.66531008
-0.085152857 -0.2232248 0.7097497
0.090895973 -0.48992121 0.81078392
0.1023772 -0.42067471 0.8003366
-0.1723749 -0.54239893 0.65665507
0.099051967 -0.52938592 0.90305519
0.1095621 -0.50917357 0.80163109
-0.093324229 -0.237951 0.77953851
-0.064255357 -0.52848792 0.95961589
0.1106611 -0.46117571 0.8007285
0.36991951 -0.52922899 0.85395318
0.1253182 -0.25179261 0.79765368
0.084871992 -0.51605898 0.81866318
0.072829828 -0.52347273 0.81957591
0.17792059 -0.52209538 0.8530727
0.087724462 -0.51170528 0.82536387
0.1199134 -0.41722101 0.79384363
0.1350742 -0.4179503 0.7922802
-0.04644407 -0.5181269 0.97180742
-0.1073976 -0.214211 0.69232363
-0.01514073 -0.212988 0.77615291
-0.1000755 -0.22778741 0.75450879
-0.098431468 -0.21942329 0.70250559
-0.016299641 -0.2127706 0.73836142
-0.075110473 -0.2252612 0.81141168
-0.1044477 -0.35313001 0.75804931
-0.078300461 -0.52212709 0.84997672
-0.048244148 -0.24394929 0.86074227
-0.058479819 -0.40533629 0.85677278
-0.068269499 -0.42960411 0.83996511
-0.060844321 -0.51544088 0.83188021
-0.061655071 -0.4729628 0.85487813
-0.050533868 -0.35877031 0.86531699
-0.031243511 -0.44721791 0.84913689
0.034492701 -0.2133618 0.78726929
0.040914912 -0.2127497 0.78934282
0.051984709 -0.2120775 0.75777262
0.04102153 -0.2125919 0.7709195
0.14446729 -0.2155676 0.74493861
0.4643304 -0.52815688 0.40190989
0.059438851 -0.48467681 0.81707352
0.1353482 -0.43423831 0.78773743
-0.091255367 -0.49301299 0.7864387
-0.108594 -0.52419102 0.83523089
0.01308157 -0.39277929 0.82913679
-0.1135111 -0.291224 0.72616768
0.072839633 -0.43727991 0.80713159
-0.1394801 -0.2988759 0.67173833
-0.14559969 -0.52916402 0.67305827
0.1485294 -0.2289706 0.76782417
-0.01811756 -0.52830791 0.95587349
-0.1157973 -0.53048462 0.76956648
0.060412619 -0.52784008 0.81965542
-0.096202113 -0.2443371 0.76609391
-0.039196279 -0.30573851 0.85801721
-0.05659914 -0.2296831 0.83004808
-0.1035115 -0.26820239 0.74875373
0.0071935952 -0.3297998 0.83481258
-0.13098679 -0.3050344 0.69345897
-0.025179209 -0.31874001 0.85122252
0.01491368 -0.4161649 0.83576387
0.1155338 -0.52663702 0.89912683
-0.1056577 -0.2490606 0.74263197
0.09194836 -0.22042809 0.80036092
-0.15603361 -0.53132552 0.76177752
-0.045108929 -0.44676951 0.85775381
0.0024914739 -0.44343629 0.84487218
0.069142267 -0.53591919 0.90193588
0.094142713 -0.4792386 0.80558687
-0.0286709 -0.51276362 0.8473295
-0.06090669 -0.21603779 0.70401442
-0.055894319 -0.30957839 0.85098922
-0.05814654 -0.44870231 0.84677023
-0.056780871 -0.33062929 0.84793699
-0.076695681 -0.51447421 0.8209008
-0.1244731 -0.25779271 0.68425769
-0.076538861 -0.23946629 0.78603518
-0.048680931 -0.29537949 0.85576552
-0.065837137 -0.32445741 0.82185262
-0.055181801 -0.27459741 0.85312241
-0.05547512 -0.3648276 0.83660769
-0.08340621 -0.40120459 0.81405908
-0.069908142 -0.28611669 0.83750868
-0.066591077 -0.39364281 0.82581329
-0.1228691 -0.2396118 0.67775601
-0.080714583 -0.39106321 0.80793488
-0.066585302 -0.47685301 0.83627182
-0.048525389 -0.3846691 0.85681897
-0.052726328 -0.48057339 0.85384119
-0.075310588 -0.30254239 0.80319422
-0.086986601 -0.2242516 0.68546993
-0.081490867 -0.29925689 0.80050439
-0.12513091 -0.4802978 0.65836692
-0.074626736 -0.4239434 0.82192087
-0.053925689 -0.53000218 0.95336479
-0.12707829 -0.248096 0.67434078
-0.05540425 -0.53213722 0.96523541
-0.067731023 -0.49440259 0.83893341
0.076970577 -0.2184149 0.6294328
-0.046678718 -0.29062909 0.86132318
-0.051457051 -0.42516419 0.85779309
-0.072557934 -0.2215284 0.78238451
-0.1119255 -0.53337771 0.87187892
-0.047237519 -0.39803311 0.86046982
-0.1279639 -0.2348834 0.6744839
0.079623342 -0.2197904 0.80724162
-0.1459785 -0.46175849 0.66466159
-0.05979472 -0.39692321 0.84603441
-0.075375967 -0.31901371 0.80234748
-0.1068506 -0.49528009 0.77580267
-0.048897151 -0.2328686 0.86234438
0.035721298 -0.21887539 0.62749869
-0.128648 -0.25812069 0.67605227
-0.1377942 -0.51236701 0.65265483
-0.070656776 -0.29721931 0.81625217
-0.0570786 -0.3584398 0.84704661
-0.049048301 -0.46883199 0.86001998
0.072887182 -0.22079191 0.59520602
0.02304225 -0.2191432 0.79653537
-0.067882299 -0.2219604 0.81386048
-0.0497486 -0.2676858 0.85991907
-0.1074432 -0.4810445 0.64008641
-0.06099993 -0.2456582 0.84420007
-0.069158912 -0.2271928 0.80309331
-0.13825379 -0.37935701 0.65294337
0.054934502 -0.2188666 0.74916482
-0.030810591 -0.2211365 0.71106309
-0.061899841 -0.2224932 0.73714799
0.034396648 -0.22518291 0.6192289
-0.1376864 -0.24721131 0.6630891
-0.091948994 -0.46881601 0.7784422
-0.094356537 -0.46309349 0.77963352
-0.065166064 -0.2836656 0.62157983
-0.085245967 -0.2282761 0.76769239
-0.139457 -0.24950311 0.65835178
-0.083302483 -0.2174951 0.76475489
-0.098329693 -0.2218155 0.74654001
-0.086571284 -0.41556391 0.78033912
-0.028095011 -0.2181287 0.83315063
-0.0066430569 -0.22204991 0.83525521
-0.0070179701 -0.2217222 0.85266358
-0.067759283 -0.27495441 0.8162232
-0.076168947 -0.2483995 0.78212577
-0.078050852 -0.42406499 0.80812228
-0.050144851 -0.25328019 0.86474872
-0.087121069 -0.45121989 0.79164898
-0.079371929 -0.28854549 0.79475099
-0.083340757 -0.36291671 0.78993517
-0.04679805 -0.32666999 0.86038917
-0.072506897 -0.24799649 0.77123839
-0.08474952 -0.53376353 0.80379528
-0.001730561 -0.2203529 0.7463004
0.11593 -0.2257199 0.69312102
-0.059758071 -0.52509981 0.84350598
-0.081268974 -0.26459581 0.775536
-0.025611579 -0.2154793 0.71681881
-0.064930983 -0.21645661 0.63009691
0.01562959 -0.52371699 0.57764322
-0.078540333 -0.351722 0.81640011
0.0080674887 -0.21684261 0.65199208
0.2213404 -0.22844429 0.76784009
-0.02390426 -0.51998383 0.59678489
-0.02453864 -0.2275711 0.63929051
-0.1388716 -0.53040868 0.81991827
-0.13375141 -0.53229141 0.81646389
-0.091022611 -0.22101329 0.63572049
0.038400829 -0.53949398 0.93205291
-0.2031645 -0.53353411 0.83341187
0.019711019 -0.28308141 0.58840978
-0.1327334 -0.23220091 0.653355
-0.084350944 -0.23109061 0.77654541
-0.092827983 -0.4953528 0.77829963
0.74499512 -0.53752762 0.4394424
-0.01323616 -0.2177422 0.8098768
-0.098254561 -0.22785521 0.74345058
0.0410682 -0.2149747 0.74679607
0.0049230461 -0.26163131 0.58646142
-0.1011249 -0.2221514 0.72970402
0.041369502 -0.32055929 0.57525098
-0.01331794 -0.2180154 0.75888288
0.045158152 -0.28106949 0.57536763
0.001824677 -0.2217937 0.64589262
0.1589317 -0.2276853 0.77126533
-0.0052787662 -0.22042111 0.76012909
0.01037395 -0.21710519 0.68238789
-0.046840429 -0.2211369 0.66326392
0.31374079 -0.3527624 0.43565169
0.023811219 -0.28543529 0.5803228
-0.093167067 -0.2192657 0.70423943
0.04610908 -0.2348485 0.5751285
0.044002589 -0.2192557 0.58865768
-0.078548372 -0.2424621 0.62901568
0.02225107 -0.32083279 0.58361101
0.50844198 -0.52714521 0.42324129
-0.087224253 -0.26681951 0.62552488
-0.097979009 -0.25308689 0.74120659
-0.04106373 -0.2779066 0.61621553
-0.1003186 -0.23408221 0.74138677
0.06414485 -0.3283582 0.56599033
-0.12845659 -0.26034501 0.67912728
0.69392753 -0.49344939 0.43780091
0.02673018 -0.27476639 0.58340371
0.74785799 -0.47036549 0.43905351
-0.067395508 -0.36339211 0.62069857
-0.1106007 -0.4528397 0.63630033
-0.1249469 -0.36848319 0.69737267
-0.1061137 -0.37030581 0.7366485
-0.133533 -0.37506551 0.65855712
-0.13217001 -0.29976821 0.6812529
-0.1228383 -0.41302469 0.64487332
0.01160181 -0.44222191 0.58397692
-0.1227263 -0.36970091 0.69965392
-0.106244 -0.37473789 0.73709488
-0.00236398 -0.4077521 0.59252948
-0.1110804 -0.49009001 0.74019301
-0.1110598 -0.34441531 0.64197183
0.040969972 -0.3914524 0.57466292
-0.1273835 -0.47969171 0.69152433
-0.04943544 -0.42729619 0.61439443
-0.055169702 -0.49613911 0.61139083
-0.13171031 -0.3335101 0.67716801
-0.110367 -0.46461469 0.74017501
-0.069004543 -0.31294659 0.62291211
-0.13394 -0.3974452 0.67361969
-0.1039901 -0.41629159 0.7518295
-0.12714119 -0.44951159 0.69378722
-0.1159075 -0.27875721 0.6412558
0.04186517 -0.4750239 0.57215708
-0.1179719 -0.51085871 0.74892282
-0.1230494 -0.50024778 0.63733017
-0.1144722 -0.2779873 0.71784657
-0.1048702 -0.50116128 0.75260973
-0.1055931 -0.47222739 0.75712049
-0.14345481 -0.304607 0.6598469
-0.1251089 -0.52392203 0.70098102
-0.12749781 -0.39447251 0.7004047
-0.016021131 -0.34595561 0.60031831
-0.1389173 -0.49956289 0.64722031
-0.102787 -0.36306521 0.74757391
-0.1373958 -0.35593209 0.65781528
-0.093550801 -0.40411791 0.73992813
-0.114476 -0.3094528 0.64415407
-0.096484236 -0.4240635 0.63074338
-0.059638619 -0.2187818 0.75633371
-0.09155184 -0.2548112 0.75978482
0.1106088 -0.22153179 0.79447132
-0.096973121 -0.2692585 0.75420511
-0.092757232 -0.2425036 0.75534308
0.1148798 -0.2075872 0.79311872
0.001493931 -0.2143189 0.77069521
-0.1028859 -0.40170729 0.76448631
-0.089714997 -0.32154089 0.77278948
-0.092872381 -0.43970129 0.77778852
-0.1062573 -0.3751559 0.75615323
-0.1037233 -0.39158759 0.76100129
-0.082263589 -0.40700501 0.79377151
-0.091080837 -0.4299674 0.77221477
-0.07711947 -0.39682731 0.79815441
-0.091522813 -0.33780879 0.77613539
-0.091820963 -0.35415801 0.7812655
-0.08317107 -0.47190201 0.8046478
-0.1011224 -0.52734131 0.77942008
-0.083663233 -0.50489879 0.80366927
-0.092659712 -0.39688191 0.77457452
-0.1068969 -0.2204293 0.7101593
-0.1116428 -0.48711959 0.73552918
-0.1140639 -0.3945213 0.72453451
-0.1206859 -0.28035039 0.69134659
-0.043749571 -0.35492659 0.62232959
-0.095469303 -0.5379234 0.58992618
-0.1822208 -0.5358662 0.69270408
-0.1916521 -0.54413378 0.66076142
-0.097178638 -0.40833569 0.76511538
0.02710009 -0.43190929 0.57783818
-0.1227006 -0.53192282 0.71012002
-0.1170394 -0.4369655 0.64496583
-0.12633321 -0.31575081 0.64687502
0.66848582 -0.52456242 0.4260115
-0.1334867 -0.3863104 0.70563722
-0.1313525 -0.29471889 0.67176437
-0.13382851 -0.25619721 0.65033382
-0.098296463 -0.50574929 0.63101149
-0.1100917 -0.47184399 0.75042599
-0.088698149 -0.45724079 0.77458912
0.50841367 -0.54859972 0.4225795
0.67131412 -0.52325022 0.45698619
-0.13024689 -0.33850881 0.68524081
-0.1054518 -0.35785711 0.73700827
-0.126954 -0.2940146 0.64555222
0.31308281 -0.3646982 0.42729041
0.01643515 -0.22250929 0.74597329
-0.13747659 -0.399407 0.65767503
-0.091389723 -0.38439649 0.77696228
0.01905054 -0.30486539 0.58312809
0.06657362 -0.21453141 0.7580775
0.055217151 -0.22230551 0.61736077
0.031448189 -0.49603641 0.57618767
-0.1197259 -0.51791799 0.72497892
0.41852051 -0.4330644 0.42895219
-0.073938429 -0.32369259 0.6213426
-0.143553 -0.53138173 0.78207248
0.045401812 -0.34549111 0.57034212
-0.1123799 -0.46600991 0.63693511
-0.01609504 -0.22138789 0.70280039
-0.088579766 -0.26865131 0.76093823
-3.3438209e-05 -0.21859729 0.61204988
-0.09752059 -0.35513541 0.74747849
-0.1262674 -0.35413709 0.69949812
-0.135868 -0.27542001 0.65293407
-0.122867 -0.53271621 0.83488047
0.070889287 -0.219833 0.60976487
-0.1192439 -0.53222549 0.82052982
-0.13325679 -0.37365851 0.67756271
0.0050070882 -0.21783429 0.73064411
0.01655793 -0.37617189 0.58871877
-0.1236314 -0.36926049 0.7100035
-0.1388346 -0.38220379 0.6693548
-0.083857767 -0.2139267 0.68659222
0.04801577 -0.4479847 0.56508708
-0.1085988 -0.37178829 0.72600943
-0.083561659 -0.2488142 0.63455528
-0.051255941 -0.24243391 0.61391938
-0.042126831 -0.22609811 0.7103132
-0.118149 -0.3556487 0.63714188
-0.1498259 -0.52896953 0.79038972
-0.1332529 -0.53064668 0.80481738
-0.1362891 -0.52610958 0.65408158
-0.1080399 -0.49001199 0.75913548
-0.1368055 -0.36385909 0.67122883
-0.1319076 -0.36383861 0.68466169
-0.2838333 -0.53380692 0.74286079
-0.1309308 -0.48635191 0.66525531
-0.132964 -0.38443771 0.67220318
-0.14105579 -0.51956332 0.643875
-0.1330214 -0.34534079 0.68146318
-0.1344053 -0.48364651 0.6813426
0.03024894 -0.2190707 0.75882483
-0.1157543 -0.4244113 0.7352587
-0.12860291 -0.2857331 0.66366988
-0.1243666 -0.2200443 0.65986258
-0.13359331 -0.4181444 0.67625529
-0.1153263 -0.29119381 0.64324969
0.041880488 -0.53142703 0.56316352
0.7477572 -0.51647449 0.4558799
-0.13045309 -0.28676379 0.68452328
0.70919567 -0.45680201 0.4120951
0.06052554 -0.274241 0.56191272
-0.1383381 -0.221806 0.66202432
-0.067372113 -0.44396141 0.82920653
-0.074125648 -0.2311065 0.62452328
0.01136011 -0.2427219 0.58999938
0.02264422 -0.2859638 0.5803808
0.055416819 -0.24828599 0.5700857
0.01507747 -0.25095269 0.58718371
0.061353501 -0.25006399 0.56655902
0.045379519 -0.22000121 0.58785182
0.064542711 -0.2829583 0.56666452
0.089467347 -0.21950211 0.71554482
0.045555059 -0.2318299 0.57685047
0.058778942 -0.2387272 0.56795198
0.03839523 -0.2862002 0.57609677
-0.1199262 -0.3139441 0.64436138
0.035913471 -0.2694931 0.57895797
0.022298221 -0.2828151 0.58134049
0.1479221 -0.21928941 0.76868588
-0.087919712 -0.21974771 0.68301392
0.087040067 -0.21871211 0.64111799
0.12691841 -0.21711411 0.73219872
-0.003855824 -0.2171945 0.82300758
-0.0069089532 -0.22053111 0.81908208
-0.035960231 -0.21839871 0.7860862
-0.09611553 -0.2173342 0.72734612
-0.092106998 -0.21757901 0.754493
0.099640667 -0.2142005 0.65070558
0.059929729 -0.28555241 0.56842768
0.066087723 -0.2673606 0.56889361
-0.1124544 -0.22114921 0.70173413
-0.081823021 -0.2196686 0.7051419
-0.01987889 -0.2201156 0.83608842
-0.1137179 -0.21817631 0.65772432
-0.07682088 -0.2207828 0.73044407
-0.027550129 -0.2209015 0.76263338
-0.045244131 -0.2201889 0.73073733
0.02410939 -0.222257 0.6150322
0.04401866 -0.28046069 0.57606113
0.03978866 -0.21991131 0.6310671
0.061826501 -0.2215519 0.5698958
0.01348785 -0.2207081 0.58845419
0.05713347 -0.3010096 0.56768209
-0.086048253 -0.2216211 0.69759822
-0.09885034 -0.21909191 0.70607251
-0.023275411 -0.21663161 0.84385568
-0.01184115 -0.2180512 0.75989687
-0.051822841 -0.219061 0.83217162
0.058672462 -0.31925419 0.56708258
-0.13041981 -0.27520871 0.6518966
0.1107389 -0.2224562 0.68627548
0.01449132 -0.21728601 0.65302211
0.021085231 -0.26881281 0.58416718
0.020848179 -0.2171496 0.59273249
0.032885458 -0.2187338 0.63635778
0.067835599 -0.24712349 0.56126332
-0.052979112 -0.2203798 0.75553429
-0.02142185 -0.2190094 0.62489039
-0.01177943 -0.21973071 0.64470738
-0.00074574351 -0.2174197 0.77026057
-0.02459133 -0.22079059 0.77885252
-0.12966581 -0.26376739 0.64873892
-0.068123549 -0.51082098 0.85614151
-0.066582948 -0.50955838 0.85509348
0.068120748 -0.2296966 0.56367463
-0.1232207 -0.3978655 0.705553
-0.13574401 -0.3666898 0.66252249
-0.13519759 -0.2566728 0.65007281
0.078286983 -0.21775261 0.60168272
0.068550907 -0.2257871 0.7382825
-0.13040601 -0.2188551 0.65690839
-0.1383334 -0.3928639 0.65864992
-0.05984601 -0.50972432 0.86885118
-0.1201909 -0.4267835 0.70682061
0.042510722 -0.4839898 0.56805038
-0.1257337 -0.33638659 0.64341247
-0.061580539 -0.21979851 0.62013459
-0.01151225 -0.2834709 0.59763408
-0.051509649 -0.2203517 0.70905519
-0.096372403 -0.2194099 0.68151152
-0.1292281 -0.2490994 0.68217719
-0.1254839 -0.33261409 0.6898787
-0.13175111 -0.25548759 0.67911547
-0.1234935 -0.23032691 0.69129521
-0.1320758 -0.2990503 0.67951822
0.1041405 -0.2185767 0.70834452
0.02483636 -0.21707921 0.62722468
0.1019814 -0.2195002 0.69482613
-0.1233462 -0.51358187 0.70367771
-0.1218708 -0.50973672 0.7036621
0.0039356351 -0.21911059 0.6584549
-0.1245935 -0.36788499 0.69540268
-0.1265406 -0.3880029 0.69132692
-0.1051279 -0.3794302 0.73263192
-0.12977511 -0.33485591 0.67414647
-0.1203868 -0.3924689 0.70091021
-0.058284879 -0.21805251 0.8229394
-0.01314661 -0.2222852 0.75661361
-0.032680031 -0.2174762 0.82886302
-0.063285232 -0.32639799 0.83899069
0.093711197 -0.2174864 0.72139829
-0.078388572 -0.44772261 0.80293518
-0.072312713 -0.46901661 0.83187318
-0.074409723 -0.42940819 0.81927329
-0.065015294 -0.39339551 0.83396667
-0.06284377 -0.44998521 0.84027803
-0.067812979 -0.39126939 0.82239437
-0.080183208 -0.3869617 0.80284297
-0.071744919 -0.3918927 0.8182466
-0.05969882 -0.44840679 0.84251273
-0.05234063 -0.40575019 0.8512181
-0.078533351 -0.41904929 0.81231338
-0.070586227 -0.39235511 0.81737632
-0.059800211 -0.4177475 0.84224159
-0.047816399 -0.4037604 0.85869229
-0.075885624 -0.4783659 0.81607151
-0.1060605 -0.28145561 0.72327942
-0.1188805 -0.3133634 0.70340961
-0.1088286 -0.29339129 0.71749753
-0.1248022 -0.3058542 0.67880082
-0.1324039 -0.30549169 0.65694177
-0.104776 -0.37410831 0.73315108
-0.12798759 -0.24849071 0.67285359
-0.1200243 -0.37153229 0.69898123
-0.1185599 -0.4176856 0.70757163
-0.1235949 -0.45869321 0.70363867
-0.1307303 -0.2371448 0.66257161
-0.007558465 -0.2200958 0.64645368
-0.1713255 -0.53466642 0.74825412
-0.1238041 -0.33273229 0.68993437
-0.068906657 -0.4293268 0.82450992
-0.1327768 -0.29859519 0.65300572
0.038695991 -0.2275044 0.63618582
0.04329592 -0.2187756 0.60605168
0.040721711 -0.2178158 0.74621058
-0.1373031 -0.31831509 0.65478361
-0.094522923 -0.2255026 0.69462168
-0.052504871 -0.2188949 0.65213162
0.090376914 -0.22062171 0.71350318
-0.1302792 -0.22472 0.66015851
0.045104619 -0.21935201 0.6166957
-0.120378 -0.41428429 0.69898438
-0.1220694 -0.4123309 0.69578391
-0.13256679 -0.4727678 0.65317452
-0.1301282 -0.3397122 0.67167503
-0.1250384 -0.45026961 0.69111878
-0.1340802 -0.49484661 0.63899583
-0.1204893 -0.3992478 0.69652569
-0.130376 -0.42219791 0.68741959
-0.1304293 -0.40672639 0.64760119
-0.1332313 -0.51439208 0.6488058
-0.1397897 -0.52013618 0.64728242
-0.082043469 -0.42031759 0.79978597
-0.082297437 -0.41946259 0.79021889
-0.05664444 -0.48873031 0.84014249
-0.1198424 -0.45764571 0.65578192
-0.039517641 -0.225077 0.61902738
-0.065683313 -0.2157449 0.62730092
-0.018098241 -0.2165691 0.64741927
0.079884231 -0.2215912 0.71661568
0.076698057 -0.2138444 0.63571131
0.089856558 -0.2168092 0.79166353
0.13726529 -0.22494981 0.71194649
-0.08811149 -0.424209 0.77710181
-0.062565088 -0.3892096 0.84316123
-0.082345247 -0.51072878 0.81448293
-0.05086061 -0.3851465 0.85975063
-0.035081148 -0.2154633 0.6650098
0.01523727 -0.22633301 0.60222977
-0.098861493 -0.2218522 0.64236999
-0.075191997 -0.2238688 0.63460922
-0.1006462 -0.2230109 0.67997879
0.047027111 -0.2215832 0.70413369
-0.02306217 -0.2240357 0.79587013
0.06166989 -0.2178629 0.69726223
-0.074253649 -0.42676401 0.80691803
-0.071416259 -0.4650664 0.82834601
-0.081413418 -0.40164021 0.80179858
0.056784991 -0.2171526 0.69949943
-0.05585504 -0.46926901 0.85051519
-0.082906991 -0.4160535 0.79533958
-0.1178402 -0.22037099 0.69521272
0.193123 -0.51833779 0.2245848
0.038936321 -0.2148291 0.78748888
-0.018849021 -0.2229967 0.62140518
0.066793561 -0.2243388 0.63194197
-0.08636421 -0.2203199 0.68453193
-0.06125465 -0.39631751 0.83927518
-0.096449547 -0.53822732 0.52771127
0.092847466 -0.22238509 0.66718012
-0.075380147 -0.43192631 0.82018882
-0.12544081 -0.45388281 0.70541382
-0.099632919 -0.5302462 0.52505797
-0.28754649 -0.52507561 0.52900529
-0.2209028 -0.52979738 0.48174691
-0.28532439 -0.53137141 0.52281612
-0.28990749 -0.53486937 0.5351848
-0.1134859 -0.2410226 0.71357799
-0.29796699 -0.53008908 0.51912111
-0.26592541 -0.52732182 0.46181509
-0.29808909 -0.52700877 0.51205891
-0.2453513 -0.5330525 0.46244821
0.2196032 -0.52305168 0.2310784
0.2359314 -0.50843197 0.2047576
0.044734299 -0.2180234 0.78721619
0.036980689 -0.2211407 0.82518357
0.069368057 -0.2239576 0.75838441
0.020286741 -0.21878751 0.76446629
-0.053059489 -0.51913029 0.85628742
-0.04525784 -0.4561193 0.8535279
0.01520783 -0.2172157 0.72868627
-0.074060917 -0.41001329 0.8183527
-0.1572174 -0.52600032 0.87382817
0.040977899 -0.21467771 0.82348591
-0.061853021 -0.2181285 0.6626457
-0.1260974 -0.40146929 0.68585402
-0.1354108 -0.40990251 0.66576278
-0.075529903 -0.43713009 0.81195867
-0.1086533 -0.25076959 0.71315688
-0.06723547 -0.2211992 0.68504661
-0.039502259 -0.4455654 0.85341072
-0.025304619 -0.2221483 0.65370041
-0.02759308 -0.2179032 0.82373649
-0.058659822 -0.2297615 0.82899457
-0.01425874 -0.2186427 0.79811603
0.022302991 -0.22346801 0.63276893
-0.0067254901 -0.2118288 0.63243008
-0.12673301 -0.2197094 0.67537028
-0.018923821 -0.21454211 0.83038038
0.048517581 -0.2205798 0.75728643
0.22845019 -0.5218792 0.2510637
0.24446391 -0.52233559 0.28437579
-0.1360338 -0.2225782 0.66275918
0.2384118 -0.52287471 0.26675919
0.2611672 -0.51993322 0.21040329
-0.1333221 -0.2340759 0.66588438
-0.13902371 -0.37007079 0.65924013
-0.1318237 -0.40835679 0.64945942
-0.1382487 -0.35532889 0.65530229
-0.1378365 -0.34356931 0.6623587
-0.1331047 -0.46197981 0.63746452
-0.14544129 -0.39415279 0.64903152
0.052715238 -0.22214951 0.78734672
-0.092166007 -0.2221801 0.7052592
-0.090232402 -0.2221632 0.69335759
0.095839381 -0.21203829 0.7035886
-0.1399003 -0.4625482 0.66051018
-0.12614091 -0.4802427 0.69071919
-0.066525549 -0.32198441 0.84352851
-0.049524609 -0.3911888 0.85512698
-0.136319 -0.35321489 0.6646958
-0.0916152 -0.52986032 0.58047849
-0.1301038 -0.2701551 0.67880082
-0.1095271 -0.39938009 0.72830921
-0.20106161 -0.54399937 0.72981411
-0.1346288 -0.52226448 0.61576271
-0.049521212 -0.4298813 0.85632098
-0.062765419 -0.3527101 0.84559321
-0.12939081 -0.3378261 0.68268102
0.1408035 -0.2205257 0.75473452
-0.1176893 -0.36416861 0.71352798
-0.1189657 -0.41439399 0.709611
0.1316216 -0.2226788 0.74471492
-0.079842813 -0.43162119 0.80557239
-0.04466331 -0.44297841 0.85787159
-0.1050965 -0.3594135 0.73447162
-0.050293799 -0.2200224 0.82086349
-0.1640293 -0.52632707 0.66084588
-0.1043001 -0.35287449 0.737912
-0.130858 -0.34014109 0.68359989
0.08485809 -0.2196302 0.69398081
-0.1214661 -0.2190461 0.66959482
-0.1076239 -0.28411129 0.72875679
0.01844777 -0.28620589 0.5749011
0.021612121 -0.3039408 0.57546562
-0.02353153 -0.25731161 0.58801258
0.005523175 -0.241124 0.57682139
0.092760988 -0.21972249 0.64188999
0.051640321 -0.4164021 0.55719131
0.090901032 -0.21493649 0.77618349
0.05760682 -0.2193052 0.55771333
-0.024171799 -0.26319319 0.58650708
0.027214009 -0.3118 0.56934887
-0.00079078972 -0.3056252 0.58181292
-0.033590779 -0.2178524 0.78694618
-0.034506831 -0.27462199 0.58846909
0.056865498 -0.2480067 0.55604339
0.054743379 -0.47410589 0.55604011
0.0046923012 -0.2181723 0.58407742
0.1074682 -0.2187268 0.71083778
0.048378941 -0.52098888 0.55291623
-0.067678347 -0.23259521 0.61142558
-0.0035803621 -0.24604011 0.57924539
0.0249385 -0.21629719 0.57990837
0.04269046 -0.32407859 0.5606305
0.1071909 -0.21624739 0.76846129
0.058122791 -0.2792362 0.55277312
0.062436979 -0.2359682 0.55855948
0.041932922 -0.3531726 0.55998152
0.038731821 -0.50603777 0.55954379
0.042801999 -0.3763766 0.56087321
0.022929279 -0.21927109 0.79625082
-0.08606796 -0.2156541 0.62849998
-0.09471111 -0.2466764 0.62165731
-0.1190127 -0.2792877 0.63443851
0.00059544301 -0.2155204 0.74409997
-0.1278514 -0.2826286 0.64231759
-0.1030786 -0.2491277 0.62299699
0.040451981 -0.22061861 0.62692022
-0.040965062 -0.45230821 0.59475958
0.0023848789 -0.26082799 0.58052123
0.055778671 -0.33532751 0.55611378
0.043145571 -0.2812241 0.56501788
0.04078773 -0.28122509 0.56815922
0.0421017 -0.340377 0.56234652
0.1231615 -0.2136296 0.75559479
0.045342881 -0.33276299 0.56028402
0.088503636 -0.2178008 0.7237097
0.007551156 -0.4391067 0.57565743
0.01892272 -0.50042772 0.56293458
0.03110561 -0.38663071 0.56570071
0.031885829 -0.46572271 0.55999702
0.027817531 -0.41721389 0.56679219
0.04088819 -0.48590311 0.56127048
0.02620952 -0.39407259 0.56799221
0.001565069 -0.3905732 0.57874978
0.057227358 -0.51068503 0.55676842
0.041396111 -0.5254302 0.56060648
0.046755839 -0.4593229 0.55570787
0.001659133 -0.3722778 0.57711262
0.015707109 -0.52217501 0.56647283
-0.048208401 -0.2163212 0.65197241
-0.067702383 -0.2175713 0.6245057
-0.085096449 -0.3160792 0.62380409
-0.071758673 -0.3558414 0.61138952
-0.071211517 -0.35738701 0.61100549
0.083006777 -0.2164702 0.77345371
-0.1190204 -0.30698511 0.63527012
0.05628005 -0.21555001 0.78273058
-0.0045980662 -0.35297471 0.58528483
-0.0880339 -0.2212657 0.62389541
-0.05148327 -0.2748659 0.60793871
-0.03105847 -0.36114779 0.59574032
-0.108904 -0.32887399 0.62802792
-0.070325993 -0.25250679 0.617136
-0.088225037 -0.3223055 0.62110251
-0.04985071 -0.27123031 0.60807908
-0.075021707 -0.2469794 0.61437857
-0.043921951 -0.2955806 0.59700221
-0.064476877 -0.31734729 0.60805422
-0.073247857 -0.3273651 0.61387032
-0.0038767529 -0.40131509 0.58263159
-0.083951563 -0.39272109 0.61810029
-0.0258795 -0.46319419 0.58872873
-0.024591651 -0.43184221 0.58942157
-0.076502517 -0.44654959 0.61180079
-0.050686371 -0.47092319 0.59778059
-0.054821748 -0.49895999 0.59848499
-0.1313971 -0.4017936 0.63752019
-0.080403268 -0.48591971 0.61108261
-0.1068298 -0.49354419 0.61761677
-0.1272205 -0.44537169 0.63555962
-0.05648819 -0.4210172 0.60317397
-0.051817361 -0.50158411 0.59537631
-0.1160712 -0.40474641 0.62507671
-0.0099354237 -0.45213661 0.57584429
-0.003716819 -0.4473781 0.57965738
-0.01370312 -0.39961481 0.58699679
-0.0085264966 -0.44402021 0.58093429
-0.080580398 -0.45038709 0.6134569
-0.053190552 -0.4140704 0.60170323
-0.069367021 -0.44742769 0.60576218
-0.073456049 -0.39996019 0.6125645
-0.05525291 -0.4660247 0.60274082
-0.1169418 -0.45926771 0.62609172
-0.1085319 -0.38293499 0.62599808
-0.1159003 -0.41549361 0.62793821
-0.1419715 -0.39047271 0.64826411
-0.076352999 -0.4081229 0.6137374
-0.1211391 -0.43348759 0.6330086
-0.066059627 -0.51221919 0.59903657
-0.062060092 -0.50927907 0.59751141
-0.07772626 -0.2312199 0.61974001
-0.04044557 -0.3170253 0.60253972
-0.050782871 -0.25959501 0.61220402
-0.068172947 -0.42827249 0.60932112
-0.096280463 -0.41425589 0.62293929
-0.138895 -0.43429819 0.64801711
-0.087972797 -0.23761991 0.62454051
0.071510047 -0.2158491 0.72372472
