# .PCD v0.7 - Point Cloud Data file format
VERSION 0.7
FIELDS x y z normal_x normal_y normal_z curvature
SIZE 4 4 4 4 4 4 4
TYPE F F F F F F F
COUNT 1 1 1 1 1 1 1
WIDTH 580
HEIGHT 1
VIEWPOINT 0 0 0 1 0 0 0
POINTS 580
DATA ascii
-0.032304712 -0.22063383 0.8285383 -0.33099037 0.8992328 0.28605217 0.084020406
-0.059313651 -0.3265546 0.8362624 -0.80196947 0.0042263186 0.59735012 0.038066301
0.093675181 -0.2188729 0.72142303 0.18992803 0.97887915 -0.075651452 0.053769134
-0.079611234 -0.4476704 0.80350626 -0.87584186 0.0489907 0.48010516 0.023885354
-0.067952074 -0.46962586 0.82941782 -0.7669583 0.14535743 0.62501687 0.059035301
-0.072178788 -0.42943802 0.81820381 -0.83296955 0.056818634 0.55039376 0.024003804
-0.062972724 -0.39363268 0.83270431 -0.73229849 0.048649617 0.67924386 0.041019928
-0.06011958 -0.45021293 0.83800584 -0.72797436 0.078753285 0.68106627 0.043947987
-0.068179131 -0.39124173 0.82261044 -0.79950839 0.0087736314 0.60059088 0.035148226
-0.079501025 -0.38699487 0.80252594 -0.87839204 0.039579827 0.47629908 0.014900849
-0.071344234 -0.39191404 0.81798339 -0.81931263 0.037718441 0.57210511 0.036377478
-0.057742402 -0.44861776 0.84086055 -0.69490927 0.087378845 0.71376884 0.050177045
-0.051543873 -0.40577555 0.8506459 -0.53850257 0.07231766 0.83951485 0.063902862
-0.075292602 -0.41893148 0.81072724 -0.84875053 0.030615194 0.52790648 0.019076869
-0.071419321 -0.39230552 0.81792337 -0.81967628 0.036825452 0.5716421 0.03602675
-0.058141835 -0.41774067 0.84119833 -0.65670067 0.071999617 0.75070655 0.056372821
-0.043485668 -0.40355071 0.85219258 -0.47491679 0.052196398 0.87848139 0.0637521
-0.075963311 -0.47835562 0.81611109 -0.80674583 0.17572948 0.56416339 0.070558339
-0.10857601 -0.28141838 0.72441995 -0.90565389 0.17713456 0.38524586 0.020036256
-0.11854903 -0.31337056 0.70326781 -0.96525228 0.051567998 0.25618112 0.018328996
-0.11003411 -0.29352283 0.71814269 -0.93007547 0.1118227 0.34993622 0.013027582
-0.12660749 -0.30584002 0.6792174 -0.99919814 0.031296883 0.024972957 0.048507631
-0.12846848 -0.30542836 0.65796149 -0.92094505 0.01716407 -0.38931426 0.065850414
-0.10722786 -0.37420869 0.73418838 -0.92162502 0.030606512 0.38687292 0.0098764803
-0.12673248 -0.24866427 0.67238116 -0.87494516 0.47111946 -0.11188126 0.11522114
-0.12234533 -0.37160251 0.7000196 -0.96802193 0.03297957 0.2486884 0.017489022
-0.12026622 -0.41761491 0.70827407 -0.95877159 0.01392528 0.28383639 0.013163746
-0.12382208 -0.45868853 0.70373094 -0.96853906 0.024188232 0.24768336 0.024483981
-0.12834758 -0.23772274 0.6622085 -0.77468753 0.57854599 -0.25523263 0.11689469
-0.0076044155 -0.2190063 0.64642924 -0.1450976 0.95176375 -0.27035606 0.039137334
-0.16197371 -0.53495252 0.74531752 -0.95299709 0.30158895 0.028992433 0.17384681
-0.12548655 -0.33263746 0.69052941 -0.98634696 0.073727489 0.14725436 0.036564689
-0.068579644 -0.42932993 0.82433605 -0.79444844 0.055140264 0.60482329 0.038566414
-0.1280684 -0.29842407 0.65443045 -0.88850218 0.035946444 -0.45746219 0.068272375
0.038982306 -0.21957445 0.6359064 0.020402551 0.97204477 -0.23390771 0.032509398
0.043108519 -0.22162081 0.60635048 0.028479749 0.83893222 -0.54349023 0.082201637
0.040717598 -0.21827434 0.74623215 -0.019925466 0.99970263 -0.014057371 0.01085109
-0.12969033 -0.31880739 0.65619135 -0.89434916 0.032141384 -0.44621357 0.06513866
-0.095249765 -0.22181328 0.69488811 -0.42157212 0.90420699 0.068458512 0.067494154
-0.052474547 -0.22057515 0.6522789 -0.11020797 0.94451654 -0.30942339 0.044312209
0.090395287 -0.21912587 0.71349514 0.19552211 0.97595066 -0.09639243 0.060100984
-0.12465739 -0.22887915 0.65937525 -0.68012011 0.67645633 -0.2825658 0.11471017
0.045097645 -0.21989684 0.61672378 0.073964708 0.88601607 -0.45771685 0.074206352
-0.12331655 -0.41422379 0.70017737 -0.97164655 -0.00040643409 0.23643786 0.018171588
-0.12444092 -0.41227558 0.69677716 -0.97447413 -0.0073154378 0.22438052 0.020586606
-0.13288373 -0.47273251 0.65308595 -0.94528663 0.11195377 -0.30643031 0.0591213
-0.12931132 -0.339863 0.67148197 -0.99670798 0.08018624 -0.011974521 0.052039169
-0.12749115 -0.4501152 0.69192147 -0.98866266 0.0051209824 0.15006645 0.025719905
-0.13115951 -0.49542904 0.6422658 -0.89274377 0.047770169 -0.44802523 0.093889713
-0.12339909 -0.39930871 0.69769382 -0.97146404 -0.0088425931 0.23702198 0.020795982
-0.12860642 -0.42223886 0.68682754 -0.99134552 -0.021055983 0.12957925 0.031003397
-0.12912078 -0.40654266 0.64799476 -0.95354497 -0.024620224 -0.30024299 0.058715057
-0.13705443 -0.51416242 0.6467852 -0.9015609 -0.029262608 -0.43166143 0.14830109
-0.13865341 -0.52015972 0.64795613 -0.90360403 -0.063435726 -0.42364579 0.15978502
-0.080688581 -0.42023262 0.7991519 -0.88306141 0.0034884135 0.46924442 0.015913492
-0.084187932 -0.41959384 0.79099613 -0.89980263 0.010909798 0.43616086 0.011811713
-0.06119325 -0.48821872 0.84311795 -0.52736115 0.11125446 0.84232575 0.10325644
-0.12902848 -0.45809889 0.65199459 -0.94118553 0.04680663 -0.33463264 0.067021489
-0.039136004 -0.22754148 0.62016279 -0.23025216 0.73968446 -0.63233751 0.063412175
-0.064175002 -0.22561154 0.63165033 -0.23316921 0.80844468 -0.54041588 0.05816127
-0.018046601 -0.21882179 0.64750916 -0.14611012 0.94635212 -0.28821769 0.041949071
0.079812817 -0.21897262 0.71670723 0.12767322 0.98936594 -0.069674425 0.042472813
0.076018535 -0.21982245 0.63636661 0.28715056 0.93577647 -0.20461416 0.044872031
0.089817978 -0.21879937 0.79144639 0.16340655 0.97455126 0.15345354 0.040607389
0.13716605 -0.2253691 0.71198881 0.66963065 0.68463397 -0.28787351 0.096820913
-0.090492621 -0.42419651 0.77824056 -0.90793151 0.029407909 0.41808552 0.015344827
-0.058199488 -0.38930705 0.84027052 -0.62378693 0.028155256 0.78108716 0.057086755
-0.084161676 -0.50966901 0.81570202 -0.78248245 0.047886658 0.62082857 0.15730867
-0.044792626 -0.38561559 0.85258311 -0.49168018 0.010383056 0.87071401 0.054182157
-0.035066389 -0.21898861 0.66502154 -0.10657167 0.97790879 -0.17982452 0.027970886
0.01524022 -0.22634518 0.60223424 -0.20953214 0.73467356 -0.64525265 0.075808592
-0.09797509 -0.22491783 0.64419264 -0.39887005 0.79034334 -0.46503761 0.083631419
-0.074734412 -0.22625676 0.63626134 -0.2782079 0.80647922 -0.52171993 0.062228404
-0.10093679 -0.22210772 0.68009275 -0.42964911 0.90039855 -0.068440087 0.078940205
0.046976354 -0.21925393 0.7042585 0.0067093004 0.99995536 -0.006654371 0.0095195435
-0.023277005 -0.21908757 0.79578626 -0.18240564 0.98084432 0.068356335 0.042807117
0.061676804 -0.21828328 0.69723934 0.077681884 0.99619228 -0.039578188 0.029031772
-0.076376677 -0.42682889 0.80793029 -0.8653363 0.025019918 0.50056672 0.01756105
-0.068770811 -0.4652068 0.82686907 -0.79909003 0.082713239 0.59549445 0.048454367
-0.080521226 -0.4016135 0.80137789 -0.88285226 0.052220348 0.46673861 0.012222782
0.05676524 -0.2183187 0.6994772 0.033036605 0.99931413 -0.016730085 0.013011936
-0.054215297 -0.46960691 0.84904641 -0.51997596 0.14716636 0.84140778 0.066036865
-0.082628638 -0.41603205 0.79521865 -0.89196849 0.018523466 0.45171803 0.010546666
-0.11237375 -0.2280546 0.69293118 -0.61192244 0.78753012 0.073124416 0.089117192
0.038980309 -0.21708506 0.78752589 0.0031970371 0.99966049 0.025858738 0.011846407
-0.018870667 -0.22287089 0.62138516 -0.21363802 0.84418446 -0.49164155 0.05958458
0.066992551 -0.22041014 0.63146102 0.22012481 0.9475975 -0.2315253 0.044470809
-0.08636412 -0.22040641 0.68452924 -0.31858811 0.94711697 -0.038353588 0.058590949
-0.059638612 -0.3964951 0.83818394 -0.65352613 0.055662487 0.7548545 0.050757274
0.093470566 -0.21927625 0.66696852 0.37260467 0.90144181 -0.22038242 0.07225091
-0.072185449 -0.43201509 0.81863624 -0.82282412 0.054212652 0.56570435 0.028916769
-0.12339389 -0.45387787 0.70457584 -0.96949452 0.0079209106 0.24498492 0.021524455
-0.10985272 -0.24268402 0.71213412 -0.76712728 0.56515044 0.30351418 0.072526507
0.044730283 -0.21715115 0.78719103 0.0047015822 0.99946636 0.032327466 0.011511997
0.036735203 -0.22379465 0.82432938 0.024962114 0.99480993 0.098641157 0.015656449
0.069444165 -0.21785967 0.75804693 0.032236442 0.99947721 -0.0025026216 0.01276522
0.020269733 -0.21849531 0.76446474 -0.029885044 0.99955332 0.00032116464 0.01019186
-0.052246142 -0.51941562 0.85401464 -0.080441765 -0.1594096 0.98392975 0.16200253
-0.044822358 -0.45608538 0.85293174 -0.47040364 0.08618331 0.87823278 0.05284198
0.015270024 -0.21918823 0.72862232 -0.031676818 0.99949801 0.00056169281 0.016306601
-0.072328828 -0.40994489 0.81744605 -0.81979251 0.05071364 0.57041073 0.029993771
0.041155752 -0.21667972 0.82348603 0.026717959 0.99451804 0.1010935 0.01466506
-0.061804131 -0.21986702 0.66262525 -0.17217694 0.95881939 -0.225877 0.040936086
-0.12759165 -0.40149704 0.68634009 -0.98677939 -0.0010418245 0.16206585 0.03305985
-0.1313706 -0.40945092 0.6650579 -0.9942537 -0.010369304 -0.10654566 0.058687571
-0.075574107 -0.43712965 0.81197917 -0.86386168 0.03499591 0.50251192 0.023466347
-0.10941511 -0.25057825 0.7134099 -0.79939109 0.50340438 0.32796013 0.070209578
-0.067267954 -0.22022572 0.68505996 -0.18724486 0.98062098 -0.057635807 0.029214472
-0.039180342 -0.44580567 0.85265893 -0.44998419 0.10025691 0.88739097 0.052709151
-0.025425285 -0.21923773 0.65359819 -0.13397388 0.95897549 -0.24983391 0.037706684
-0.0274301 -0.21952303 0.82361698 -0.27755344 0.92938948 0.24330901 0.072734319
-0.058253318 -0.2305999 0.82872498 -0.68296558 0.61235571 0.39821902 0.082551494
-0.014254321 -0.21890748 0.79812127 -0.15694621 0.98557031 0.063396543 0.039629318
0.022317695 -0.21895546 0.63253552 -0.053606804 0.95929122 -0.27728444 0.037992716
-0.0065118927 -0.21908459 0.63263857 -0.1738604 0.9103716 -0.37549457 0.047852959
-0.119362 -0.22647907 0.67187786 -0.63625795 0.75720459 -0.14770584 0.10644322
-0.018780593 -0.21876971 0.83021712 -0.19217186 0.93823272 0.2877312 0.074897476
0.048615944 -0.21787143 0.75711989 -0.017220844 0.9998436 -0.0040196818 0.010354934
-0.12658603 -0.22715276 0.6601696 -0.68575585 0.6773172 -0.26642141 0.11254565
-0.12840846 -0.23570979 0.66452676 -0.76496291 0.60719872 -0.21480539 0.12003305
-0.13600756 -0.3700718 0.65857756 -0.97984409 0.031061634 -0.19733366 0.061912533
-0.13051009 -0.40819639 0.64957178 -0.95938468 -0.016992539 -0.281589 0.061128113
-0.13338034 -0.35612327 0.6555146 -0.92537695 0.056054145 -0.37488049 0.066535406
-0.13284387 -0.34442264 0.66200602 -0.96852684 0.072615884 -0.23808132 0.069775634
-0.12803839 -0.46295649 0.64160073 -0.88548869 0.065296933 -0.46005023 0.066893183
-0.13559526 -0.39306331 0.64886719 -0.96817189 -0.00079285039 -0.25028488 0.058307849
0.052680191 -0.21699421 0.7871803 0.01578106 0.99861312 0.050227124 0.011400272
-0.092182159 -0.22207782 0.70526153 -0.40986294 0.89946926 0.15154997 0.062387716
-0.090312019 -0.22090101 0.69342905 -0.38096067 0.92335671 0.04776312 0.063471906
0.095504269 -0.21889068 0.70371324 0.23055057 0.96816093 -0.097523794 0.065353349
-0.13335757 -0.46301615 0.66032326 -0.97038311 0.049734041 -0.23639624 0.067240901
-0.12752332 -0.48032591 0.69113982 -0.99159914 0.062742785 0.11311332 0.048467658
-0.059028 -0.32252207 0.83854306 -0.79253894 0.014357346 0.60965228 0.037899181
-0.046223868 -0.39152518 0.8519609 -0.53349954 0.044604283 0.84462345 0.05911145
-0.13394412 -0.35352027 0.6642285 -0.99385512 0.056697015 -0.095065184 0.06426546
-0.081011601 -0.53317624 0.58880562 -0.33997834 -0.26160413 -0.90331501 0.11562742
-0.12885275 -0.27016845 0.67853522 -0.97438455 0.22434846 0.015566627 0.079282142
-0.11080952 -0.39936274 0.7288366 -0.93079001 0.014302811 0.36527446 0.0055723269
-0.12522349 -0.52420151 0.62202555 -0.65929979 -0.13732903 -0.73923248 0.11703409
-0.046314716 -0.4300085 0.85248733 -0.50265807 0.062874556 0.86219585 0.065591238
-0.057050437 -0.35260677 0.8415339 -0.68976808 0.010741932 0.72395074 0.046410397
-0.12828059 -0.33790174 0.68222988 -0.99100119 0.085476197 0.1030068 0.041240811
0.13989767 -0.22335358 0.75507784 0.58504665 0.80730718 0.077301502 0.12318408
-0.11719675 -0.36417174 0.71328062 -0.9474296 0.030959334 0.31846282 0.0068072923
-0.11921752 -0.41438356 0.70972168 -0.95896411 0.008057422 0.28341296 0.013553825
0.13168231 -0.22246575 0.74468261 0.50436169 0.86229986 0.045368463 0.11685996
-0.078585975 -0.43165839 0.80496585 -0.87590462 0.029028164 0.48161027 0.017156966
-0.042312879 -0.44357303 0.85399616 -0.46626762 0.10651609 0.87820768 0.054910585
-0.10662797 -0.35939628 0.735219 -0.91963923 0.034389623 0.39125562 0.014254582
-0.049265433 -0.22417292 0.82035732 -0.46976906 0.82697433 0.30891836 0.084149241
-0.16335802 -0.52653509 0.66275632 -0.98602527 0.02410814 -0.16484232 0.1616042
-0.10504363 -0.35288328 0.73826605 -0.91729397 0.03663674 0.39652178 0.014508031
-0.12844107 -0.34034857 0.68260503 -0.99041665 0.089098282 0.10552952 0.041757155
0.084883407 -0.21913095 0.6939953 0.18261755 0.97865689 -0.094242141 0.055135559
-0.11713608 -0.22612906 0.6677171 -0.61158794 0.77286112 -0.16925095 0.10676728
-0.1067473 -0.28410721 0.72833699 -0.90410715 0.16936001 0.39231044 0.021834472
0.020253727 -0.28625181 0.57961422 -0.26430544 0.12682107 -0.9560644 0.033271667
0.022889415 -0.30409744 0.57891989 -0.23763877 0.0018192324 -0.9713518 0.022708457
-0.0198279 -0.25716731 0.59539628 -0.33695245 0.40192914 -0.85142004 0.046649333
0.0092321914 -0.24367827 0.58494425 -0.30510694 0.47623199 -0.82468951 0.065611713
0.091899164 -0.22290955 0.64251029 0.43836755 0.86613643 -0.24008693 0.064835325
0.052537654 -0.41658133 0.5658983 0.0024650851 0.013192193 -0.99991 0.042764008
0.090894349 -0.21746397 0.7761808 0.15354206 0.98497236 0.07908453 0.035085078
0.0525406 -0.23390022 0.56895447 -0.010593364 0.55971664 -0.82861638 0.11175109
-0.019709878 -0.2628406 0.5952518 -0.34875461 0.34551787 -0.87119889 0.040535156
0.02965931 -0.31222701 0.57517791 -0.20296879 0.0054126005 -0.97917026 0.030836735
0.002321511 -0.30611944 0.58790267 -0.32472154 0.021893878 -0.94555622 0.0077493014
-0.033542007 -0.21961652 0.78698659 -0.21571417 0.97247356 0.088104844 0.047226366
-0.029115485 -0.27531719 0.60047901 -0.36731258 0.25974378 -0.89309269 0.032053363
0.058762733 -0.24861442 0.5669952 0.10644567 0.39151374 -0.91399473 0.10862064
0.055107776 -0.47393247 0.56507194 0.18295732 0.060889453 -0.98123342 0.051463678
0.01021412 -0.22871241 0.59360725 -0.27816212 0.61545211 -0.73745817 0.069692396
0.10731892 -0.21997091 0.71086025 0.24915208 0.96124262 -0.11805008 0.065088026
0.04910614 -0.52096945 0.5633477 0.066536173 -0.33198807 -0.94093406 0.1011294
-0.064402647 -0.23538914 0.61955601 -0.27313745 0.62797809 -0.72872454 0.054676082
0.00015086436 -0.24772851 0.58814174 -0.33860883 0.45551127 -0.8233186 0.056534
0.029381726 -0.22669536 0.58621609 -0.14538358 0.65073299 -0.74525851 0.09064883
0.044111773 -0.32601362 0.57097054 -0.10338007 0.014161344 -0.99454111 0.040610038
0.107156 -0.21726443 0.76846278 0.27034169 0.95820659 0.093571059 0.073458456
0.059687197 -0.27657628 0.56741261 0.037871428 0.13832 -0.9896633 0.066467561
0.065141618 -0.23837708 0.56665242 0.14435066 0.532314 -0.83414906 0.12064698
0.043162405 -0.3535744 0.56833613 -0.099528871 0.017602786 -0.99487901 0.034371693
0.039192211 -0.50644404 0.56519234 -0.14617535 -0.18676345 -0.97146916 0.067810029
0.044629317 -0.37669525 0.5690462 -0.044589687 0.019771907 -0.9988097 0.036624674
0.02288506 -0.21809725 0.79624051 -0.023117967 0.99943912 0.024229368 0.017624848
-0.082202904 -0.22480641 0.6359421 -0.30668467 0.81723183 -0.48793086 0.062375348
-0.09153147 -0.24860691 0.62716895 -0.47257045 0.43563119 -0.76609576 0.072156355
-0.11668798 -0.27910358 0.63744354 -0.70573163 0.095617972 -0.70199722 0.060310233
0.00084128435 -0.22032315 0.74417818 -0.04264285 0.9990868 -0.0026595136 0.017204462
-0.12540159 -0.28228652 0.64363164 -0.81073177 0.084655479 -0.57926452 0.066144876
-0.099373534 -0.25100097 0.63012618 -0.52062494 0.39053059 -0.75923353 0.078271076
0.040475246 -0.21929963 0.62687689 0.020316038 0.95339459 -0.30104142 0.047468394
-0.038027897 -0.45172772 0.5996567 -0.36356288 0.029086215 -0.93111551 0.0057278913
0.0037996336 -0.26072899 0.58516806 -0.33741209 0.34763372 -0.87481654 0.052531153
0.054618008 -0.33580533 0.56853837 0.039936036 0.0088049928 -0.99916339 0.054428082
0.044938348 -0.28091729 0.57179946 -0.089551166 0.14711066 -0.98505789 0.0581217
0.042226814 -0.28113818 0.57297599 -0.12812665 0.14597924 -0.98095542 0.057437345
0.043422885 -0.34060547 0.569902 -0.10320961 0.020960057 -0.99443877 0.036369845
0.12275611 -0.21833166 0.7558006 0.380256 0.92034328 0.091508128 0.098394915
0.046969227 -0.33242378 0.5696153 -0.068759926 0.012276771 -0.99755764 0.050486382
0.088505752 -0.21867138 0.72368079 0.16524093 0.98373836 -0.070386067 0.051301606
0.0091839414 -0.43900353 0.58019465 -0.32361871 0.026739152 -0.94580966 0.008304528
0.022779351 -0.50246102 0.57072675 -0.2274258 -0.17952198 -0.95710468 0.06110153
0.034489058 -0.38632932 0.57237661 -0.12910309 0.019166226 -0.99144596 0.026892876
0.037718643 -0.46566987 0.56910998 -0.015399477 0.061537039 -0.99798602 0.054922
0.029499646 -0.4172512 0.57129222 -0.20456724 0.024566842 -0.97854412 0.014440769
0.04255031 -0.48682761 0.56716526 0.018637056 -0.031688493 -0.99932402 0.051158965
0.029051146 -0.3939589 0.57385814 -0.15633839 0.027222063 -0.98732835 0.024541244
0.0037520661 -0.39084703 0.58430237 -0.31261349 0.032335393 -0.94932985 0.0074613406
0.056311898 -0.51165694 0.5642485 0.14650087 -0.2573902 -0.95513755 0.097108088
0.042042356 -0.52493674 0.565404 0.029958175 -0.40667188 -0.9130829 0.11193313
0.047986362 -0.45885822 0.56662416 0.079086237 0.058057252 -0.99517572 0.057925176
0.0050731502 -0.37240884 0.58415818 -0.2905035 0.040941119 -0.95599765 0.010591619
0.017340094 -0.52195239 0.57088375 -0.1615347 -0.28564149 -0.9446246 0.079490036
-0.048065789 -0.21999229 0.65216315 -0.1082472 0.94550824 -0.30707765 0.04615242
-0.065509036 -0.22678843 0.63018137 -0.25019833 0.78323859 -0.56915569 0.057468619
-0.08503674 -0.31607366 0.62395835 -0.53908145 -0.002899854 -0.84224868 0.023221258
-0.070492476 -0.35623249 0.61587113 -0.4444463 0.033012446 -0.89519697 0.0038031642
-0.069916941 -0.3580097 0.61550039 -0.43902767 0.032398526 -0.8978892 0.0031857144
0.083010972 -0.21779232 0.77348357 0.097212739 0.99404299 0.049275566 0.021817695
-0.11569953 -0.30678409 0.63949865 -0.72455734 0.0087136952 -0.68915939 0.051265933
0.056319378 -0.21671326 0.78276557 0.015051997 0.99877322 0.047174107 0.010954315
-0.0036560858 -0.35296786 0.58760357 -0.33811998 0.026443915 -0.94073141 0.0046044234
-0.083454944 -0.22736831 0.632249 -0.32458019 0.76107836 -0.56161147 0.06436
-0.05078109 -0.27501634 0.60968769 -0.38480413 0.25734094 -0.88639802 0.035342675
-0.029303506 -0.36102331 0.59974658 -0.37809527 0.041494608 -0.9248364 0.0010735798
-0.10663699 -0.32868207 0.63290483 -0.66359532 0.0039402512 -0.74808133 0.049047589
-0.069904678 -0.25273165 0.61874187 -0.34729531 0.43867269 -0.82882589 0.053860508
-0.087136611 -0.32235283 0.62373453 -0.54963213 0.013056492 -0.83530474 0.022931496
-0.049363725 -0.27136731 0.60928905 -0.37656593 0.29848799 -0.87698513 0.04158891
-0.07304056 -0.24809237 0.62053967 -0.34930363 0.46852541 -0.81146228 0.058430456
-0.0404699 -0.29561186 0.60443366 -0.39000705 0.084792651 -0.9168995 0.0062127779
-0.062586263 -0.31743327 0.61294597 -0.39810792 0.022583818 -0.91706061 0.0023860768
-0.071777001 -0.32758075 0.61743456 -0.44121671 0.016932001 -0.89724082 0.0061795106
-0.0033732539 -0.40149277 0.58442569 -0.33584517 0.01891508 -0.94172722 0.0048455428
-0.083922386 -0.39271849 0.61817992 -0.52424657 0.022198467 -0.85127711 0.014035018
-0.025066387 -0.45948705 0.59561819 -0.36799225 0.046692416 -0.9286558 0.0067650112
-0.023292391 -0.43182263 0.5924297 -0.37181425 0.0026172712 -0.92830342 0.0018758571
-0.075383827 -0.44658557 0.61478019 -0.45468685 0.050621949 -0.88921165 0.0085624754
-0.04851291 -0.47139195 0.60550964 -0.36038738 0.10992689 -0.92630291 0.017468896
-0.054686442 -0.50094199 0.6030187 -0.31261089 -0.09201511 -0.94541401 0.076836482
-0.12573232 -0.40133244 0.64268845 -0.89765012 0.021687562 -0.44017485 0.065322243
-0.07908769 -0.48637477 0.61386776 -0.45721591 0.044392545 -0.88824707 0.043221887
-0.10403583 -0.49423781 0.62297517 -0.60018867 0.016463846 -0.79968899 0.056267861
-0.12343191 -0.44598442 0.6400308 -0.8438015 0.050373279 -0.53428608 0.067752913
-0.054787595 -0.42097673 0.60747063 -0.39590618 0.014079617 -0.91818303 0.0011662309
-0.051979102 -0.50440359 0.60005498 -0.3155691 -0.10717797 -0.94283038 0.082622901
-0.11155412 -0.40464172 0.63263482 -0.75535256 0.02199734 -0.65494931 0.064529523
-0.0066389935 -0.45040774 0.58519471 -0.36483842 0.032672796 -0.93049735 0.0035656558
-0.0024321007 -0.44683272 0.58340907 -0.35688066 0.029605346 -0.93368065 0.0047898605
-0.013208563 -0.39981669 0.58859897 -0.36715916 0.019903352 -0.92994517 0.0013195386
-0.0070182974 -0.44391137 0.584939 -0.36308736 0.023819806 -0.93145061 0.0035766191
-0.079495892 -0.45052272 0.61663741 -0.47734883 0.057312593 -0.87684292 0.01229651
-0.051564883 -0.41400301 0.60569918 -0.38757503 0.017576514 -0.92167062 0.0010418587
-0.067082919 -0.44712546 0.61233562 -0.41266322 0.048284605 -0.90960306 0.0048430106
-0.07285285 -0.39991039 0.61454672 -0.45928848 0.018279105 -0.88809913 0.0046395492
-0.053349923 -0.46657774 0.6079452 -0.36305082 0.099940643 -0.9263941 0.014729154
-0.11288254 -0.45984337 0.63293606 -0.72309613 0.087189101 -0.68522257 0.059621725
-0.10703329 -0.38280645 0.62869829 -0.7123121 0.029586041 -0.70123905 0.052410919
-0.11276767 -0.41547483 0.6333009 -0.77737594 0.012389208 -0.6289143 0.066676565
-0.13522407 -0.38923115 0.64795536 -0.93489528 0.024889758 -0.35405007 0.069132499
-0.075968929 -0.40801147 0.6150142 -0.46372437 0.027672019 -0.88554728 0.0051966817
-0.11825334 -0.43365279 0.63744497 -0.82321912 0.013277661 -0.56756848 0.072333336
-0.065974176 -0.51288426 0.59986353 -0.32114947 -0.15488532 -0.934277 0.10732803
-0.06220362 -0.51059365 0.5987882 -0.31440577 -0.12682767 -0.94077832 0.098864771
-0.075490043 -0.23429115 0.62550515 -0.31713137 0.63191295 -0.70718712 0.063132174
-0.03912425 -0.31687239 0.60580742 -0.383001 0.02679654 -0.92335922 0.001016259
-0.051200066 -0.25954157 0.61119205 -0.35860419 0.37147087 -0.85639507 0.051952984
-0.067072354 -0.42826086 0.61322552 -0.43046764 0.027918529 -0.90217417 0.0027463096
-0.095364623 -0.41420245 0.62428159 -0.62452739 0.023609197 -0.78064591 0.03723301
-0.13144463 -0.43438742 0.65101218 -0.93551373 -0.017358541 -0.3528637 0.065305479
-0.086804956 -0.23897263 0.62723482 -0.40666142 0.57251143 -0.71193904 0.072120219
0.071436018 -0.21865755 0.72375792 0.050903287 0.99781096 -0.042213947 0.020883121
-0.089568414 -0.37520263 0.62091208 -0.56694245 0.040411592 -0.82276559 0.022510229
-0.088779852 -0.29901204 0.62384498 -0.52857244 0.053079035 -0.84722716 0.018756054
-0.088661738 -0.24621573 0.62564361 -0.43964085 0.4663564 -0.76761162 0.070677854
-0.031862024 -0.29105863 0.60093015 -0.3873558 0.11123357 -0.91519541 0.0091612078
-0.080958091 -0.50349915 0.61051518 -0.41081482 -0.057615884 -0.90989643 0.076882243
-0.10699089 -0.36118087 0.63327765 -0.73712498 0.051482644 -0.67379254 0.055129014
0.051374067 -0.36873925 0.56757092 0.052398082 0.038548648 -0.99788201 0.053833965
-0.086237237 -0.49703115 0.61570925 -0.48279965 -0.0061536129 -0.87570924 0.063128948
-0.082902946 -0.30070183 0.62217039 -0.504834 0.040305167 -0.862275 0.01664013
-0.071304716 -0.3217251 0.61681223 -0.4291791 0.018631034 -0.90302718 0.0049023633
-0.073315725 -0.25637195 0.61910009 -0.36756128 0.39909559 -0.84001273 0.052898571
-0.059134338 -0.27619851 0.6128571 -0.38525417 0.22409336 -0.8951878 0.031771012
-0.050013896 -0.30497518 0.60932022 -0.38928851 0.042248469 -0.92014647 0.0019758791
-0.11255435 -0.32604626 0.63788462 -0.70284021 0.0083622495 -0.71129847 0.051822096
0.033488512 -0.27370253 0.57445234 -0.21193239 0.21701969 -0.9528836 0.06257204
0.057273667 -0.45065135 0.56589943 0.16522707 0.041243061 -0.98539281 0.056642219
-0.02128005 -0.43253246 0.59156519 -0.37134117 0.0041359919 -0.9284873 0.0017634159
0.026064772 -0.44633445 0.57368112 -0.18999809 0.036873735 -0.98109174 0.024799287
-0.13185814 -0.44629699 0.64848745 -0.93687916 0.0022507317 -0.34964606 0.0647052
-0.041138701 -0.38755375 0.60028595 -0.38149124 0.031985968 -0.92381883 0.0008941401
-0.047426403 -0.36167952 0.60480446 -0.38195068 0.037647355 -0.92341566 0.0011106869
0.013742985 -0.23011446 0.5896818 -0.28042993 0.6091435 -0.74182421 0.071061321
-0.13167426 -0.40031806 0.64643246 -0.94585836 0.0011870806 -0.32457766 0.062101919
-0.12341581 -0.29358062 0.64253712 -0.79115421 0.048826285 -0.60966468 0.057454664
-0.056178108 -0.23529263 0.61671519 -0.30350357 0.61195779 -0.73033768 0.057986807
-0.11791968 -0.31170529 0.6410253 -0.75466573 0.0022241466 -0.65610576 0.055276264
-0.061081402 -0.35597053 0.61144114 -0.39731494 0.034738827 -0.91702461 0.0011505737
-0.067998223 -0.34821212 0.61557692 -0.42953584 0.032722481 -0.90245676 0.0032786333
0.045673031 -0.21715954 0.78812659 0.0052650734 0.99941725 0.033725549 0.011657116
-0.037142225 -0.32387078 0.60415298 -0.37974575 0.022137227 -0.92482597 0.0010456431
0.01332912 -0.25372717 0.58210856 -0.31212693 0.37992075 -0.87076807 0.061246749
-0.024570819 -0.25506485 0.59925115 -0.33728915 0.43807396 -0.83326292 0.049890473
0.037121713 -0.2369321 0.57708669 -0.14888944 0.52884811 -0.8355546 0.099061809
0.027780423 -0.22005604 0.74240106 -0.023700317 0.99969614 -0.0067717568 0.0075353566
-0.019501286 -0.30663288 0.59745353 -0.37562269 0.029596491 -0.92629993 0.0016712141
-0.12152102 -0.38049838 0.64070272 -0.84759623 0.044144634 -0.52880239 0.066040151
-0.096395954 -0.33241642 0.62747401 -0.60273552 0.030116096 -0.79737252 0.034170412
-0.1258498 -0.47242188 0.63926959 -0.8412708 0.13171414 -0.52432328 0.066348955
-0.014208846 -0.23009363 0.60209525 -0.29330558 0.64653957 -0.70424318 0.057281386
0.0068342928 -0.21852736 0.69029742 -0.015901435 0.99979734 0.012346038 0.0064317835
0.022485504 -0.27780253 0.57863373 -0.25979912 0.19967154 -0.944794 0.049128186
0.027118236 -0.38447139 0.57528043 -0.1951485 0.040305834 -0.97994518 0.018342236
-0.10385784 -0.45778066 0.62752104 -0.66198999 0.081334844 -0.74508649 0.058445495
-0.080421902 -0.4255608 0.61828864 -0.50628442 0.030477965 -0.86182779 0.011935897
-0.13329799 -0.49022177 0.64267933 -0.91027927 0.067168184 -0.40850946 0.07994099
-0.090291671 -0.25650844 0.62558115 -0.47597456 0.33993435 -0.81110591 0.06205602
0.046107445 -0.23740649 0.57376629 -0.066387773 0.51547438 -0.85432947 0.10918418
-0.085484698 -0.3121607 0.6238817 -0.53302807 -0.0020926783 -0.84609497 0.020321684
-0.11434685 -0.32385162 0.6410085 -0.74874157 0.019598523 -0.66257226 0.057465971
-0.092855848 -0.48502579 0.6195429 -0.51245439 0.051345047 -0.85717815 0.04376689
-0.021316858 -0.38807979 0.59382463 -0.37748832 0.034391187 -0.92537552 0.00103942
-0.0043951808 -0.39973113 0.58609331 -0.34531099 0.016689118 -0.93833995 0.0034172405
-0.033043299 -0.50831741 0.59397507 -0.29606694 -0.19404668 -0.93524867 0.092728376
-0.12450738 -0.53185195 0.61335397 -0.62081361 -0.17170626 -0.76492316 0.092555478
-0.011396126 -0.28160286 0.59351552 -0.36610723 0.18445803 -0.91210788 0.018630395
-0.075629517 -0.46013471 0.61608481 -0.47038648 0.087141983 -0.87814736 0.01514411
-0.1194421 -0.27134201 0.63908499 -0.73028094 0.16872109 -0.66198415 0.07642591
0.0028365362 -0.26345545 0.58517998 -0.34182283 0.32359973 -0.88229263 0.047966402
0.0022178798 -0.44017357 0.58278072 -0.350508 0.020279687 -0.93634021 0.0067449589
-1.0003505e-05 -0.50032157 0.58020484 -0.27008823 -0.13613321 -0.95316321 0.052521169
-0.080178171 -0.22881189 0.62972367 -0.30675951 0.75308084 -0.58203769 0.062412467
0.0038031901 -0.28129935 0.58609724 -0.33809167 0.17725861 -0.9242692 0.025104113
-0.029647682 -0.29349339 0.60101908 -0.38525826 0.093652882 -0.91804427 0.0068301805
-0.0092614479 -0.21897754 0.65194827 -0.1143422 0.9700762 -0.21419144 0.030381598
-0.013010656 -0.36579409 0.59076273 -0.36608467 0.039630558 -0.92973733 0.0014712793
-0.087175421 -0.39631617 0.61842531 -0.53912693 0.021288062 -0.84195542 0.017451974
0.044546004 -0.31877026 0.57046229 -0.11248089 0.012811393 -0.99357128 0.036217034
-0.050551325 -0.42416707 0.60581464 -0.38693088 0.016114317 -0.92196786 0.0011636914
-0.032668378 -0.3278026 0.60271442 -0.3801125 0.024816256 -0.92460728 0.0010083442
-0.08998245 -0.32109088 0.62591034 -0.56023484 0.010099987 -0.82827228 0.026667155
-0.10994335 -0.35206428 0.63322222 -0.7243734 0.040302109 -0.68822885 0.053957425
-0.061626628 -0.23353299 0.61906296 -0.26929435 0.64798933 -0.71245372 0.051462237
-0.11865824 -0.26455972 0.63986093 -0.70511651 0.24857441 -0.66409445 0.082575992
-0.11638945 -0.28629613 0.63735235 -0.69393808 0.053196561 -0.71806687 0.04907563
0.015372897 -0.21833375 0.6558857 -0.034962188 0.99165189 -0.12411374 0.011628464
0.061167594 -0.21834186 0.69638044 0.076716587 0.99630141 -0.038703457 0.028914304
-0.09878315 -0.50162679 0.61903244 -0.56800902 -0.042750809 -0.82191122 0.072953016
-0.041087288 -0.23411115 0.61233699 -0.27703029 0.65427774 -0.70368659 0.06520772
0.051712863 -0.22177462 0.60670263 0.10032301 0.83735186 -0.5373798 0.088845529
0.059041679 -0.38171208 0.56807655 0.17246459 0.022032313 -0.98476928 0.055829421
-0.034967437 -0.2196788 0.71676731 -0.08858642 0.99405617 0.063282922 0.017977374
-0.12701726 -0.50446051 0.63597125 -0.80083251 -0.0013880571 -0.59888679 0.10738005
-0.078996569 -0.48914936 0.61390984 -0.45069873 0.032145526 -0.89209712 0.04637266
-0.11869273 -0.51127195 0.62563151 -0.70129043 -0.067082651 -0.70971245 0.10094104
-0.12220605 -0.33778805 0.6411469 -0.78547561 0.039750371 -0.61761469 0.06073048
-0.050021078 -0.3351686 0.60843527 -0.38419393 0.031453174 -0.9227165 0.0013386655
-0.094703063 -0.51040721 0.61213434 -0.50267285 -0.082214631 -0.86055845 0.075684384
0.036329657 -0.3873623 0.57158995 -0.13075462 0.021412304 -0.99118352 0.026534896
0.057549156 -0.48588938 0.56638646 0.21601985 -0.0012254743 -0.97638816 0.055940598
0.02701162 -0.23162591 0.58183438 -0.21164797 0.57939833 -0.787085 0.087338671
-0.080458611 -0.28322676 0.6211552 -0.47009617 0.13476478 -0.87226599 0.024179351
-0.10499721 -0.47770441 0.6266337 -0.63785046 0.11643716 -0.76130748 0.046113871
0.05728776 -0.21903878 0.64327681 0.13899715 0.97682375 -0.16277318 0.032083496
0.10254999 -0.21920741 0.72808826 0.225201 0.9722479 -0.063391782 0.063812532
0.041689586 -0.3555032 0.56877029 -0.11704072 0.019396797 -0.99293768 0.034072682
-0.052355159 -0.34145913 0.60878992 -0.38568699 0.033351224 -0.92202675 0.001507852
0.051812824 -0.52619427 0.5650242 0.12223908 -0.43439952 -0.89238709 0.11929004
-0.015184468 -0.41751039 0.58673364 -0.36528236 0.002590328 -0.93089318 0.0017535398
0.043391984 -0.51003724 0.56462973 -0.096362196 -0.2360514 -0.96695083 0.083619319
-0.062603116 -0.22066259 0.7442047 -0.27186283 0.94896108 0.15988606 0.0631001
-0.13380557 -0.49673915 0.64273542 -0.87528938 0.072623685 -0.47811535 0.11110076
-0.02244514 -0.23365438 0.60503948 -0.28157693 0.64812005 -0.7075696 0.058066517
-0.0013324273 -0.24876177 0.58969647 -0.33682144 0.45087922 -0.82659501 0.054870505
-0.091649123 -0.50581419 0.61216384 -0.4858937 -0.053255633 -0.87239391 0.071639784
-0.023353243 -0.31865057 0.59859437 -0.3793284 0.020278215 -0.92503989 0.0009172252
0.0063324058 -0.31982082 0.58547908 -0.29926261 0.0020429182 -0.95416856 0.011941805
-0.0073708822 -0.21799225 0.68451297 -0.025423577 0.99966174 0.0054792194 0.0063189794
-0.13424991 -0.48160478 0.64815354 -0.92617148 0.094901897 -0.36496565 0.069625229
-0.14038755 -0.5227887 0.64513022 -0.87620854 -0.080122516 -0.47522509 0.15833788
-0.10825501 -0.24026181 0.63813704 -0.56330585 0.54969138 -0.61686784 0.099689528
-0.13212796 -0.37487218 0.64808601 -0.9050777 0.03690847 -0.4236415 0.066566847
0.061846089 -0.26643407 0.56841046 0.079096042 0.25347272 -0.9641034 0.087356806
-0.017884856 -0.27740374 0.59556514 -0.37370288 0.23379646 -0.89759982 0.027706739
0.056879148 -0.5220452 0.56345981 0.21520464 -0.3544682 -0.90996659 0.10660519
-0.032669 -0.22330247 0.62238407 -0.21969464 0.80346549 -0.55333304 0.061334446
0.059204932 -0.27332768 0.56913346 0.024765451 0.175475 -0.9841724 0.071569882
0.00017905643 -0.21893296 0.69591582 -0.014040353 0.99981052 0.013477586 0.006892025
-0.0068173073 -0.21920747 0.69967633 -0.02505284 0.9995268 0.017848641 0.0081013786
0.084785938 -0.2205867 0.63786888 0.35710824 0.90702456 -0.22311455 0.047285218
-0.019626452 -0.21891476 0.65672249 -0.11943321 0.96945435 -0.21422884 0.032541439
-0.013677967 -0.2219595 0.61511147 -0.22136913 0.82111371 -0.5260874 0.061028283
-0.021395097 -0.22034733 0.63649905 -0.17411207 0.91810834 -0.35603654 0.047322255
0.11709003 -0.22040464 0.72098947 0.36206076 0.92380208 -0.12450629 0.085015804
0.11621513 -0.22148475 0.68854076 0.43338764 0.8808977 -0.19024831 0.090707175
0.016557507 -0.28842229 0.58161825 -0.28002298 0.11033997 -0.9536311 0.02722716
-0.057257894 -0.48110902 0.60766363 -0.35998192 0.038907856 -0.93214762 0.033008598
0.030834699 -0.31471384 0.57436049 -0.1957452 0.011316555 -0.98058957 0.031511296
0.040090878 -0.38009965 0.5689925 -0.058671895 0.027585369 -0.99789613 0.038036548
0.052732788 -0.33297241 0.56903726 0.020844797 0.0070618354 -0.99975771 0.05619888
-0.043292645 -0.30308646 0.60634696 -0.38852617 0.047121186 -0.920232 0.0018961765
0.02218991 -0.43961492 0.57576305 -0.21296665 0.018544983 -0.97688347 0.026248571
0.032390889 -0.50656414 0.56758374 -0.20305626 -0.18631159 -0.96127844 0.065397173
-0.031225506 -0.34863171 0.60040826 -0.37646416 0.036578968 -0.92570877 0.0010419481
0.047401831 -0.34303525 0.56799322 -0.053291727 0.01737871 -0.99842775 0.036083043
0.034240864 -0.49933913 0.56784046 -0.19614677 -0.15927319 -0.96755278 0.05815601
-0.097937725 -0.22342582 0.64739704 -0.39195219 0.81661856 -0.42368338 0.084185809
-0.056802135 -0.21980368 0.68512613 -0.13509203 0.98923355 -0.056276593 0.022302976
-0.06017369 -0.2270648 0.62208593 -0.25126892 0.69513106 -0.67354047 0.055024538
-0.10969371 -0.4421325 0.63109821 -0.73807621 0.028442275 -0.67411762 0.065137602
-0.10954749 -0.33723053 0.63513702 -0.6852864 0.029355783 -0.72768182 0.050162207
-0.12752441 -0.43182567 0.64567333 -0.91077548 -0.025121983 -0.41213691 0.064746112
-0.098690614 -0.49103299 0.62141293 -0.57664782 0.022418257 -0.81668526 0.053458489
-0.13247247 -0.36097082 0.64989585 -0.89645875 0.041806985 -0.4411507 0.061809365
-0.073685102 -0.474168 0.61362976 -0.44869247 0.1131901 -0.88648915 0.020001179
0.044352233 -0.23404199 0.57541138 -0.053669002 0.57930744 -0.81334037 0.10605502
0.036010172 -0.32199255 0.57288903 -0.15147856 0.01186914 -0.98838931 0.036631111
0.015526265 -0.41313261 0.57764584 -0.2737821 0.019552771 -0.96159297 0.013444804
-0.1225256 -0.40871045 0.64082986 -0.85064965 0.012488497 -0.52558452 0.074411802
0.036350552 -0.2171991 0.7799992 -0.015242031 0.99985743 0.0072573894 0.013483156
0.0049288222 -0.25332481 0.58623886 -0.32162258 0.40360352 -0.8565414 0.057687271
-0.13159175 -0.41462922 0.64772922 -0.94468355 -0.03100629 -0.32651421 0.060557876
-0.13756371 -0.36637792 0.64616281 -0.90331858 0.04079986 -0.42702574 0.062461589
-0.00079263415 -0.43085316 0.58258337 -0.34710711 0.016240485 -0.93768483 0.0051880828
-0.074139193 -0.28746426 0.61838287 -0.43446398 0.11751824 -0.89298964 0.015234864
-0.11771195 -0.47824001 0.63381803 -0.75681633 0.10986438 -0.64432818 0.060807362
-0.026579538 -0.21938092 0.7737059 -0.164423 0.98534685 0.045350898 0.034232248
-0.10807832 -0.29174227 0.63354129 -0.63779587 0.037317365 -0.76930094 0.036037158
-0.16559005 -0.53369474 0.66504091 -0.98828632 -0.070325345 -0.13544133 0.19069318
0.050512567 -0.23362577 0.57170534 -0.014338685 0.57382935 -0.81884938 0.10951359
-0.026171992 -0.32992995 0.59892637 -0.37994966 0.025417196 -0.92465788 0.00091379596
-0.065408215 -0.32704565 0.61450183 -0.40255699 0.02724015 -0.91498947 0.0028831421
-0.10189735 -0.53338993 0.60633206 -0.50801283 -0.28417829 -0.81312096 0.093529299
-0.032969188 -0.23608813 0.60835391 -0.26744181 0.63873887 -0.72144818 0.061563171
0.041978668 -0.23069531 0.5745545 -0.075639129 0.56940079 -0.81857282 0.10205556
-0.095316462 -0.31736305 0.62826592 -0.58794278 0.0065954505 -0.80887562 0.031784575
-0.030736586 -0.23170158 0.60776734 -0.26577646 0.67520869 -0.68808156 0.058385625
0.01540333 -0.24938042 0.5836522 -0.29650906 0.44916931 -0.84281033 0.070802823
-0.0097091608 -0.22015427 0.7664752 -0.084831789 0.996355 0.0089596258 0.014727726
0.039459791 -0.21916664 0.73603886 -0.017930187 0.99971598 -0.015698349 0.01112094
0.15144536 -0.22609554 0.76773405 0.73151165 0.6665653 0.14346217 0.14175831
-0.050448436 -0.22524931 0.82245535 -0.4709726 0.82746476 0.30575612 0.08550442
0.055376474 -0.21764156 0.76270235 0.00091647584 0.99998146 0.0060120584 0.0090108877
0.0078697735 -0.21905741 0.80677426 -0.058098301 0.9956156 0.073308885 0.017575357
-0.049299356 -0.22025873 0.72207952 -0.16859095 0.98028743 0.10302284 0.037776839
0.026823472 -0.33671892 0.57567436 -0.17979327 0.013332468 -0.98361409 0.033767376
0.065442584 -0.36500347 0.57152927 0.33784908 -0.0020442943 -0.94119805 0.070946634
-0.054714635 -0.37767398 0.60696155 -0.39012143 0.03339253 -0.92015773 0.00094250712
0.059475079 -0.40914389 0.56848079 0.10479918 0.0034716076 -0.99448735 0.049690332
0.066949703 -0.29139924 0.56835717 0.1947448 0.066148587 -0.97862089 0.060984001
-0.068986788 -0.27859962 0.61686552 -0.39471874 0.20281981 -0.89613688 0.02793259
-0.0826196 -0.42202282 0.61896044 -0.52042526 0.019031279 -0.85369509 0.015079534
-0.092856921 -0.44264507 0.62233341 -0.56877851 0.067042358 -0.81975383 0.029257817
-0.09549731 -0.52543801 0.61323452 -0.48366714 -0.25658345 -0.83679807 0.10201096
-0.087940358 -0.41745675 0.62162131 -0.56500369 0.031990279 -0.82446802 0.025205951
0.023533687 -0.28868967 0.57908714 -0.24290611 0.10383603 -0.96447647 0.036004726
0.016115291 -0.31975564 0.57953304 -0.25401181 0.0041474164 -0.96719229 0.022141777
0.023286588 -0.2972489 0.57845557 -0.24585623 0.044039175 -0.96830535 0.024709132
-0.090386756 -0.3632732 0.62221169 -0.57767874 0.043038078 -0.8151288 0.026317291
-0.0045881704 -0.2189883 0.71023303 -0.032699723 0.9990387 0.02919527 0.016850682
0.057301972 -0.31817394 0.56720775 0.047605228 0.019896967 -0.99866802 0.052862175
-0.099679865 -0.42135561 0.62613982 -0.64889932 0.020136243 -0.7606079 0.042729847
-0.035589904 -0.46085376 0.60131109 -0.36306778 0.057903592 -0.9299618 0.0085905744
0.05296522 -0.46897453 0.56610501 0.17291071 0.069456041 -0.98248547 0.055859871
0.024409125 -0.24281867 0.57989341 -0.2573823 0.46612963 -0.84644991 0.083685368
0.052274499 -0.44106457 0.56545615 0.066009812 0.022100968 -0.99757421 0.05203351
0.017869795 -0.43068647 0.57638901 -0.28292471 0.027082652 -0.95875961 0.0137704
0.12784754 -0.22147664 0.72739291 0.44921809 0.88307887 -0.13555346 0.10187153
0.043256149 -0.38750812 0.56690943 -0.078819022 0.030245241 -0.99642998 0.028803047
0.052795831 -0.2183466 0.73687029 -0.0093592601 0.99965608 -0.024497107 0.012708474
0.026379455 -0.36640346 0.57532257 -0.19667509 0.046119262 -0.97938347 0.019608373
0.1430223 -0.22645769 0.7390492 0.64007992 0.76769769 -0.030623684 0.12417687
0.056854919 -0.41459349 0.56649071 0.064259551 0.0062529529 -0.9979136 0.045902148
0.13222927 -0.23589505 0.71094215 0.72262883 0.60968035 -0.32572591 0.10478275
0.047481265 -0.44380662 0.56476402 -0.010045041 0.038927782 -0.99919158 0.046634313
0.012954183 -0.38855931 0.58139241 -0.27185488 0.034508169 -0.96171939 0.012707647
-0.041930519 -0.51532465 0.59687096 -0.3110033 -0.25645816 -0.91515368 0.10884658
0.063187495 -0.35878918 0.56982887 0.27737495 0.01758579 -0.96060085 0.072836682
-0.070615545 -0.33889958 0.61629087 -0.43475083 0.030068528 -0.90004867 0.0041696387
0.013561049 -0.21815266 0.67685127 -0.0050559756 0.99996305 0.0069526718 0.008759656
0.025861939 -0.4415051 0.57234323 -0.19338949 0.02265493 -0.98086041 0.025931807
-0.040083576 -0.29623738 0.60432196 -0.38865629 0.078951567 -0.91799396 0.0055836621
-0.083324127 -0.41556251 0.61623186 -0.49540338 0.032338355 -0.86806083 0.0099636996
-0.070984751 -0.35483107 0.61622322 -0.44541144 0.03209424 -0.8947506 0.0038466083
-0.062365744 -0.31655464 0.61297387 -0.3951419 0.026329471 -0.91824269 0.0022281522
-0.085660048 -0.31871355 0.62416452 -0.54487211 0.011103678 -0.8384456 0.022723967
-0.11776127 -0.27532378 0.63755167 -0.71503705 0.11892988 -0.688896 0.067026369
-0.1107408 -0.34107533 0.63588405 -0.71319067 0.031319056 -0.70027006 0.052641355
-0.10842229 -0.25381801 0.63509071 -0.61477262 0.39289305 -0.68387842 0.094957732
-0.1334333 -0.49509311 0.64005196 -0.86272663 0.068230376 -0.50104624 0.10024814
-0.13133655 -0.39228752 0.64648664 -0.9373585 0.025283456 -0.34744751 0.068642721
-0.12932275 -0.23951636 0.65177345 -0.75992584 0.54780263 -0.34989306 0.11624464
-0.051379006 -0.22752598 0.61959058 -0.25796103 0.71935362 -0.64497018 0.056858264
-0.080914505 -0.2290213 0.62944406 -0.3156321 0.74256426 -0.59074086 0.063591354
0.015472567 -0.24862982 0.58213198 -0.30462232 0.44770899 -0.84069133 0.06971734
-0.087434717 -0.2455164 0.62447107 -0.42741466 0.4657698 -0.77483886 0.069810987
-0.072070055 -0.24609931 0.6203385 -0.34850508 0.48736387 -0.8006376 0.057993386
-0.052936941 -0.34152931 0.6089924 -0.38706732 0.034812145 -0.92139405 0.0014382147
-0.12748873 -0.25184539 0.64470887 -0.75457615 0.37836567 -0.53614765 0.1086414
0.0090606585 -0.43559787 0.57906675 -0.32209054 0.026950164 -0.94632518 0.0078651197
-0.071558684 -0.35662577 0.616036 -0.44904494 0.031900007 -0.89293951 0.0041724062
-0.030302372 -0.29289314 0.60082084 -0.38543576 0.094561376 -0.9178766 0.0068591135
-0.043558709 -0.2998409 0.60574317 -0.38861778 0.053454176 -0.91984713 0.0025268055
-0.11554522 -0.30525616 0.63859075 -0.70524061 0.0073800082 -0.7089296 0.048019242
-0.12932578 -0.43261623 0.64529938 -0.91331935 -0.017237883 -0.40687916 0.063680723
-0.074190632 -0.23451658 0.62410659 -0.31180805 0.63115293 -0.71022648 0.06189163
-0.049636994 -0.27018213 0.60925168 -0.37567291 0.31057432 -0.87316293 0.043627948
-0.054476801 -0.22597291 0.62018085 -0.24485417 0.71600211 -0.65374881 0.05711133
-0.12780792 -0.25261918 0.6427635 -0.76026934 0.35602733 -0.54335541 0.1053883
-0.11457903 -0.30083495 0.63802171 -0.67713302 0.019039638 -0.73561424 0.038990952
-0.072969086 -0.30724141 0.61917841 -0.44828033 0.029633464 -0.89340168 0.0071688946
-0.050810687 -0.25993207 0.61075306 -0.35863319 0.37143925 -0.85639656 0.051660668
-0.0025397493 -0.24857076 0.58929288 -0.34007162 0.45213598 -0.8245753 0.054357093
0.016147239 -0.24707656 0.58182043 -0.30102479 0.45567489 -0.83770198 0.069569126
0.02985996 -0.31351289 0.57474971 -0.20245488 0.0046772724 -0.97928041 0.031256549
-0.031415801 -0.35968471 0.5996421 -0.37676284 0.042204555 -0.92534781 0.001094498
-0.080685303 -0.29564449 0.62136388 -0.48761836 0.064899459 -0.87064141 0.015084135
0.0018300208 -0.22825788 0.59830523 -0.29688302 0.63931 -0.70932579 0.061662916
-0.050207589 -0.27186489 0.60937095 -0.37794563 0.29031742 -0.87913191 0.040489789
-0.13260292 -0.3754065 0.64401466 -0.89928854 0.046802435 -0.43484434 0.068121575
-0.079784125 -0.27118534 0.61981243 -0.44709125 0.21636489 -0.86792606 0.03306238
-0.13587086 -0.36709356 0.64944929 -0.91219425 0.040725663 -0.40772912 0.062805198
-0.010862243 -0.21914828 0.80714917 -0.11864454 0.98855096 0.093222626 0.033934001
-0.16399008 -0.52301657 0.728513 -0.9258588 0.33707702 0.1707762 0.13819602
-0.11065397 -0.22836682 0.71046817 -0.6532014 0.71245742 0.25638315 0.074441589
-0.12669919 -0.22875686 0.65559947 -0.68015683 0.66702431 -0.30408099 0.11065701
-0.16397473 -0.52553385 0.73015517 -0.9113155 0.37199536 0.17641857 0.14514081
-0.15065952 -0.53181005 0.7373662 -0.9863705 0.058851916 0.15365446 0.16863784
-0.13728815 -0.52149379 0.79488462 -0.83658248 0.41603738 0.35643056 0.18089505
-0.10116829 -0.2250292 0.72543544 -0.5638352 0.75921768 0.32508224 0.072456084
-0.13203385 -0.37056375 0.64744073 -0.89527863 0.043566264 -0.44337144 0.061253749
-0.13205661 -0.5160985 0.68383813 -0.99879032 -0.041481193 0.026403975 0.14837749
-0.12986733 -0.36420691 0.68212944 -0.9911288 0.054872509 0.1210487 0.037284859
-0.12997808 -0.50148678 0.68962771 -0.99455822 0.010636009 0.10363763 0.10820222
-0.13259247 -0.35587642 0.65026516 -0.8985163 0.04765119 -0.43634588 0.059908498
-0.12967794 -0.29076418 0.65874463 -0.93518895 0.073004067 -0.34654301 0.068027534
-0.066141777 -0.26934776 0.8268851 -0.80500305 0.32199359 0.49828729 0.048977073
-0.11884517 -0.52156919 0.84980249 -0.6601131 0.36428642 0.65692157 0.14933364
-0.11244151 -0.25273088 0.71032941 -0.83957726 0.43987194 0.31878322 0.062372286
-0.13504484 -0.45687777 0.64751446 -0.94223845 0.046272479 -0.33173105 0.066008747
-0.10417478 -0.38460988 0.7446593 -0.91950566 0.029224139 0.39198884 0.010059153
-0.1273338 -0.40499386 0.68788177 -0.98519629 -0.0047429246 0.17136469 0.029431092
-0.098143212 -0.43463579 0.76163107 -0.91732454 0.041799411 0.39593989 0.017768433
-0.075073473 -0.4662782 0.81559938 -0.85133517 0.11913966 0.51091504 0.042431992
0.0039699185 -0.26363569 0.58471131 -0.33205941 0.31128308 -0.89041519 0.047570515
-0.088810705 -0.27533993 0.76280695 -0.85423547 0.26707837 0.44603911 0.051283609
-0.13006362 -0.24456905 0.6505475 -0.77585584 0.48457175 -0.40402699 0.11743972
-0.077822044 -0.31908813 0.79944682 -0.88680905 0.071153171 0.45662561 0.019459186
-0.13191462 -0.47260866 0.67615432 -0.99594843 0.083596796 0.033139825 0.047583569
-0.087091833 -0.37966615 0.78609329 -0.90316015 0.032552864 0.42806771 0.015341601
-0.1126248 -0.48100105 0.73366117 -0.95615506 0.12853126 0.26314875 0.076664492
-0.13132615 -0.44296673 0.67708755 -0.99951178 -0.030121652 -0.008295727 0.04384302
-0.12150415 -0.41467002 0.70507032 -0.96341121 0.0052782758 0.2679756 0.011491993
-0.1313974 -0.38247424 0.67733961 -0.99833399 0.016791016 0.055202834 0.047643706
-0.084927745 -0.31446323 0.78150338 -0.90491772 0.091695078 0.41559121 0.022556357
-0.10932352 -0.49103722 0.75056618 -0.94806552 0.10112063 0.30157316 0.12045394
-0.10782882 -0.34830338 0.73337382 -0.92169762 0.043902788 0.3854166 0.011352465
-0.088115379 -0.38408011 0.78737628 -0.90190423 0.033243805 0.43065491 0.010159169
-0.1272027 -0.23954678 0.67162794 -0.81826633 0.5612849 -0.12409496 0.11554748
-0.068000555 -0.32212818 0.82232881 -0.8276664 0.021672761 0.5608018 0.041963674
-0.11890202 -0.28945732 0.70117241 -0.95487309 0.11234292 0.27494833 0.023159495
-0.11826119 -0.28695148 0.70394582 -0.94716549 0.12123707 0.29694983 0.020051964
-0.074118182 -0.39638039 0.81441522 -0.84151787 0.041051567 0.5386672 0.026795667
-0.13710812 -0.38433847 0.65557587 -0.98637766 0.0048790835 -0.1644242 0.061992276
-0.11310591 -0.46579877 0.73251927 -0.93453181 0.15269679 0.3214559 0.039731808
-0.12372942 -0.49931452 0.7020669 -0.9861027 0.017264044 0.16523735 0.1036708
-0.12939218 -0.38933405 0.68296301 -0.99468863 0.018935192 0.10117299 0.04515297
-0.099230744 -0.32474238 0.74654752 -0.91421497 0.055382125 0.40142724 0.011313137
-0.12349856 -0.53506505 0.71658152 -0.78036112 -0.59652859 0.18759049 0.16448528
-0.096977644 -0.43066743 0.76311117 -0.91699332 0.040434137 0.39684799 0.016673466
-0.11086104 -0.29051197 0.72000432 -0.9236328 0.12065464 0.36379221 0.012931314
-0.066045739 -0.47085258 0.83312654 -0.7506212 0.14990164 0.6435039 0.060015772
-0.13297527 -0.39028707 0.64486206 -0.92117906 0.02710128 -0.3881942 0.06528835
-0.092087664 -0.25782335 0.7550419 -0.77341133 0.44469222 0.45175621 0.077815324
-0.15350565 -0.52152544 0.76353526 -0.95718968 0.27736747 0.082795881 0.17819269
-0.12725233 -0.52875525 0.82084471 -0.712704 0.58509576 0.3869316 0.17389627
-0.08474984 -0.52988321 0.87726361 -0.22573194 0.0059025879 0.97417164 0.16402888
-0.14047886 -0.51706445 0.79273969 -0.84960073 0.41892651 0.320436 0.17534022
