# .PCD v0.7 - Point Cloud Data file format
VERSION 0.7
FIELDS x y z normal_x normal_y normal_z curvature
SIZE 4 4 4 4 4 4 4
TYPE F F F F F F F
COUNT 1 1 1 1 1 1 1
WIDTH 578
HEIGHT 1
VIEWPOINT 0 0 0 1 0 0 0
POINTS 578
DATA ascii
-0.13518973 -0.30605409 0.46078384 -0.32011247 -0.80235916 -0.50373387 0.085330136
-0.12170795 -0.30605409 0.46266875 -0.24120717 -0.85022104 -0.46791384 0.087305129
-0.118548 -0.30605409 0.46735609 -0.21544151 -0.8825081 -0.41804838 0.083628736
-0.090201743 -0.30605409 0.46050659 -0.14054875 -0.91225439 -0.38475707 0.08843261
-0.077797592 -0.30605409 0.46761012 -0.060175858 -0.97258359 -0.22463323 0.052984115
-0.064566091 -0.30605409 0.46296144 -0.076413281 -0.97374481 -0.21443428 0.053237498
-0.054565791 -0.30605409 0.4650082 -0.054926664 -0.98429972 -0.16774115 0.037719432
-0.048374809 -0.30605409 0.46239579 -0.059953757 -0.98438704 -0.16549236 0.036604118
-0.02009654 -0.30605409 0.4658176 0.033699371 -0.99916488 -0.023108091 0.0045202854
-0.01930359 -0.30605409 0.46959439 0.036742929 -0.99916995 -0.017592385 0.0047925874
-0.0080982633 -0.30605409 0.46905041 0.080851167 -0.99616492 -0.033445038 0.015985182
0.019191271 -0.30605409 0.46512839 0.11688042 -0.99137276 -0.059321932 0.036738873
0.02367365 -0.30605409 0.4615759 0.15011653 -0.98594379 -0.073347405 0.04723433
0.045026757 -0.30516896 0.46359313 0.41027609 -0.89600241 -0.16986227 0.10095517
0.05196007 -0.30225626 0.46623832 0.42832956 -0.8751393 -0.22508904 0.11038675
-0.19000678 -0.29334375 0.46869901 -0.74502909 -0.48485914 -0.45808661 0.12616178
-0.17666186 -0.29918066 0.4635219 -0.65753794 -0.54099715 -0.52437192 0.11334688
-0.18368891 -0.28405195 0.46478021 -0.74276358 -0.35972387 -0.56471324 0.11221714
-0.17811501 -0.28913209 0.46145055 -0.6984421 -0.38377476 -0.6040659 0.10558224
-0.18574838 -0.2737411 0.46666181 -0.77034545 -0.24384314 -0.58915913 0.10666704
-0.17531477 -0.2755478 0.46247891 -0.70873344 -0.23856655 -0.66391486 0.088062197
-0.17736433 -0.26005587 0.46104109 -0.72786099 -0.15736435 -0.66742402 0.071413621
-0.18717052 -0.25313449 0.46642241 -0.78331649 -0.089650854 -0.61512446 0.07722041
-0.17869824 -0.25538313 0.46060672 -0.72561169 -0.12827913 -0.67604154 0.062249348
-0.18174297 -0.22414052 0.46148294 -0.71260417 0.041651323 -0.70032883 0.034378186
-0.18352467 -0.21594107 0.46298379 -0.72898531 0.048496053 -0.68280929 0.038504232
-0.1792696 -0.21954788 0.46029702 -0.69814134 0.045776688 -0.71449506 0.035525344
-0.1807915 -0.20631412 0.46206832 -0.75375533 0.039485976 -0.65596783 0.047299288
-0.19076987 -0.19765644 0.46766901 -0.85191411 0.043537475 -0.52186877 0.047079422
-0.18041769 -0.19184743 0.46276549 -0.77795988 0.049226508 -0.62638271 0.052750759
-0.17662041 -0.19703108 0.46033004 -0.75641543 0.041351985 -0.6527831 0.048108146
-0.18317482 -0.18307087 0.46464473 -0.80322289 0.052751251 -0.59333825 0.053771436
-0.17672421 -0.18418171 0.46078354 -0.75829434 0.046709854 -0.65023679 0.049623217
-0.18460165 -0.17585196 0.46584344 -0.82012826 0.059924524 -0.56903315 0.056102686
-0.18236832 -0.16070752 0.46384749 -0.83429134 0.003262209 -0.55131429 0.055131856
-0.17770787 -0.16584143 0.46137509 -0.80997026 0.0020465823 -0.58646739 0.05483
-0.18783531 -0.15523168 0.46628803 -0.86774534 -0.0025002775 -0.49700287 0.054399423
-0.17996126 -0.15997544 0.46274999 -0.82138586 0.0052025998 -0.57034928 0.054772176
-0.18511271 -0.14946137 0.46527377 -0.84464711 -0.00083842594 -0.53532296 0.052819427
0.05079367 -0.1407748 0.46181911 0.8853302 0.021706097 -0.4644559 0.0026506877
-0.18357868 -0.1348469 0.46507904 -0.81987381 -0.016039615 -0.57231951 0.046609227
0.048294593 -0.13749394 0.46191505 0.88440365 0.021735998 -0.46621647 0.0025352298
-0.18333933 -0.1288124 0.46651649 -0.80825436 -0.025244527 -0.58829218 0.045686722
-0.17970406 -0.12279719 0.46206975 -0.75195307 -0.017674992 -0.65897977 0.039975904
-0.17943187 -0.10606953 0.46235004 -0.72344702 -0.0049615223 -0.6903621 0.033913326
-0.18255377 -0.093130767 0.46542206 -0.74399209 -0.0095584057 -0.66812009 0.041291013
-0.183687 -0.08794751 0.46701145 -0.75085491 -0.020692641 -0.66014296 0.042054042
0.049046241 -0.088253699 0.4629049 0.88012874 0.028225623 -0.47389537 0.0021194129
0.053344876 -0.08037024 0.46605107 0.87753928 0.028852532 -0.478636 0.0019630725
0.055441391 -0.076888368 0.4670184 0.87649101 0.031087104 -0.48041347 0.0017938777
-0.177818 -0.066148855 0.46339232 -0.70526427 0.071963869 -0.70528257 0.034504183
-0.18272944 -0.055158336 0.46788779 -0.80041617 0.14708197 -0.58112031 0.059446137
0.043737546 -0.050761022 0.46096122 0.83564872 0.29584509 -0.46278179 0.054916166
-0.18744501 -0.048555993 0.46985126 -0.81535316 0.1802828 -0.55017954 0.069552608
-0.1761681 -0.044917691 0.46320686 -0.72674167 0.22572038 -0.64876562 0.063896015
-0.17301452 -0.03525817 0.46141782 -0.68034822 0.26087049 -0.6848889 0.059254091
0.043181695 -0.035574056 0.4604767 0.78854656 0.42878526 -0.44083729 0.079193741
-0.17557529 -0.027020369 0.46351522 -0.69277287 0.30240247 -0.65468961 0.067866035
-0.16784987 -0.02076922 0.46026012 -0.64680886 0.347736 -0.67876214 0.06802848
-0.16426417 -0.010550523 0.46104705 -0.61287278 0.42002115 -0.66930509 0.077470027
-0.17002134 -0.006473653 0.46556789 -0.65013468 0.47291172 -0.59470958 0.088839486
-0.16543753 -0.005763561 0.46451166 -0.61453265 0.50871009 -0.60296243 0.089127414
-0.15678227 -0.0011206982 0.46107674 -0.53895015 0.57455295 -0.6159721 0.084890753
-0.13361891 -2.2063718e-06 0.4605588 -0.34191927 0.78148818 -0.52188832 0.08521942
-0.077894688 -0.00080742582 0.46751881 -0.094373919 0.94992059 -0.29790011 0.0566158
-0.064851321 -0.00071255624 0.46638843 -0.05542057 0.9679395 -0.24499331 0.043747447
-0.019929109 -0.00031223817 0.46563977 0.067827433 0.99029166 -0.12133414 0.015006604
0.043494035 -0.0021697176 0.46658537 0.61870152 0.72097319 -0.31209955 0.082408726
-0.15648884 0.0016309369 0.46625242 -0.49827638 0.7060408 -0.50321668 0.098349132
-0.13609082 0.00043363686 0.46088493 -0.35449409 0.78139788 -0.51356721 0.085438706
-0.12168768 0.001713349 0.46266359 -0.24396993 0.85241091 -0.46246558 0.076683685
-0.1186242 0.0018538185 0.46734926 -0.20009144 0.89294559 -0.40325141 0.067527175
-0.090242296 0.00094499096 0.4604536 -0.11476346 0.91934216 -0.37635008 0.067340009
-0.064299785 0.00085293705 0.46280047 -0.060469836 0.96251011 -0.26441932 0.046533525
-0.054444689 0.0020146077 0.4648762 -0.037597936 0.9765287 -0.21208048 0.032257624
-0.049301237 0.002665764 0.4623138 -0.049738236 0.9745453 -0.21860376 0.033939365
-0.0077657672 0.00092029176 0.4689807 0.13750285 0.98102838 -0.13666135 0.035445519
0.01912133 0.0020371971 0.4653917 0.23705147 0.95152551 -0.19597392 0.057833318
0.023660993 0.0012636132 0.46161178 0.26936239 0.94129616 -0.20348322 0.061460812
-0.20476934 -0.30095783 0.4785307 -0.83408612 -0.4661043 -0.29503757 0.14427
-0.19438428 -0.30136675 0.47859091 -0.72748369 -0.58486587 -0.35874698 0.14322825
-0.1870607 -0.30334547 0.4765501 -0.67055416 -0.64868653 -0.35994864 0.13343918
-0.17365986 -0.30491099 0.47536379 -0.56860822 -0.73557407 -0.3682602 0.12505218
-0.16185707 -0.30580583 0.4701477 -0.49260706 -0.78004748 -0.38582924 0.10445212
-0.15516645 -0.30592743 0.47143841 -0.39045796 -0.85946041 -0.32995531 0.10058856
-0.12662271 -0.30605409 0.47592559 -0.23071726 -0.92993557 -0.286338 0.068860628
-0.11862294 -0.30605409 0.47398865 -0.1595569 -0.94461995 -0.28676599 0.058381651
-0.098919272 -0.30605409 0.4728865 -0.0823659 -0.97696358 -0.19687085 0.048971169
-0.087766953 -0.30605409 0.4720538 -0.076517314 -0.97624028 -0.2027314 0.048738249
-0.069483802 -0.30605409 0.47538358 -0.041683592 -0.99453378 -0.095734827 0.021692935
-0.04512468 -0.30605409 0.4782891 -0.0012134906 -0.99998784 -0.0047890139 9.7932309e-05
-0.038728949 -0.30605409 0.47651011 -0.0013125435 -0.99998754 -0.0048240991 0.00010553418
-0.019591199 -0.30605409 0.47496709 0.032852229 -0.99929941 -0.017929697 0.0044430462
-0.0037834966 -0.30605409 0.4728924 0.08038158 -0.99587786 -0.042025778 0.016071463
0.0077640414 -0.30605409 0.47582105 0.10305297 -0.99227268 -0.069101445 0.026838496
0.036973175 -0.30587748 0.47612259 0.25097716 -0.96134585 -0.11324594 0.082611382
0.053632688 -0.30251235 0.47695318 0.3767134 -0.90044922 -0.21743567 0.094155706
-0.20235604 -0.29436272 0.4763144 -0.84774178 -0.39503783 -0.35394785 0.13077985
-0.19258061 -0.29003733 0.4707776 -0.77502602 -0.45553207 -0.4379786 0.12879613
-0.18986037 -0.29925522 0.47241369 -0.72479796 -0.54110843 -0.42646173 0.1321896
0.057669036 -0.29977727 0.47994435 0.42347807 -0.87128353 -0.24805504 0.10404314
-0.19325761 -0.28563279 0.47105896 -0.81156212 -0.40708864 -0.41910127 0.1334047
0.059682291 -0.28855252 0.47368625 0.61146837 -0.72326815 -0.32091996 0.12355103
0.06035123 -0.28349027 0.4736132 0.67167628 -0.6575346 -0.34131983 0.12312747
-0.19328871 -0.25037801 0.47748491 -0.91265351 -0.032758277 -0.40741938 0.078186445
-0.20690635 -0.24628107 0.47202113 -0.87116963 -0.018946532 -0.49061647 0.063092545
0.058126654 -0.23620932 0.47009474 0.88452178 -0.037714928 -0.46497193 0.020257961
0.063044012 -0.23800352 0.47770298 0.87766021 -0.042333975 -0.47741008 0.01696798
-0.20409185 -0.22026764 0.47584337 -0.90471423 0.055691436 -0.42236307 0.047968414
-0.18781111 -0.18644561 0.47024953 -0.85779589 0.0365155 -0.51269174 0.0524076
-0.19042392 -0.17867622 0.47594175 -0.88910431 0.047862634 -0.45519522 0.049809262
0.057980567 -0.14213322 0.47597513 0.87481487 0.024827 -0.48382083 0.0010854778
-0.19355886 -0.1119574 0.47646493 -0.83171469 -0.0066170688 -0.55516392 0.046124697
-0.18902723 -0.1162967 0.47391394 -0.80778813 -0.028802967 -0.5887689 0.04369412
-0.19072437 -0.10573614 0.47554851 -0.81058604 0.0024150561 -0.58561456 0.043668002
-0.19195402 -0.090715475 0.47978872 -0.8531549 0.0065373778 -0.5216167 0.061086878
-0.18864144 -0.072587736 0.47372431 -0.84838444 0.046167314 -0.52736366 0.063396528
0.057509959 -0.073656239 0.47662917 0.87138116 0.06020062 -0.48689932 0.0037787687
-0.18846494 -0.069891512 0.47405478 -0.85903442 0.062593557 -0.50807673 0.065011755
-0.1931733 -0.053261332 0.47879878 -0.92051893 0.15609744 -0.35815987 0.072880469
-0.18787037 -0.052436475 0.47328714 -0.8486284 0.16062573 -0.50401312 0.069541007
0.059501994 -0.053946897 0.47956109 0.85418081 0.26319915 -0.44844329 0.041248526
-0.1972677 -0.036656495 0.47725967 -0.90794271 0.23039359 -0.3500841 0.077126771
-0.1913691 -0.023100689 0.47375098 -0.8559494 0.36004218 -0.3711068 0.094359517
-0.19106744 -0.012305792 0.47882572 -0.86154687 0.4127425 -0.29560235 0.10064129
-0.18682528 -0.012064711 0.47376278 -0.80435842 0.42162633 -0.41861528 0.093543023
-0.17376859 -0.0021000737 0.47458878 -0.70659155 0.59032249 -0.39018935 0.1080173
-0.07039801 -0.0031321258 0.47346231 -0.052671909 0.97238094 -0.22737856 0.039464734
0.056487329 -0.0037477138 0.47544539 0.62430859 0.6958819 -0.35494673 0.078732401
0.060371291 -0.0044357837 0.47906005 0.65838873 0.66913629 -0.34464613 0.076946348
-0.16317253 0.0016774795 0.47359645 -0.56117201 0.7302466 -0.38964841 0.10403915
-0.15642859 0.0033359108 0.47150791 -0.46766511 0.80438405 -0.366409 0.099989384
-0.12655212 0.002439382 0.47568831 -0.241474 0.90964741 -0.33798218 0.068375215
-0.11854635 0.0017372835 0.47392404 -0.19777991 0.91264004 -0.35773069 0.066118263
-0.098834239 0.00059398694 0.47293493 -0.10046957 0.94956487 -0.29703942 0.062758118
-0.087775297 0.00075405301 0.47207415 -0.080516979 0.9503184 -0.30068591 0.059193827
-0.069885843 0.0009242458 0.4791117 -0.052672811 0.9889226 -0.13877179 0.02239595
-0.0451499 0.0028114077 0.47828117 -0.0098033715 0.99787301 -0.064446978 0.0033774693
-0.037571669 0.0016327812 0.47689268 -0.0085453894 0.99836457 -0.056526858 0.0023733841
-0.019290783 0.0010235 0.47244543 0.06464085 0.99346274 -0.094092578 0.0138065
-0.0036971965 0.0015175433 0.47278076 0.12876514 0.98112738 -0.14425209 0.035048813
0.007924418 0.0024167756 0.4757596 0.18610434 0.9686361 -0.16464926 0.044179149
0.037077848 0.0026398066 0.47586977 0.40967736 0.87534404 -0.25678277 0.078425318
-0.24022479 -0.30605409 0.4896827 -0.86110109 -0.43746993 -0.25908488 0.17331877
-0.22398919 -0.30679572 0.48924381 -0.90574795 -0.41604462 -0.080793947 0.15144444
-0.20782243 -0.3004593 0.48135129 -0.86515647 -0.43346667 -0.25221223 0.14364573
-0.19246623 -0.30179051 0.48269919 -0.72783661 -0.60390443 -0.32488969 0.14457259
-0.18888615 -0.30303204 0.48487189 -0.69336689 -0.64935416 -0.31238052 0.14597431
-0.16461308 -0.3058168 0.48625773 -0.39365661 -0.88556153 -0.24660742 0.11579582
-0.1453727 -0.30605409 0.48605847 -0.29154068 -0.92995054 -0.22404502 0.08737351
-0.1302505 -0.30605409 0.48610151 -0.19911151 -0.96108061 -0.19151685 0.059803579
-0.055345297 -0.30605409 0.48441958 -0.00096340745 -0.99999666 -0.0023956364 6.4208172e-05
-0.0492808 -0.30605409 0.48120421 -0.0012756479 -0.99998629 -0.0050845603 0.000100103
-0.03852633 -0.30605409 0.48209271 -0.00023803707 -0.99999934 -0.0011462651 4.9062728e-05
0.0041983719 -0.30605409 0.48928371 0.072448157 -0.99537486 -0.06308908 0.015412207
0.03230935 -0.30605409 0.489104 0.19903067 -0.97076529 -0.13417007 0.073418334
0.044100579 -0.30561763 0.48295087 0.26615384 -0.95057261 -0.15991816 0.083492681
0.054919686 -0.3037931 0.48283073 0.34731787 -0.91761452 -0.19327168 0.093075231
0.06156648 -0.30116513 0.48695904 0.42689145 -0.8768698 -0.22104993 0.098571047
0.072192535 -0.30314773 0.48962739 0.57554972 -0.75692475 -0.3095277 0.10217195
0.088504255 -0.30591568 0.48557651 0.72337621 -0.56469131 -0.39730427 0.09460637
-0.24022479 -0.2981357 0.4896827 -0.98118395 -0.13276586 -0.14018336 0.16629454
-0.2014399 -0.29970619 0.48344427 -0.83373606 -0.49251398 -0.2496282 0.14674558
0.088955678 -0.29803941 0.48654699 0.77825552 -0.46435383 -0.42272207 0.086313382
-0.20470688 -0.2837185 0.48029563 -0.90773886 -0.29217067 -0.30107561 0.12606512
0.063904576 -0.2864885 0.48563194 0.67438626 -0.66311944 -0.3247703 0.11838718
-0.19233426 -0.26406509 0.48934734 -0.96654922 -0.12856017 -0.22193439 0.11715534
0.070084006 -0.2522777 0.48973384 0.87513137 -0.15049592 -0.459887 0.05291035
0.066206105 -0.24026304 0.48343453 0.87345487 -0.067550249 -0.48219657 0.027457315
-0.19718541 -0.23502827 0.48514417 -0.95062548 0.040719815 -0.30765745 0.060239766
-0.19755484 -0.22333574 0.48762563 -0.96112192 0.062359784 -0.26899076 0.053548656
-0.19206357 -0.18210532 0.48648646 -0.91177809 0.040442765 -0.40868703 0.053896878
-0.19350013 -0.17737496 0.48819023 -0.91923481 0.030052425 -0.39256114 0.057190001
0.062478632 -0.17630322 0.48487812 0.88369828 0.027950667 -0.46722183 0.00096832187
-0.19556084 -0.16415019 0.48439276 -0.91614735 -0.0078661842 -0.40076452 0.057246283
-0.19571513 -0.15561484 0.48708272 -0.92317337 -0.021628469 -0.383775 0.051551811
-0.19708024 -0.14482747 0.48142639 -0.91934586 -0.044457585 -0.39093071 0.049371716
-0.19247407 -0.13156402 0.48690233 -0.90831882 -0.053892281 -0.41479215 0.04884351
0.056985769 -0.13146 0.48072809 0.87504977 0.022403128 -0.48351425 0.00095548033
-0.19177365 -0.12390883 0.48683867 -0.90128779 -0.038177446 -0.4315353 0.050233591
-0.1925426 -0.11461958 0.48282054 -0.88433272 -0.029635111 -0.46591574 0.049889334
-0.19130518 -0.084340245 0.48179883 -0.89025283 0.02748831 -0.45463642 0.072377674
-0.19095908 -0.070129097 0.4895533 -0.95619571 0.079635628 -0.28168777 0.072466791
-0.19130717 -0.060906935 0.48711979 -0.95319808 0.12245429 -0.27643886 0.069432802
0.06067558 -0.069524407 0.48096949 0.87134904 0.088179544 -0.48267511 0.0061606085
-0.19511826 -0.047995817 0.48340255 -0.94109672 0.17321479 -0.29040265 0.076317295
0.066079497 -0.041294977 0.48749411 0.821006 0.3852064 -0.42138487 0.054953955
-0.19498494 -0.037792511 0.48221692 -0.93991256 0.23538029 -0.24730653 0.082501538
0.060687944 -0.034819309 0.4830147 0.78745365 0.46016273 -0.4100818 0.065589301
-0.19259292 -0.023681046 0.48637894 -0.9267658 0.3371262 -0.16568373 0.093171768
-0.19126299 -0.010699871 0.48055241 -0.86979812 0.42271993 -0.25447807 0.099852957
-0.19087997 -0.0089968424 0.48690155 -0.88199496 0.451435 -0.13524568 0.095560066
-0.18624815 -0.0046311738 0.48070139 -0.81884164 0.50665224 -0.26981825 0.0992226
0.062585756 -0.0043205973 0.48466668 0.64634377 0.68841565 -0.32912555 0.078366667
-0.16398065 0.0043931729 0.48890036 -0.5057475 0.84459794 -0.17570914 0.098044232
-0.14510474 0.0062307464 0.48594478 -0.35912448 0.91405594 -0.18849757 0.07604301
-0.13121383 0.0047423309 0.48682284 -0.2340845 0.95703149 -0.17115855 0.056785129
-0.054913804 0.0024336884 0.48433957 -0.0086338315 0.99804318 -0.061929878 0.0037858267
-0.049830887 0.0025334349 0.48111203 -0.0083185742 0.99768311 -0.067522638 0.0035745129
-0.039569534 0.003359888 0.48224932 -0.0058778981 0.99913484 -0.041170992 0.0014380604
0.0047094962 0.0021514655 0.48882318 0.14926787 0.97929925 -0.13671918 0.036534827
0.045395318 0.0020808519 0.48377183 0.43400133 0.86576015 -0.24920301 0.10589871
0.050152857 0.00012405461 0.48073813 0.53941751 0.78908527 -0.29389331 0.079963498
-0.19257066 -0.30180553 0.49398828 -0.72413206 -0.64064717 -0.25535065 0.15119132
-0.18559974 -0.30427352 0.49656308 -0.63782728 -0.7547372 -0.15345407 0.15081252
-0.17964743 -0.30417663 0.49378014 -0.55691475 -0.8040545 -0.20818824 0.14311838
-0.16236556 -0.30589285 0.49272326 -0.35611126 -0.91582382 -0.18561122 0.11159255
-0.120665 -0.30605409 0.4917573 -0.11154273 -0.9904418 -0.081137933 0.026267312
-0.085367456 -0.30605409 0.49859983 -0.01099695 -0.99991173 -0.0074610976 0.0019493295
-0.050815672 -0.30605409 0.49231571 -0.00010362529 -0.99999988 -0.00047051773 4.6371326e-05
-0.048603449 -0.30605409 0.49644911 -7.7130433e-05 -0.99999994 -0.00037659652 4.8464401e-05
-0.03847548 -0.30605409 0.49020499 4.8752816e-05 -0.99999994 -0.00041115924 5.3282332e-05
0.0066595082 -0.30605409 0.4996233 0.056703649 -0.99681556 -0.056066882 0.012379074
0.016208773 -0.30605409 0.49321392 0.088288866 -0.99247915 -0.084795535 0.027651304
0.041093051 -0.30605409 0.4968583 0.23338743 -0.95931083 -0.15891206 0.075739719
0.054182328 -0.30549127 0.49364415 0.29340288 -0.93998504 -0.17419206 0.083865047
0.065943427 -0.30378652 0.4946838 0.43189028 -0.86466527 -0.25656348 0.097052
0.072455756 -0.30399814 0.49620968 0.49387923 -0.8220982 -0.28326294 0.097515978
-0.1909257 -0.2675724 0.49295101 -0.96516156 -0.16491272 -0.20314263 0.12409153
-0.19519399 -0.24255724 0.49222827 -0.98088574 0.0086747929 -0.19439138 0.075214155
0.070276745 -0.24415684 0.49055392 0.88573766 -0.085901774 -0.45616856 0.032456242
0.073682889 -0.23998244 0.49871063 0.89852929 -0.070124604 -0.43327552 0.026207888
-0.19549689 -0.2288087 0.4907653 -0.9658457 0.059410535 -0.25221509 0.049504075
0.07373447 -0.21782963 0.49927062 0.91092455 0.023069935 -0.41192758 0.0049034157
-0.18889099 -0.20189708 0.49286678 -0.96051937 -0.00038661747 -0.27821285 0.061802827
0.07018584 -0.18181807 0.49567792 0.89344138 0.023274373 -0.44857642 0.0012881104
0.070504844 -0.17499378 0.49795413 0.8969627 0.015929995 -0.44181931 0.0017498869
-0.19362697 -0.15870911 0.49143371 -0.92424631 -0.026861371 -0.3808507 0.05286191
0.068075061 -0.14439295 0.49022284 0.88224524 0.012741533 -0.47061768 0.00090261293
0.073374808 -0.1427445 0.49595469 0.89547575 0.0059033628 -0.44507122 0.0023761359
-0.18850175 -0.13400686 0.49924275 -0.95877194 -0.05949733 -0.27787849 0.054754615
-0.19091828 -0.12564118 0.49220011 -0.92894602 -0.040562838 -0.36798635 0.047749642
-0.18910712 -0.12696627 0.49699324 -0.94629163 -0.0360935 -0.32129344 0.046595819
-0.19045676 -0.11377516 0.4902713 -0.90041178 -0.024479674 -0.43434933 0.050029542
-0.1895598 -0.10352563 0.49274427 -0.93995047 0.048491865 -0.33784863 0.063902326
-0.18727815 -0.092598639 0.49955559 -0.96535009 0.089147039 -0.2452592 0.074037485
0.069031596 -0.090105698 0.49340418 0.87659836 0.016272491 -0.48094752 0.00078365824
-0.19061476 -0.083645567 0.49151278 -0.93275815 0.051690478 -0.35677773 0.079050563
-0.1890887 -0.075749733 0.49809718 -0.98002076 0.078313686 -0.18282859 0.078027152
0.067012921 -0.073118225 0.49343565 0.87873489 0.076518781 -0.4711369 0.0037906987
-0.18892914 -0.066017397 0.49668327 -0.98617011 0.098024942 -0.13364014 0.070525892
0.069318444 -0.064009629 0.49706036 0.88214064 0.14672093 -0.44754982 0.011935608
-0.18815409 -0.05024828 0.4983176 -0.98287952 0.16716892 -0.077475466 0.070821442
0.0682377 -0.042974669 0.49180529 0.80972761 0.39000529 -0.43844846 0.055114664
0.068798691 -0.033808872 0.49482086 0.78701401 0.44183028 -0.43057525 0.061656106
0.062586501 -0.002208092 0.49105185 0.61548287 0.71852612 -0.32388452 0.078322627
-0.18612874 0.0016819151 0.49448225 -0.84145921 0.53487879 -0.076492742 0.095661253
-0.17988715 0.0038316178 0.49399382 -0.78190666 0.61721379 -0.087573275 0.099788189
-0.1626087 0.0049932767 0.49255601 -0.49539062 0.85787153 -0.13654469 0.094397642
-0.12062948 0.0016611605 0.49164024 -0.16208282 0.97786951 -0.13228908 0.043578997
-0.084924199 0.004673033 0.49840516 -0.014335473 0.99768358 -0.066497877 0.0048710983
-0.050826784 0.00263537 0.49234274 0.00201009 0.99946707 -0.032582078 0.00056743604
-0.048614662 0.0026503028 0.49645528 0.0029419977 0.99957865 -0.028876606 0.0005687899
-0.038393501 0.0032207111 0.49018598 -0.0012607572 0.99956751 -0.029381996 0.00094944827
0.0066931671 0.0021522553 0.49962524 0.12427106 0.98615587 -0.10978737 0.030632487
0.015988555 0.0033461191 0.49313393 0.20038433 0.9673149 -0.15539639 0.045103785
0.033213798 0.003615791 0.49033162 0.29056329 0.93939352 -0.18196924 0.069046505
0.040731106 0.0034368939 0.49671873 0.32159716 0.92722619 -0.19190347 0.062787883
0.052822825 0.0016386147 0.49507651 0.44353256 0.86131448 -0.24782306 0.077875338
-0.18736294 -0.3015511 0.5027197 -0.68183088 -0.72481388 -0.098749198 0.14895281
-0.17808844 -0.30407214 0.50466067 -0.55641842 -0.82764256 -0.073527902 0.13904513
-0.16753735 -0.30555394 0.50671864 -0.36370787 -0.92930371 -0.064118423 0.11562689
-0.159684 -0.30608463 0.50191832 -0.36207876 -0.92319506 -0.12887958 0.10927469
-0.12633561 -0.30605409 0.50425571 -0.12223756 -0.99179143 -0.037521251 0.025554268
-0.1080278 -0.30605409 0.50565118 -0.057566732 -0.99833596 0.0033741456 0.0073421127
-0.093467042 -0.30605409 0.50559938 -0.01114168 -0.99992096 -0.005827059 0.0017696997
-0.088819154 -0.30605409 0.50440472 -0.0024551447 -0.9999969 0.0004776642 5.6907047e-05
-0.077357359 -0.30605409 0.50518841 -0.00033725414 -0.99999994 -9.8013996e-05 4.9866343e-05
-0.042513374 -0.30605409 0.50767106 -5.6205008e-06 -1 -0.00014901042 5.8976835e-05
-0.03568707 -0.30605409 0.50673473 7.0315677e-05 -1 -0.00016521227 5.549243e-05
-0.0093544424 -0.30605409 0.50855488 0.020098642 -0.9997288 -0.01176709 0.001775605
0.01144505 -0.30605409 0.50281721 0.05378522 -0.99695534 -0.05645581 0.012172788
0.024016725 -0.30605409 0.50418806 0.11064129 -0.98968869 -0.090966173 0.036814373
0.057183359 -0.30567446 0.50034124 0.29797432 -0.93775171 -0.17841825 0.081823595
0.065893508 -0.30474859 0.50381655 0.37327084 -0.89925551 -0.22805381 0.084557258
0.077480443 -0.30230081 0.50471407 0.52809745 -0.79476869 -0.29909155 0.092423379
0.080562398 -0.30164453 0.50992477 0.54740697 -0.78140485 -0.29958668 0.09924043
-0.19193733 -0.29632682 0.50389254 -0.84049273 -0.53587884 -0.080037698 0.15147421
-0.18921889 -0.29841539 0.5091157 -0.68855941 -0.71557319 -0.1176476 0.15056984
-0.19204599 -0.28671843 0.50547981 -0.93551642 -0.34946564 -0.051794574 0.14458579
-0.18982294 -0.27934501 0.5045945 -0.96824354 -0.24973264 -0.011750793 0.13995351
-0.19475412 -0.24748673 0.50482494 -0.99984831 0.0082911132 0.015314939 0.069672003
0.075882368 -0.22504161 0.5040462 0.91339928 0.050481565 -0.40392247 0.0082443878
-0.19120339 -0.21745743 0.50269407 -0.99139857 0.035873607 -0.12586531 0.063629091
0.078111991 -0.21295737 0.50773633 0.92213321 0.028417343 -0.38582757 0.0095653702
-0.18857476 -0.19901143 0.50181973 -0.9844228 -0.023378074 -0.17425647 0.067001604
-0.18652456 -0.18821235 0.50686204 -0.99626052 -0.00026056042 -0.086399496 0.068784267
-0.18829738 -0.17602593 0.5032382 -0.98211545 0.0051533924 -0.18820937 0.074937984
0.076400369 -0.17873648 0.50302351 0.90969956 0.010489851 -0.41513452 0.005012047
-0.18925685 -0.16413771 0.50065547 -0.96441662 -0.022920702 -0.26339173 0.067298301
-0.18589546 -0.15333393 0.50666279 -0.98705965 -0.068227917 -0.1451142 0.070724405
-0.18910304 -0.14909588 0.50019747 -0.95042706 -0.039775681 -0.30839315 0.059057243
-0.18493503 -0.13390605 0.50612503 -0.98488003 -0.044174746 -0.16751102 0.055427659
0.067932613 -0.13530309 0.50359857 0.90143037 -0.0024031776 -0.43291748 0.0042702756
-0.18696621 -0.12589563 0.50146455 -0.968777 -0.033934306 -0.24560054 0.048141565
-0.18646729 -0.11524151 0.50189281 -0.9742797 0.014537239 -0.2248726 0.056043074
-0.18356609 -0.1019192 0.50790888 -0.98944354 0.053087883 -0.13484553 0.061083049
0.075496972 -0.083312899 0.50744796 0.91619402 0.024098458 -0.40000975 0.013709871
-0.18843254 -0.073869303 0.50002897 -0.98952329 0.084348373 -0.11717093 0.075737551
-0.1832228 -0.054709222 0.50882852 -0.98853439 0.14497706 0.042206217 0.057885021
0.075771913 -0.056674223 0.50985974 0.88853681 0.20933072 -0.40826833 0.034614522
0.074287102 -0.044808954 0.50491166 0.84379238 0.34277338 -0.41294172 0.053117186
-0.18610682 -0.032815684 0.50068194 -0.95065129 0.3024627 -0.069126107 0.08475855
-0.183266 -0.028580163 0.50519311 -0.94303125 0.33270416 0.00029892661 0.07515087
0.073533714 -0.025590027 0.50717759 0.77107066 0.49186009 -0.40438056 0.069288276
-0.12633561 -0.00384587 0.50425571 -0.23942256 0.96960789 -0.050372105 0.059708603
-0.0099580633 -0.0012619839 0.50780195 0.020667335 0.99914914 -0.03569144 0.003971247
-0.18708426 0.0069977203 0.5026961 -0.74399912 0.66810632 0.009965905 0.085580133
-0.17853522 0.0054143947 0.50374967 -0.72042495 0.69342083 0.012471018 0.090477996
-0.16752782 0.0049300976 0.50668436 -0.55096406 0.83442152 0.013392348 0.094878376
-0.15990537 0.006088153 0.5022459 -0.47517285 0.87780571 -0.060563974 0.0900466
-0.10806414 0.0019812684 0.50577933 -0.093973361 0.99509281 -0.03097377 0.019964386
-0.09401796 0.0036527202 0.50464928 -0.02694362 0.99824381 -0.052756663 0.0037967607
-0.089948982 0.0037789217 0.50558597 -0.0086626448 0.99864477 -0.05131888 0.0021989902
-0.077272467 0.0048220563 0.50508684 0.0066819093 0.99936265 -0.035066664 0.00078885007
-0.042532254 0.0027596036 0.50766373 0.004414462 0.99963063 -0.026817074 0.00052281033
-0.03574352 0.002728062 0.50675005 0.0045974338 0.99965405 -0.0258974 0.00052509137
0.011857621 0.0029324254 0.50300652 0.16605787 0.97874773 -0.12032314 0.037919063
0.024164019 0.0036996442 0.50421727 0.21026683 0.96681035 -0.14514062 0.047492418
0.05676651 0.0015487112 0.50045544 0.47314951 0.83954555 -0.2670072 0.080530711
0.064201944 0.00058608106 0.50411761 0.52061182 0.80118954 -0.29505709 0.076275051
-0.18264219 -0.30196756 0.51410669 -0.5367949 -0.8425144 -0.044953249 0.13852045
-0.17721708 -0.3036823 0.51554805 -0.41858432 -0.90760785 -0.032175396 0.11998778
-0.15460473 -0.30607486 0.51409066 -0.26325443 -0.96452051 -0.019932857 0.081823833
-0.10840835 -0.30605409 0.51672089 -0.062839076 -0.99797821 0.0095269112 0.009740673
-0.091587186 -0.30605409 0.51193589 -0.0065841274 -0.99997526 0.0024751672 9.7465614e-05
-0.084780157 -0.30605409 0.51576388 -0.0028898781 -0.99999487 0.0014051287 7.6113327e-05
-0.065358773 -0.30605409 0.51318198 -0.00025334675 -1 5.179322e-05 5.1262261e-05
-0.044804309 -0.30605409 0.51034719 -9.5366768e-06 -1 -0.00013093752 5.6776073e-05
-0.016460391 -0.30605409 0.51712108 0.0015588343 -0.99999845 -0.00086683442 7.1359602e-05
-0.0049927053 -0.30605409 0.51375693 0.026917549 -0.99950808 -0.016095102 0.0028249561
0.005512245 -0.30605409 0.51104242 0.037409555 -0.99887389 -0.02918035 0.0040760688
0.01276185 -0.30605409 0.5151571 0.035142377 -0.99884444 -0.032784622 0.0041156169
0.02107086 -0.30605409 0.51101911 0.061778184 -0.99643689 -0.057420764 0.015968412
0.032020509 -0.30605409 0.51248842 0.14579722 -0.98438269 -0.098660916 0.047072556
0.056651425 -0.30591229 0.51275849 0.27049509 -0.94936776 -0.15979141 0.069865465
0.066153377 -0.30504939 0.51413006 0.34830937 -0.92170221 -0.17072102 0.081477299
0.075780801 -0.30394825 0.51386124 0.42671195 -0.87865388 -0.21420617 0.094748743
0.080981992 -0.30291283 0.51609629 0.48282504 -0.85418451 -0.19299975 0.10652371
-0.18636031 -0.29673991 0.51897854 -0.55130374 -0.83411223 -0.017918305 0.15141819
-0.18340753 -0.28638774 0.51935929 -0.79706347 -0.60361558 0.018388502 0.16761775
-0.18453538 -0.24924356 0.51364982 -0.99396288 0.00098229246 0.10971233 0.066396229
0.07949733 -0.23689874 0.51379913 0.92115378 -0.035118286 -0.38761118 0.023502203
0.080864303 -0.22112444 0.51515871 0.93616349 0.065226443 -0.34546128 0.026297661
-0.18834412 -0.21650553 0.51043612 -0.99955618 0.029413523 0.0047284137 0.049902365
-0.1837111 -0.20870021 0.51923311 -0.99376959 -0.0046441406 0.11135756 0.049890973
-0.18266094 -0.17495538 0.51500022 -0.99932152 -0.01671626 0.032816224 0.060697168
0.08292681 -0.1677018 0.51130342 0.92748588 -0.012516581 -0.37364855 0.012653138
-0.18193406 -0.15410134 0.51409185 -0.99727929 -0.051284771 0.052951619 0.065117754
-0.18125872 -0.1469633 0.5144006 -0.99614614 -0.052348796 0.070373259 0.060963511
-0.17896013 -0.13990504 0.51832765 -0.99041861 -0.051422089 0.12816682 0.054678075
-0.17882343 -0.12714638 0.51932836 -0.9912464 0.0020997254 0.13200833 0.055111617
-0.18236537 -0.10468865 0.51026547 -0.99931723 0.035884898 -0.0088006733 0.057398859
0.077809244 -0.080094896 0.51241982 0.93030751 0.038007949 -0.36480594 0.023375398
0.078747422 -0.065791614 0.51509452 0.92635417 0.11008992 -0.36020571 0.02978917
0.077398755 -0.04491061 0.51321894 0.86469805 0.31474259 -0.39145169 0.059440982
0.078167118 -0.030319009 0.516433 0.82502663 0.45234302 -0.33869874 0.08121109
0.07605347 -0.023251973 0.51415223 0.78725708 0.51076341 -0.34546643 0.081157126
0.071200743 -0.0019173829 0.51821709 0.58292705 0.77420324 -0.24658726 0.087408215
-0.17907304 0.0052183527 0.5118494 -0.69307905 0.71648568 0.079308309 0.086402349
-0.15518092 0.0076632085 0.51407456 -0.41667789 0.90776628 0.048372447 0.082250208
-0.10833041 0.0035059527 0.51643193 -0.095563091 0.99540287 0.0063931653 0.019844286
-0.092058539 0.0039120093 0.5112797 -0.018840116 0.99951297 -0.024876794 0.0023355884
-0.084419869 0.0042348769 0.51591766 0.005335351 0.99963695 -0.026410881 0.0010124476
-0.065432526 0.003838388 0.51309663 0.0094908299 0.99958086 -0.027350403 0.0006374605
-0.044760931 0.002964542 0.51031375 0.0049447026 0.9996534 -0.025860479 0.00051251688
-0.016481001 0.0020456887 0.51741868 0.0075777206 0.9997707 -0.020029247 0.00047581599
-0.0049133622 0.0014926804 0.5139702 0.024419252 0.99908763 -0.035038244 0.0044943281
0.0054852017 0.0021025718 0.51115668 0.093755104 0.99297285 -0.072214566 0.020314537
0.012606968 0.0025654249 0.51548558 0.12120392 0.98973745 -0.07569278 0.027750123
0.021129774 0.0031142752 0.51098305 0.17900029 0.97679365 -0.11761443 0.042357173
0.032149643 0.0035134032 0.51236618 0.22591837 0.96256518 -0.14976372 0.048570603
0.05658428 0.002371961 0.51243395 0.41168901 0.88441521 -0.2198226 0.072767772
0.066102356 0.00068439887 0.51405603 0.5171209 0.81937355 -0.24741258 0.080929779
-0.18530242 -0.30313119 0.52661777 -0.28360853 -0.95882291 -0.014998354 0.13616751
-0.17772359 -0.30184656 0.52608329 -0.31666926 -0.94852966 0.003474223 0.12441169
-0.16508579 -0.30502197 0.52148187 -0.32440117 -0.94575566 0.017611805 0.10244989
-0.10142783 -0.30605409 0.52452523 -0.039096713 -0.99911571 0.015467472 0.0018694678
-0.02106181 -0.30605409 0.52541137 0.00027205926 -0.99999994 -0.00026177012 5.3804317e-05
-0.01607037 -0.30605409 0.52557337 0.00061479007 -0.99999976 -0.00031750501 5.2473286e-05
-0.002352685 -0.30605409 0.52943498 0.0074440264 -0.9999606 -0.0048428238 0.00022043259
0.02999161 -0.30605409 0.52826732 0.090563864 -0.99580538 -0.013034333 0.016248055
0.044766799 -0.30605409 0.521559 0.21437855 -0.97329164 -0.08212918 0.056113254
0.054220166 -0.30596155 0.52457803 0.25609872 -0.96515757 -0.053706326 0.070611931
0.065389059 -0.30569535 0.52274388 0.26461476 -0.96024621 -0.088916972 0.07430432
0.076454662 -0.3049854 0.52248007 0.37787563 -0.91546392 -0.13833262 0.095940098
0.083915427 -0.30432603 0.52430373 0.42275918 -0.89040256 -0.16869509 0.10921127
0.10489114 -0.29181021 0.52505088 0.87766063 -0.30478171 -0.36989179 0.11800665
-0.17777476 -0.27571744 0.52702296 -0.93004674 -0.25602764 0.26355821 0.13898194
-0.1770829 -0.26997513 0.52962381 -0.93522036 -0.14448985 0.32324225 0.10915436
-0.17933775 -0.19653806 0.52634174 -0.97193629 0.010133432 0.23502596 0.033213124
-0.17912555 -0.18185711 0.5231415 -0.99215055 0.0096269259 0.12467779 0.048589848
0.083789289 -0.1898753 0.52192807 0.96301234 -0.026963286 -0.26810491 0.041199949
-0.17737359 -0.17608562 0.52529687 -0.98301446 0.039535861 0.17921938 0.043918099
-0.17639947 -0.16655791 0.52609944 -0.98209059 -0.013865214 0.18789852 0.048407309
-0.17670204 -0.13857439 0.52232766 -0.98758459 -0.057642676 0.14613026 0.050994616
-0.17711985 -0.12283028 0.52308059 -0.98082781 0.011233185 0.19455233 0.041892007
-0.17690496 -0.11843926 0.52930093 -0.95376301 0.02710945 0.29933462 0.02296997
0.085398473 -0.10109828 0.52540231 0.96769524 0.041768461 -0.24863888 0.047104977
0.08272548 -0.084446482 0.52239865 0.9647156 0.023844328 -0.2622124 0.047584414
0.083730534 -0.065566152 0.52607685 0.95245087 0.12769087 -0.27664474 0.046738438
-0.17729081 -0.041750435 0.52018458 -0.9612608 0.20300981 0.18645315 0.051451638
0.081656054 -0.047986191 0.5215711 0.91328126 0.27419814 -0.30121875 0.068899661
-0.17613292 -0.03554948 0.5220176 -0.93962175 0.28883275 0.18353938 0.069851145
0.080815196 -0.03696914 0.52130163 0.86862016 0.39143643 -0.30377066 0.07927794
-0.17290822 -0.022035709 0.52483684 -0.86758572 0.46857443 0.16653249 0.080800086
-0.17105414 -0.01029048 0.52423936 -0.75791907 0.63597286 0.14524886 0.086035475
0.075285144 -0.0027731739 0.52421582 0.62067544 0.75887507 -0.19715635 0.094932355
-0.16767256 0.00078904087 0.5232386 -0.58634675 0.8037529 0.10089066 0.089525394
-0.10167086 0.0027862818 0.52441865 -0.094613656 0.99549663 0.0059032184 0.023925552
-0.021022432 0.0032125786 0.52494991 0.0067351423 0.99980241 -0.018702433 0.00032834307
-0.016059378 0.0027079021 0.52553952 0.0070104469 0.99981081 -0.018144511 0.00059831643
-0.0023616722 0.0024293787 0.52941084 0.017673325 0.99972796 -0.015221432 0.0012935903
0.029947385 0.0026247832 0.5283187 0.18467878 0.97880352 -0.088529408 0.038298283
0.044848308 0.0030173915 0.52173913 0.32290521 0.93659359 -0.13610546 0.059078984
0.053760402 0.0027083221 0.5230577 0.38488349 0.91199744 -0.14186396 0.075879186
0.065082356 0.0011806928 0.5228582 0.49378952 0.85235786 -0.17221515 0.086981863
-0.18301564 -0.30604714 0.53798836 -0.15994737 -0.98710531 0.006328885 0.11633322
-0.17404753 -0.302387 0.53589368 -0.26644868 -0.96249235 0.051124122 0.11363696
-0.16685596 -0.30373371 0.53548604 -0.30768606 -0.94731712 0.088992447 0.096917972
-0.15921706 -0.30559787 0.53263706 -0.255108 -0.96446544 0.06874796 0.086157627
-0.1101214 -0.30605409 0.53065151 -0.071491294 -0.99735057 0.013449532 0.014045577
-0.06040585 -0.30605409 0.53760189 -0.00033841585 -0.99999994 -2.3809653e-05 5.7416084e-05
-0.031940151 -0.30605409 0.53251022 3.1232576e-05 -1 -7.0373215e-05 6.1407853e-05
-0.01072773 -0.30605409 0.53511238 0.0013763255 -0.99999905 -6.4949731e-05 4.5809633e-05
0.018414745 -0.30605409 0.53199792 0.046491656 -0.99891752 0.0015366634 0.0049797529
0.038076565 -0.30605409 0.53278422 0.1380509 -0.98970997 0.037632909 0.030435259
0.047661934 -0.30605409 0.53310442 0.21993008 -0.97524559 -0.022951165 0.06624715
0.060248911 -0.30596316 0.53273106 0.24535348 -0.96876526 -0.035994042 0.080043904
0.076761745 -0.30558392 0.53454679 0.29688722 -0.95320708 -0.057045907 0.10817442
0.087109409 -0.30352402 0.5345661 0.44527918 -0.89030987 -0.095262252 0.13926537
0.090227738 -0.30283198 0.53758246 0.52407604 -0.84411293 -0.11321534 0.15416045
-0.1767019 -0.2960718 0.53011316 -0.3501347 -0.93650997 0.018835669 0.13406394
0.095425524 -0.29677498 0.53146076 0.74484336 -0.60101372 -0.28981179 0.15692578
0.095764749 -0.28957266 0.53706568 0.83583015 -0.48878342 -0.24995753 0.16713099
0.10596982 -0.27921855 0.53060532 0.92213267 -0.19564228 -0.33375955 0.11680766
-0.17533061 -0.2658188 0.53237385 -0.92953014 -0.13330895 0.34380573 0.097623505
0.092393138 -0.26263413 0.53549117 0.94454604 -0.1618263 -0.28573599 0.12411306
-0.17181802 -0.25273353 0.53967953 -0.91378891 -0.049006157 0.40322238 0.057710815
0.092272304 -0.24542686 0.53653455 0.98983985 -0.029500153 -0.13909277 0.097953275
0.087488294 -0.1990597 0.53469348 0.99131256 -0.004627123 -0.13144611 0.07560996
0.089579165 -0.18402089 0.5389607 0.99954879 -0.028723788 -0.0087917689 0.078222901
-0.1741775 -0.17119469 0.53091681 -0.97431171 0.00066401862 0.22520298 0.03816786
-0.17289937 -0.16685475 0.53269756 -0.96564752 0.0060339351 0.25978541 0.033369053
-0.16979285 -0.16462442 0.53820705 -0.93926334 -0.011923519 0.34299013 0.016458318
-0.17256181 -0.15205671 0.53098226 -0.97223783 -0.013754306 0.23359045 0.042243581
0.0897706 -0.11221126 0.53210133 0.98986769 0.0080632279 -0.14176384 0.070014536
0.090764612 -0.11341982 0.53405273 0.98964828 0.017309565 -0.14246638 0.068629578
0.093387358 -0.10215093 0.53987294 0.99322605 0.047386132 -0.10609707 0.073801771
0.089384511 -0.096337155 0.53282273 0.98180777 0.055988275 -0.18143554 0.062183168
0.09263996 -0.092591956 0.53859663 0.98817712 0.025793105 -0.15113135 0.063714117
0.086455353 -0.07145109 0.53197777 0.97756189 0.086401395 -0.19211346 0.052359927
-0.16813739 -0.067005351 0.53652829 -0.93768018 0.076766081 0.33891422 0.013241906
0.08826407 -0.056944832 0.53383911 0.96052301 0.20963919 -0.18288499 0.065714896
-0.16710919 -0.032326788 0.53763527 -0.87773865 0.3581658 0.31826422 0.064947858
-0.16728619 -0.023942696 0.53564048 -0.82529604 0.48673061 0.28632137 0.072721533
-0.1666811 -0.013566097 0.5343262 -0.74820513 0.61255997 0.25487134 0.083237663
-0.16506739 -0.0020734754 0.53370112 -0.59749609 0.77724886 0.19718698 0.088403583
-0.055901531 -0.0002284646 0.53191191 0.009915201 0.99965376 -0.024373382 0.00052377814
0.076300472 -0.00061102817 0.53683579 0.60900271 0.79010433 -0.069647782 0.10132004
-0.16209005 0.0001755898 0.53881031 -0.5371502 0.81184584 0.2288579 0.086564243
-0.15928878 0.0057618623 0.53264445 -0.4455995 0.88419902 0.14011844 0.080686547
-0.11021931 0.0015534437 0.53015292 -0.15123311 0.98828 0.020767849 0.04141197
-0.060363721 0.00145655 0.53778726 0.012200468 0.99964309 -0.023766808 0.00054106151
-0.032095302 0.0052837855 0.53221512 0.0077439868 0.99980575 -0.018125243 0.00035665528
-0.010585283 0.0025922805 0.53502876 0.0093781352 0.99989688 -0.010876061 0.00089788286
0.018520499 0.0024191784 0.53171432 0.12610298 0.99077368 -0.049654841 0.026110271
0.036735833 0.0028731271 0.5352276 0.23672217 0.97153509 -0.0090636835 0.05300862
0.047632113 0.0030438385 0.5331139 0.33582044 0.93998504 -0.060438257 0.073149465
0.06032639 0.0023361633 0.53280419 0.46370298 0.88134348 -0.090627111 0.093690567
-0.1833774 -0.30880609 0.54352617 -0.14181401 -0.9897815 0.014878808 0.12329059
-0.17070238 -0.30195746 0.54211295 -0.24008505 -0.96835017 0.068243198 0.10699953
-0.16779567 -0.30263942 0.54268026 -0.28473824 -0.95394397 0.094419628 0.10324802
-0.15585636 -0.30594066 0.54685652 -0.24316357 -0.96511745 0.097055838 0.087599114
-0.13259099 -0.30605409 0.54465258 -0.17767902 -0.98149055 0.071460061 0.06147442
-0.1044538 -0.30605409 0.54799348 -0.049467843 -0.99818248 0.034420282 0.010961275
-0.080560267 -0.30605409 0.54387021 -0.021507513 -0.9997403 0.0075363074 0.00048577436
-0.077048868 -0.30605409 0.54752779 -0.016022364 -0.99986124 0.0045636706 0.00028566667
-0.0072610378 -0.30605409 0.54256868 0.00347467 -0.99998903 0.0031525958 9.3206545e-05
0.0085519552 -0.30605409 0.54491931 0.037070606 -0.99718082 0.065239437 0.0095963171
0.01762828 -0.30605409 0.54543728 0.067206696 -0.99478817 0.076680042 0.015859265
0.0273214 -0.30605409 0.54785872 0.09886311 -0.99160933 0.083288997 0.022382235
0.03415186 -0.30605409 0.54539257 0.11777531 -0.99078929 0.066824764 0.030303847
0.042614251 -0.30605409 0.5432893 0.17407073 -0.98384017 0.041929353 0.044916872
0.06385763 -0.3059915 0.54735583 0.23156549 -0.97281384 0.0032649699 0.086718485
0.075620949 -0.30597767 0.54379988 0.28874606 -0.95716202 -0.021603385 0.10931446
0.084743552 -0.30568153 0.54427028 0.37055969 -0.92879224 -0.0055218618 0.13136439
0.094612315 -0.30316308 0.54497766 0.47445711 -0.88026398 -0.0050772317 0.16444764
0.10130396 -0.30212495 0.54749006 0.41391924 -0.91016155 -0.016636413 0.18546955
0.11884451 -0.30181283 0.54641211 0.82433492 -0.43467218 -0.36267352 0.20022364
-0.17112075 -0.29410732 0.54738444 -0.25327796 -0.95899576 0.12719032 0.13592623
-0.16938378 -0.29801279 0.54198438 -0.27900243 -0.95570302 0.093752041 0.11769506
0.10018392 -0.28487617 0.5404703 0.87769663 -0.39926809 -0.26501638 0.16843154
0.098216578 -0.27311948 0.54377663 0.94670719 -0.23413837 -0.22118939 0.17521262
0.097490922 -0.26400635 0.54864818 0.99296898 -0.096831858 -0.068090491 0.15875454
0.094647922 -0.25009856 0.54407656 0.99707752 -0.058492839 -0.049143311 0.12392863
-0.16819221 -0.24352942 0.54690486 -0.88723671 -0.015217243 0.4610633 0.032380708
0.096039593 -0.23412961 0.5497452 0.99882907 0.028222518 0.039294615 0.085620344
0.095334522 -0.21876448 0.54302728 0.99966818 0.0089743277 0.0241447 0.086134911
0.096597001 -0.14504492 0.54144901 0.99845767 0.014515244 -0.053587291 0.086548507
0.098115526 -0.13475138 0.54794288 0.99962229 0.0033201615 0.027281014 0.084961861
0.097269215 -0.11835916 0.54810762 0.99090677 0.053245839 0.12356651 0.085442483
0.096865311 -0.1045496 0.54692751 0.99332011 0.069556274 0.092071034 0.084533051
-0.16128196 -0.060338721 0.54756355 -0.8937791 0.10925459 0.43499693 0.014365487
0.096122667 -0.061418429 0.54825109 0.9885689 0.14999667 0.015249348 0.069597147
-0.16509905 -0.05320704 0.54147869 -0.90182328 0.13346696 0.41097611 0.025246102
0.09412688 -0.053409941 0.54259181 0.97195035 0.21679181 -0.091180347 0.07913027
-0.16493708 -0.049237326 0.54198563 -0.89806598 0.14539106 0.41513732 0.026048819
-0.16370077 -0.034613136 0.54479951 -0.83828962 0.37509617 0.39569363 0.069472395
-0.16272202 -0.023856007 0.54520321 -0.80281603 0.45783663 0.38193208 0.071778074
0.088971682 -0.01191265 0.54248095 0.79291111 0.60598582 -0.063821681 0.10756969
-0.16133782 -0.0057794088 0.54271638 -0.58768171 0.76848906 0.25309059 0.087185688
-0.15790325 -0.0040980866 0.5487771 -0.54557937 0.80030984 0.24869128 0.09335459
0.076669723 -0.00053201127 0.54319417 0.62875807 0.77701664 -0.030140122 0.10713988
0.084353618 -0.0044968245 0.54682118 0.72337943 0.69044465 -0.0028988866 0.11074269
-0.16042882 0.0021533924 0.5418247 -0.53176665 0.81529689 0.22916204 0.086641483
-0.15451968 0.0029345052 0.54896879 -0.45151994 0.87034822 0.19652927 0.093524873
-0.13254723 0.0035587037 0.54473591 -0.31338426 0.94113803 0.12668692 0.086575136
-0.078432024 0.0023971614 0.54610914 -0.0061825616 0.99972516 -0.022614447 0.0026440546
-0.00819802 0.0030373482 0.54270899 0.016836388 0.99983644 0.0066095982 0.0016486405
0.0085460478 0.0030328387 0.54522556 0.062135205 0.99677569 0.050769188 0.011013384
0.017386898 0.002974655 0.54586607 0.10726336 0.99251425 0.05839568 0.02100951
0.027364254 0.0026177382 0.54781765 0.18094581 0.98138607 0.064343497 0.04803225
0.034100309 0.00300673 0.54721248 0.20242874 0.9777028 0.055854771 0.048414901
0.042402253 0.0033698552 0.54298961 0.28080997 0.95960498 0.017438782 0.064568818
0.063909866 0.0025805151 0.54736239 0.48419783 0.87481856 0.01564849 0.092354029
0.070229948 0.0019069832 0.54647636 0.53506058 0.84480596 -0.0036174541 0.10070523
-0.16065799 -0.30358464 0.55130845 -0.35804832 -0.91406369 0.19049667 0.10821688
-0.15688944 -0.30300617 0.55643594 -0.34569022 -0.92154872 0.1767659 0.11154704
-0.14098291 -0.30495459 0.55658501 -0.23959595 -0.96118581 0.1368051 0.092704803
-0.12220503 -0.3058508 0.55540133 -0.15694951 -0.98658633 0.044880237 0.055798441
-0.11867452 -0.3058306 0.55919707 -0.15882735 -0.98589474 0.05277776 0.054739859
-0.093214206 -0.30605409 0.55503237 -0.042687677 -0.9989956 0.013622785 0.0045392052
-0.087798163 -0.30605409 0.55739379 -0.037230607 -0.99920189 0.014472731 0.0044613844
-0.076958768 -0.30605409 0.55614299 -0.0221051 -0.99974364 0.004909276 0.00046131693
-0.069057047 -0.30605409 0.55169761 -0.006426455 -0.99997646 0.0024131755 0.00010161279
-0.03751874 -0.30605409 0.55630708 0.0020116656 -0.99998879 0.0042830901 0.00011127466
-0.0048795338 -0.30605409 0.55218083 0.034170344 -0.99774766 0.057724476 0.0094257146
0.0029538723 -0.30605409 0.5533098 0.044771906 -0.99582505 0.079548776 0.013051309
0.01636124 -0.30605409 0.55119681 0.071926028 -0.99365014 0.08652211 0.016146651
0.02903229 -0.30605409 0.55760741 0.10301898 -0.98796785 0.1153542 0.03145605
0.039904431 -0.30605409 0.5528577 0.13710292 -0.98567581 0.09821409 0.048816845
0.046949983 -0.30605409 0.55344522 0.1561484 -0.9825654 0.10091063 0.055955388
0.076047555 -0.30597818 0.5541324 0.3133471 -0.94624436 0.080220044 0.12201229
0.080029547 -0.30579334 0.5510568 0.34057057 -0.93945199 0.037968975 0.12669772
0.096693315 -0.30184332 0.55244672 0.41990817 -0.90752345 -0.0088493302 0.14232604
0.10350353 -0.30140972 0.55544621 0.419507 -0.90665883 0.044537719 0.19844258
-0.16974385 -0.29245198 0.55085909 -0.33804971 -0.91788435 0.20787196 0.15977786
0.10031082 -0.29241529 0.55696839 0.68372804 -0.726134 -0.07242538 0.22812049
0.10021185 -0.26554987 0.5564642 0.99577093 -0.084983133 -0.034902412 0.19007899
-0.16567856 -0.25363117 0.55050528 -0.87695569 -0.067098305 0.47586399 0.054055557
0.098498881 -0.24152514 0.5572108 0.96430701 -0.0048171985 0.26474303 0.10508776
-0.16569996 -0.23501481 0.55189514 -0.8876406 -0.0053497911 0.46050584 0.011584786
0.096382983 -0.21745023 0.55620384 0.98505384 0.0062150741 0.17213468 0.089591146
-0.1653429 -0.20733 0.55267721 -0.8961876 0.029674543 0.44268185 0.00082087115
0.10258229 -0.19464779 0.55875206 0.9547264 -0.037611336 0.29509833 0.081468299
0.10651758 -0.15873417 0.55964506 0.96884406 0.020114549 0.24685356 0.076581784
0.10041739 -0.14377543 0.55955118 0.91657263 -0.0051372843 0.39983526 0.08672446
0.09875676 -0.13086507 0.55101818 0.96861887 0.023642203 0.24742398 0.091091089
0.09905386 -0.12023803 0.55134934 0.97056282 0.043115951 0.23695777 0.08773683
0.10029451 -0.12647423 0.55959606 0.91266328 0.057251405 0.40468267 0.080552526
0.099505097 -0.11935861 0.55306363 0.95208436 0.064882092 0.29887417 0.085201591
0.10159217 -0.11244655 0.55867094 0.93956453 0.091086864 0.33003297 0.084552623
0.099260986 -0.10232516 0.55154729 0.98577553 0.078971967 0.14835787 0.087106898
0.099946395 -0.094064772 0.55471087 0.97061342 0.097237714 0.22012377 0.083969787
-0.1593371 -0.062978446 0.55059272 -0.88811153 0.091990441 0.45032844 0.0063369172
0.099350423 -0.060350671 0.55855316 0.98019797 0.14026296 0.13977952 0.072915517
0.098128803 -0.054799072 0.5559119 0.9775399 0.181812 0.10658389 0.076390885
-0.16141105 -0.037418656 0.55039424 -0.82765627 0.36733595 0.42432231 0.073092774
-0.15846919 -0.033790518 0.55606765 -0.80718493 0.39265722 0.44076398 0.076957583
-0.15997852 -0.024596144 0.55133647 -0.77591431 0.49384335 0.39252496 0.081345789
0.099040106 -0.029098699 0.55714703 0.91589868 0.39537099 0.069364436 0.11457684
-0.15720165 -0.016235342 0.55504674 -0.72259903 0.57648569 0.38146424 0.089256085
0.095573813 -0.014621357 0.55343461 0.82915235 0.55648458 0.053210787 0.12227838
-0.15603507 -0.0070442073 0.55359983 -0.55530339 0.78338408 0.27919102 0.10498011
0.089658231 -0.0057170871 0.5549832 0.76013541 0.64601052 0.069747046 0.11904953
-0.15423977 0.0034112972 0.5510155 -0.446078 0.87348294 0.19504356 0.099342465
-0.14182541 0.0044445479 0.55625612 -0.39303881 0.9051227 0.16209087 0.094057456
