# .PCD v0.7 - Point Cloud Data file format
VERSION 0.7
FIELDS x y z
SIZE 4 4 4
TYPE F F F
COUNT 1 1 1
WIDTH 1373
HEIGHT 1
VIEWPOINT 0 0 0 1 0 0 0
POINTS 1373
DATA ascii
-0.01407385 -0.2399932 0.3687185
-0.099258147 -0.13004521 0.4139246
-0.1109258 -0.050860081 0.42842111
-0.113395 -0.041543569 0.43017259
-0.094302312 -0.27242729 0.40499371
-0.091936842 -0.1202173 0.4115898
-0.097847521 -0.2442054 0.40890679
-0.036735211 -0.2247275 0.38266921
-0.1002757 -0.13615879 0.42005029
-0.08848843 -0.26471061 0.40949619
-0.086470507 -0.2017746 0.39390519
-0.089079767 -0.1397005 0.40906379
-0.042186949 -0.1579271 0.38660729
-0.1166239 -0.025307629 0.43801531
-0.05089983 -0.0035876329 0.62537777
-0.1160751 -0.0096363127 0.42848191
-0.1193047 -0.05625334 0.43411139
-0.1189121 -0.052945379 0.4304671
-0.1358736 -0.1024781 0.43729109
-0.1341977 -0.063344993 0.4285748
-0.15696231 -0.25183749 0.44139811
-0.1484817 -0.1440178 0.44566929
-0.1427837 -0.2476847 0.43490341
-0.1061172 -0.027816979 0.43758759
-0.077069543 -0.262146 0.40040949
-0.1416775 -0.2809501 0.4488751
-0.077236347 -0.13673019 0.40900841
-0.18078271 -0.1227568 0.46100631
-0.1100958 -0.058783699 0.4286488
-0.048756789 -0.24874251 0.3938469
-0.071273357 -0.2436092 0.39953551
-0.093231171 -0.24701311 0.40496239
-0.1179987 -0.1115745 0.425969
-0.076599151 -0.27342361 0.39249831
-0.002362981 -0.2046577 0.3702752
-0.030104641 -0.1395901 0.3754684
0.0086773634 -0.29794669 0.372614
-0.2059048 -0.038349152 0.472458
-0.1101005 -0.23248219 0.4240905
-0.01011413 -0.25669351 0.3731896
-0.01385593 -0.16360991 0.37771791
-0.12921891 -0.28365421 0.42497629
0.05313563 -0.300607 0.42348251
-0.2101182 -0.29135039 0.5648818
-0.1925915 -0.2983028 0.61232191
-0.076897927 0.0002166331 0.46733141
-0.093209937 0.00072902441 0.45615029
-0.1410244 0.00056214631 0.55678272
-0.19260859 -0.071108252 0.46992779
-0.14922769 -0.17589851 0.44247031
0.044825319 0.00177148 0.53711528
-0.1780123 -0.1092919 0.46403161
-0.1679965 -0.1460894 0.4617424
-0.1191825 0.0029616649 0.4343622
-0.1420778 -0.27676579 0.43469399
-0.1291503 -0.13405 0.43297231
-0.1831802 -0.13499551 0.46585581
-0.15161809 -0.05424941 0.45036271
-0.1215602 -0.058421999 0.43263519
-0.13994721 -0.080920734 0.44195929
-0.1199131 -0.053833071 0.4320893
-0.042013168 0.0025766189 0.59755242
0.045147661 -0.002836972 0.46590069
-0.1844784 -0.1772822 0.46271741
-0.1716921 -0.2495971 0.45433709
-0.1588013 -0.2089678 0.44866699
-0.14105409 -0.0067703128 0.44322541
-0.181326 -0.22362439 0.45994011
-0.034978569 -0.01711699 0.38480511
-0.1136917 -0.099588327 0.4260523
-0.061731279 -0.074035376 0.40088841
-0.02226365 -0.1122542 0.3792744
-0.098711848 -0.1331585 0.41900101
-0.0111872 -0.01481923 0.37526631
-0.02862585 -0.03077054 0.37881711
-0.02284443 -0.01533815 0.37945351
-0.076789863 -0.1532274 0.40793961
-0.041837219 -0.1462384 0.38756749
-0.0755983 -0.15123869 0.41044471
-0.042253729 -0.1877843 0.3878333
-0.1193157 -0.2140696 0.42533189
-0.1424845 -0.16580769 0.44024709
-0.1203715 -0.1939126 0.4261812
-0.16187359 -0.1683785 0.45219451
-0.1585221 -0.20090839 0.44640639
-0.016555671 -0.176365 0.38033989
-0.091818273 -0.2589429 0.4070572
-0.096314967 -0.2706877 0.40810001
-0.094887666 -0.2463983 0.4145757
-0.1172649 -0.2031742 0.42154199
-0.1238058 -0.25327921 0.4310565
-0.13964871 -0.1702081 0.43352151
-0.1301806 -0.2227367 0.43069541
-0.068954349 -0.060862269 0.40417469
-0.03819656 -0.056582902 0.38741511
-0.044634338 -0.19792829 0.38337839
-0.091981828 -0.1210339 0.41396219
-0.033310059 -0.175611 0.3825554
-0.054565791 0.003185183 0.4650082
-0.01740527 -0.072286129 0.37560871
-0.1169751 -0.26686189 0.42171371
0.0027961731 -0.211117 0.37803131
-0.1517642 0.003806561 0.54837978
-0.154672 -0.2829189 0.44144261
-0.1302857 -0.27955651 0.42454511
-0.078486077 -0.13688681 0.41051
-0.1297857 -0.018412501 0.4394331
-0.073515892 0.004705817 0.4249754
-0.040603761 0.0037798879 0.47703579
-0.1829889 -0.056862772 0.46693489
-0.1600693 -0.05244863 0.45373991
-0.16775569 -0.0071440041 0.45888451
-0.1593264 0.0015935299 0.4606612
-0.18368889 -0.09328261 0.46486989
-0.1665806 -0.2757943 0.4470672
0.052480038 0.0022808909 0.49327829
-0.13814341 -0.098903723 0.43564609
-0.1391778 0.001190454 0.45582139
-0.075636029 0.0058425372 0.50375271
-0.16452789 -0.065278769 0.45653459
-0.1168168 -0.1154304 0.4288812
-0.198212 -0.1088952 0.4733161
-0.033990201 -0.01024583 0.38712639
-0.02569014 -0.078214288 0.37769321
-0.0057476158 -0.074952483 0.36932179
-0.023857711 -0.033302579 0.3781164
-0.1494628 -0.004655689 0.4498364
-0.093488507 -0.1828074 0.41738161
-0.1175026 -0.2429294 0.424633
-0.1672233 -0.17441291 0.45222759
-0.066293947 -0.27379161 0.39854309
-0.1728389 -0.076923221 0.46087661
-0.1006655 0.001700222 0.52543938
-0.15383729 -0.13454629 0.44801259
-0.052859191 -0.1923793 0.39519969
-0.1810424 -0.092341393 0.46403071
-0.050190631 -0.00091850758 0.61816472
-0.1896461 -0.1752799 0.46351871
-0.099593639 -0.2049264 0.41821349
-0.020712379 -0.0067486758 0.37976551
-0.1768214 -0.044872049 0.46198949
-0.0389986 -0.0021632609 0.41206989
-0.1234845 -0.1198536 0.4276318
-0.1602592 0.0048416262 0.46213731
-0.1451624 -0.061944839 0.44440389
-0.1624393 0.00025042889 0.49101529
-0.16195489 0.0014820989 0.48879811
-0.1176201 -0.1901506 0.4260352
-0.15628541 -0.1687157 0.4502922
-0.1921698 -0.29014331 0.46953461
-0.1573427 -0.2532905 0.4430716
-0.15354639 -0.144146 0.4494718
-0.069324553 -0.17622159 0.4056491
-0.17351089 -0.089852117 0.4570455
-0.1635869 -0.1480232 0.4526211
-0.1407079 -0.093376987 0.4400261
-0.1394241 -0.053922921 0.44124529
-0.15602089 0.00311622 0.45610979
-0.1770146 -0.062470529 0.46093351
-0.1789075 -0.02769223 0.46322221
-0.1580527 0.0016824011 0.54954553
-0.1775656 -0.2065524 0.45981151
-0.092593968 -0.14989071 0.41591671
-0.190911 -0.18676651 0.4672088
-0.2080503 -0.29879421 0.58051628
-0.1539105 -0.016881021 0.45110911
-0.16499069 -0.045437809 0.45851979
-0.06921792 0.0011472109 0.64031571
-0.068936527 -0.002139986 0.40774789
-0.05957764 -0.027896671 0.39917201
-0.078820594 -0.044195469 0.3988463
-0.07992661 -0.03379729 0.41493151
-0.04698604 -0.036623981 0.39357859
-0.093489289 -0.033287261 0.4228552
-0.069357507 -0.03898019 0.40614209
-0.08276695 -0.047725022 0.40835169
-0.1218121 -0.23825011 0.42361099
-0.05846763 -0.20242091 0.39980459
-0.046449181 -0.1862385 0.3869738
-0.038072821 -0.25199369 0.3830412
-0.096497603 -0.25533339 0.3969796
0.002395272 -0.248062 0.3763268
-0.039552148 -0.1632511 0.3822822
-0.0038379431 -0.1529257 0.37119111
-0.059267879 -0.25828359 0.39813381
-0.080666423 -0.2049734 0.40558609
-0.097969711 -0.1159318 0.41876611
0.0045267339 -0.28533569 0.3738634
-0.050284151 -0.27905869 0.39138779
-0.001562178 -0.17461079 0.37036231
-0.1249328 -0.2051336 0.43325531
-0.029583929 -0.1172476 0.3800551
-0.091544449 -0.00091484189 0.51197529
-0.1335384 -0.080928117 0.44104609
-0.144446 -0.052902009 0.44779921
-0.1486025 -0.093886673 0.445272
-0.16701031 -0.24374969 0.45246881
-0.1787872 -0.22400551 0.45876589
-0.1698935 -0.1736984 0.46319649
-0.1813339 -0.25515229 0.45736659
-0.1645674 -0.204156 0.45039231
-0.1480286 -0.1226548 0.44681299
-0.076123483 -0.26705489 0.4041113
-0.1538735 0.003667295 0.4694154
-0.0012725 -0.1758664 0.37058339
-0.094401777 -0.049910899 0.41989481
-0.026575509 -0.23396701 0.38008499
-0.057163 -0.0013602379 0.42119151
-0.05759931 0.002809972 0.4328213
-0.053815719 -0.03187665 0.39261061
-0.1576855 -0.044465151 0.45253229
-0.094363868 -0.064789563 0.4114216
-0.056058589 -0.058643941 0.40080979
-0.072793357 -0.2802119 0.40101561
-0.097082078 -0.11101 0.41913259
-0.092395782 -0.06017676 0.41437849
-0.1026506 -0.1049698 0.41710931
-0.1108032 -0.081865191 0.41613069
-0.1050534 -0.1160339 0.42517659
-0.066253901 -0.29142499 0.39738321
-0.060156349 -0.044806961 0.40177059
-0.07649368 -0.1604425 0.3997061
-0.1901014 -0.0091261566 0.46658
-0.1397161 -0.02332318 0.44486251
-0.1286281 -0.1121031 0.43249029
-0.1720143 -0.1156827 0.45749879
-0.064846933 -0.00458166 0.40070409
-0.090216398 -0.2485164 0.41171819
-0.1165055 0.0041773021 0.56080133
-0.1688526 -0.2195438 0.45143971
-0.044249769 0.003580749 0.50752068
-0.092208028 0.002458096 0.43249521
-0.118548 0.0010975 0.46735609
0.040044252 -0.001534998 0.45203331
-0.093211651 -0.1594224 0.4138968
0.0040404801 -0.2637144 0.37203079
-0.17211699 -0.0003314018 0.4758116
-0.1458753 -0.0040476322 0.45113781
-0.1125882 0.0038046839 0.62951201
-0.1870207 -0.048091918 0.47045979
-0.18661951 -0.24788681 0.46789649
-0.1664616 -0.1071303 0.4542523
-0.03751874 0.0075801909 0.55630708
-0.05843991 -0.1476282 0.39624071
-0.0096538663 -0.185277 0.39045969
-0.097765453 -0.03790924 0.42518389
-0.1432243 -0.2463689 0.43630749
-0.082494803 -0.016856249 0.4147318
-0.1962584 -0.021868231 0.46987551
-0.1805554 -0.069665127 0.46290439
-0.024914321 0.002301693 0.5700891
-0.1652367 -0.0099257827 0.45982781
-0.085700206 0.0049640238 0.57198387
-0.19347499 -0.01216406 0.4763431
-0.1865544 -0.2736448 0.46499181
-0.1781254 -0.1846322 0.4572157
-0.1599621 -0.29973829 0.58135653
-0.099835463 0.0050459211 0.57382679
-0.1676908 -0.2883347 0.450804
-0.051128689 -0.1230704 0.3923566
-0.1400273 -0.01540488 0.44025421
-0.056829751 -0.1040974 0.39998811
-0.0580079 -0.2095567 0.3878684
-0.01453257 -0.1434464 0.37627161
-0.027557669 -0.068416089 0.38433239
-0.039936662 -0.023687961 0.3924824
-0.05520314 -0.072043993 0.3944779
-0.1128399 -0.2283061 0.42062631
-0.081937611 -0.0082781306 0.4160699
-0.049645599 0.001028597 0.4795424
0.032020509 0.0047085881 0.51248842
-0.029661059 -0.097017623 0.37813199
-0.1139513 0.0053080018 0.58797312
-0.18134239 -0.1919643 0.46113259
-0.1896752 -0.2862646 0.46334401
-0.001630008 -0.23030689 0.37390089
-0.1777107 -0.0028457339 0.46797201
-0.19600371 -0.16434389 0.48463839
-0.1912033 -0.2971645 0.50403208
0.006958961 -0.0017423331 0.4085187
-0.1268848 -0.14071029 0.43127519
-0.1964294 -0.1785657 0.47308239
-0.0039559598 -0.1315113 0.36715299
-0.027453599 -0.2596992 0.37689999
0.004225194 -0.2257469 0.36370921
-0.1140134 -0.2950024 0.4219774
-0.00073719019 -0.0049469471 0.3993744
-0.13732509 -0.00056254858 0.4441759
-0.1163862 -0.1700222 0.42354071
0.01457298 0.00304386 0.49225441
-0.038218498 -0.106427 0.383104
0.043681622 0.0025129621 0.46563411
0.041093051 0.0060943658 0.4968583
-0.1118677 -0.049478829 0.42686379
-0.079682589 -0.070291847 0.40483701
-0.050595999 -0.1409214 0.3844347
-0.081578366 -0.2401468 0.4052785
-0.1046523 -0.1333925 0.41776571
-0.098919272 -1.40667e-05 0.4728865
-0.1526574 -0.08030507 0.4491401
-0.1921732 -0.090777554 0.47950351
-0.16257051 -0.095163323 0.45571291
-0.1576163 -0.100064 0.44796821
-0.15761989 -0.095577419 0.44580409
-0.1901841 -0.1167508 0.47321549
-0.1964522 -0.1203412 0.485223
-0.1174263 -0.1074516 0.41383249
-0.17110971 -0.033404078 0.4645164
-0.1727982 -0.27402329 0.46914181
-0.1341977 -0.07128942 0.44394359
-0.1732749 -0.026259091 0.46190789
-0.1941068 -0.073999263 0.47343299
-0.02301234 -0.092825294 0.36952251
0.01932317 -0.00051385158 0.53338408
-0.13503981 -0.29952309 0.62940919
-0.022849681 -0.0005659461 0.44151261
-0.19436149 -0.04907551 0.48408851
-0.22789679 -0.30039391 0.32515749
-0.247767 -0.29613271 0.62703007
-0.1356528 -0.1133277 0.43560979
0.068328679 0.002858371 0.5460453
-0.02123392 0.0070303078 0.52628952
0.031866491 -0.001077443 0.57639343
-0.049291249 0.0045946538 0.38703731
-0.097060621 0.003042191 0.422279
-0.058357239 -0.068260312 0.40425879
-0.12893739 -0.016911659 0.42491469
-0.049632251 0.001999408 0.4568218
-0.1228011 -0.088339873 0.42126721
-0.068873294 -0.2124811 0.41211891
-0.043536011 -0.2105532 0.37937921
-0.085458159 -0.28814891 0.4064078
-0.0058482289 -0.22408029 0.37883389
-0.1498149 0.0026369989 0.56529939
-0.120665 0.002538502 0.4917573
-0.1253098 0.0032306609 0.60925668
-0.093214206 -0.0044864421 0.55503237
-0.14999481 -0.070272118 0.44913229
-0.1722056 -0.064100802 0.45664129
-0.067776799 0.0059460099 0.5118084
-0.046071231 0.0038306119 0.62725282
-0.1727612 -0.038920552 0.45846859
-0.14622679 -0.21933641 0.4377307
-0.1828579 -0.27912471 0.46045601
-0.1424444 -0.2033709 0.44329959
-0.1613811 -0.192858 0.45438591
-0.17949989 -0.1600364 0.46384391
-0.18947589 -0.2540395 0.46605909
-0.1127555 -0.02252719 0.42821199
-0.05614626 -0.085782863 0.38755441
-0.169176 -0.164653 0.53788948
-0.05410492 -0.1999909 0.38527331
-0.040608641 -0.24055479 0.38681009
-0.1178336 -0.224292 0.62878501
-0.12854929 -0.09812203 0.61949062
-0.1282659 -0.01202777 0.43176949
-0.129362 -0.087966047 0.4334642
-0.1259876 -0.2967343 0.60908598
-0.17212839 -0.088556923 0.52913088
-0.1156721 -0.039938301 0.42882621
-0.063144512 -0.2226128 0.39989609
0.030878481 0.0052649081 0.42826009
-0.1162242 -0.01127136 0.43058959
-0.094250977 -0.022292171 0.419462
-0.097156137 0.0045942371 0.58547211
0.03318676 0.002846092 0.58858192
-0.01809917 0.005654722 0.63765109
0.0024565761 0.001122668 0.38072571
0.036567722 0.000549227 0.44968411
0.027210649 0.0002977252 0.6109302
-0.001018718 0.00075873733 0.45714039
-0.05398548 0.0038028359 0.64036268
0.05188394 0.004235744 0.47972769
-0.019591199 -0.001478165 0.47496709
0.018849069 -0.1876677 0.61389238
-0.0079628974 0.003824055 0.60463232
-0.0093544424 -0.003920645 0.50855488
-0.1151702 0.002395466 0.44836
-0.077389017 0.0031988621 0.55841112
-0.052478489 0.0033958261 0.61155742
-0.01724383 0.001608595 0.61223477
-0.038948178 0.003583878 0.60179639
-0.1379869 0.006282568 0.56728619
0.002034992 -0.001941264 0.62278658
0.0129035 -0.088299289 0.62137473
-0.019891899 -0.1280145 0.63854313
0.0089797229 -0.22327881 0.61737829
0.098017663 -0.13707229 0.56775337
0.09906745 -0.2289122 0.56453449
-0.019108821 -0.0001006126 0.63400131
-0.023641611 -0.092728049 0.64309001
0.020908181 -0.1295732 0.62312382
0.00079455972 -0.2449811 0.62358081
0.1019927 -0.13623729 0.56525099
0.034254011 -0.1069806 0.60775012
0.098656356 -0.29176739 0.56603771
0.0398384 -0.1240135 0.60280973
0.034106851 -0.069922604 0.60368782
0.01525927 -0.090653121 0.61157757
-0.0399708 0.002591711 0.59542501
-0.032331351 0.002945662 0.59815061
-0.0059342091 -0.1555026 0.63789803
0.047375768 -0.2294278 0.59986788
0.1025576 -0.1629765 0.56684178
0.1030092 -0.05062044 0.56979901
0.069187023 -0.2914637 0.59210259
0.019180659 -0.054151621 0.60881352
-0.016747549 -0.1588141 0.64041018
0.02445123 -0.27923521 0.61790711
0.1026028 -0.018435109 0.57315868
0.078383043 0.00092789531 0.54200178
0.034864649 0.002293736 0.57001209
-0.087838583 0.0043279831 0.59072769
0.098227173 -0.1836191 0.57021552
0.02904075 -0.0135383 0.62113547
0.039142169 -0.090841547 0.60366952
0.098926097 -0.074668638 0.57536077
0.070102423 -0.001168676 0.58590329
-0.00095747411 -0.054713901 0.62322038
-0.00063914061 -0.28010181 0.62930602
-0.13338131 -0.001610905 0.4608151
0.027524261 -0.2389273 0.6187675
0.030820889 -0.2330121 0.62311399
-0.16180409 0.001872867 0.4702369
-0.1176215 0.0027455389 0.47077921
-0.02504066 -0.0006813705 0.4167484
-0.022123281 -0.0052903891 0.6342203
0.1004181 -0.26056829 0.56577849
0.096170992 -0.29488039 0.56512958
-0.023639129 -0.1020266 0.6401884
0.091089077 -0.1330193 0.56794149
-0.0051437169 -0.14914531 0.63010591
0.018497851 -0.048134211 0.61744863
-0.002409399 -0.2429592 0.62816292
0.041278511 -0.1456116 0.59786743
0.075832248 -0.28040811 0.58929437
0.064613029 -0.075418226 0.59218961
0.063235611 -0.229008 0.59717911
-0.03169271 -0.15825351 0.6479066
0.083748527 -0.09946759 0.57887608
0.016116681 -0.1620727 0.6158464
0.060488001 -0.26890841 0.59461367
0.00040102011 -0.062236879 0.62406039
0.01756243 -0.23542979 0.61487228
0.075701818 -0.12863471 0.58610648
-0.01921626 -0.2128582 0.63842589
-0.093802318 0.00087076431 0.50377589
-0.1251848 0.0080304146 0.60245782
-0.09089081 0.00089940429 0.42454019
-0.047286142 0.000228256 0.4546589
-0.1174576 0.002463371 0.62687951
0.02999161 0.0019453469 0.52826732
-0.032918349 0.001181304 0.64532143
0.064609364 -0.0076314812 0.59085411
0.099940419 -0.1842424 0.56615669
0.1024295 -0.2035303 0.56634527
0.01199093 -0.132175 0.62595809
0.1129292 -0.14758471 0.57089561
0.095779933 -0.1522575 0.57110012
0.021888459 -0.14520431 0.6134727
0.05063349 -0.28665909 0.59544611
0.076131657 -0.1190287 0.58564693
0.080281109 -0.055848569 0.58480269
0.023537589 -0.1173524 0.61437798
0.063792437 -0.075793922 0.58839089
0.062720031 -0.1041018 0.59405059
0.01304659 -0.25863501 0.62371051
0.079360023 -0.038020849 0.58238173
0.006466717 -0.15785471 0.62361372
0.005152062 -0.1024823 0.61931431
0.01442251 -0.080020487 0.61441851
0.01212178 -0.2916362 0.62287962
0.057704911 -0.1088822 0.59823412
-0.106976 0.00269416 0.45977631
-0.1661858 -0.00086951262 0.48062751
0.002695933 -0.0030896959 0.62290299
0.1083011 -0.19107591 0.56590921
0.087840661 -0.2208914 0.5728085
-0.0039756 -0.1328961 0.62780529
0.1034713 -0.1197141 0.56879407
-0.1027878 0.00066715479 0.63978052
-0.037801702 -0.1478889 0.6425935
0.048827648 -0.2492765 0.59966451
-0.01077293 -0.23988409 0.63280219
0.082243323 -0.16381291 0.58215147
0.090665333 -0.27489221 0.57592517
-0.155348 -0.001063794 0.47211021
0.02551344 -0.004188254 0.61038232
0.1008228 -0.082791477 0.56771702
-0.01030003 0.0048233271 0.3817566
0.046456501 -0.059306171 0.59850711
0.1229915 -0.22791129 0.59805572
-0.004094481 -0.15865541 0.63581169
0.035578672 -0.2418154 0.60930258
0.02953109 -0.087338477 0.61137378
0.083852783 -0.1582914 0.57910973
-0.09201549 -0.0041278298 0.4238432
-0.0001647621 -0.0039710701 0.38290039
-0.090874419 0.01069888 0.56019002
0.06151716 0.001158535 0.54554158
0.04414472 -0.0001580119 0.54560173
0.04887579 0.0042395592 0.53169513
0.01750632 0.00079864258 0.53061169
0.085742339 -0.002919853 0.57882762
0.088567637 -0.003640085 0.58802748
0.060209129 -0.033307672 0.59644568
0.070320562 -0.2145303 0.59203547
0.1035289 -0.1104114 0.5672316
0.091898233 -0.067952812 0.58060318
0.055562001 -0.1151618 0.60150129
0.002266645 -0.055919711 0.62397093
-0.087633893 0.0066949432 0.56255561
0.094300181 -0.21360441 0.57456762
0.083457768 -0.071201183 0.58171672
0.04237029 -0.071249537 0.60717839
0.08511357 -0.13663369 0.58520567
0.077422269 -0.06235287 0.58816749
0.065369777 -0.15797789 0.59323692
0.094026491 -0.059357259 0.57547188
0.08850053 -0.1973656 0.5774914
0.04509826 -0.1073748 0.60530019
0.058770049 -0.1499965 0.59446108
-0.002927318 -0.27965969 0.63075107
0.01012801 0.0044659078 0.60782403
-0.042989749 -0.002633661 0.39866701
-0.077939197 0.0091114938 0.41871911
-0.1002245 0.0080197752 0.4317745
-0.081408843 0.003044009 0.42258751
-0.03236505 0.0065225661 0.61655349
-0.0042867959 -0.1078849 0.62399459
-0.003439307 -0.1286094 0.63113803
0.053692851 0.001519531 0.58805847
0.073995806 0.004849046 0.57084489
0.065841541 0.001480669 0.51142019
0.058213759 -0.04315779 0.59790248
0.067474931 -0.0333657 0.58555019
0.074101113 -0.2063003 0.59442627
0.1082687 -0.1698896 0.57217872
0.06716387 -0.14412341 0.59285629
0.069374308 -0.2068696 0.59001708
-0.03974105 -0.002748698 0.43192431
-0.0040296912 -0.086182833 0.61920363
0.05293883 -0.1766004 0.59358609
-0.005441308 -0.1068528 0.62669551
0.01893975 -0.01105407 0.61515588
-0.048603449 0.0023964641 0.49644911
-0.0024788531 0.0048455889 0.51383913
-0.04424857 0.0074825292 0.58280867
0.076240674 -0.13055579 0.59030008
-0.045759719 -0.021715021 0.64887041
0.087310739 -0.272118 0.57489359
0.040393669 -0.1779305 0.60207921
0.019899281 -0.15603811 0.61821252
-0.0100953 -0.02579418 0.62867433
0.031770959 -0.08094734 0.60900092
-0.021136601 -0.1983535 0.63566363
0.13293999 -0.2966907 0.47012141
0.003364712 -0.07383287 0.62386209
0.078903303 -0.2055739 0.57908863
0.01382045 -0.236402 0.62077129
-0.018890049 0.0085400036 0.63344032
0.071329363 0.0059528048 0.51789778
-0.0919438 0.0047515631 0.50995249
-0.071405649 0.0078826547 0.5564959
-0.1139548 0.0046258271 0.58517498
0.0021539929 -0.00052991509 0.3740046
-0.1157895 0.003485024 0.44537601
-0.033189882 0.003128916 0.59397161
0.018749179 0.0012520551 0.49459711
-0.0519723 0.007250607 0.61412197
-0.048835188 0.00070136791 0.64964807
0.00156796 -0.2739678 0.63213009
-0.01229227 0.0091386735 0.62911803
0.029791409 -0.0029528439 0.61171222
0.042308088 -0.0817509 0.60471249
-0.086254507 0.0078044529 0.56068522
-0.1601129 0.0054002702 0.4925679
0.065280087 0.0029616361 0.54833198
0.095979333 -0.127958 0.57397741
0.003857791 -0.002309293 0.62197769
0.1005064 -0.2598021 0.56836432
0.1016595 -0.2909807 0.56749672
0.025713829 -0.27731919 0.61621559
0.023555551 -0.0160625 0.61469281
0.0115903 -0.2143797 0.62326622
0.049541119 -0.2215248 0.60614991
0.0051537752 -0.0024087729 0.62472111
-0.097764283 0.0058860178 0.6450994
-0.017430989 -0.0071751182 0.63220203
0.09887439 -0.23367549 0.5667541
0.1036022 -0.1573696 0.56939632
0.09815827 -0.1855547 0.57082069
0.1003289 -0.1317362 0.57210928
0.099395327 -0.016623231 0.57199031
0.0221003 -0.17988899 0.61932218
-0.001582503 -0.087391198 0.62724012
-0.002845556 -0.1456105 0.63291299
0.095651947 -0.044572681 0.57746589
0.086980127 -0.0048016608 0.57900459
-0.020933781 -0.090753287 0.64667702
0.035793569 -0.066774338 0.60817522
0.035286251 -0.1027124 0.60995507
0.02211496 -0.042561829 0.61199403
0.001311451 -0.2371411 0.63199753
-0.106188 0.0054711699 0.4560169
0.01057059 0.003872216 0.51467472
-0.035909951 -0.1426876 0.64737397
0.042267472 -0.13915101 0.6066035
0.089689791 -0.21858419 0.57240492
0.065369427 -0.075725727 0.59083909
0.017884189 -0.085877061 0.61962652
0.081277221 -0.034912199 0.58329552
0.081950307 -0.054128289 0.58254278
-0.1543048 0.0026102071 0.55138028
0.041026231 0.0057445471 0.48041561
0.080037832 0.0067951982 0.55105883
0.01700026 0.003270298 0.58289433
-0.01072773 0.0036000011 0.53511238
0.03043035 0.0036145151 0.5710355
-0.02849808 0.01178744 0.61765063
0.104468 -0.1953121 0.57332319
-0.1536452 -0.001079559 0.4461191
0.062366489 -0.1009227 0.59386921
0.030240299 -0.087562233 0.6097492
0.06408456 0.0079601109 0.58079952
0.085422583 -0.092241444 0.58200318
-0.02528587 0.0003114343 0.4122597
-0.023746161 0.0025858581 0.57474393
0.1017303 -0.18064649 0.57012773
0.1036865 -0.130018 0.57175899
0.096821398 -0.147337 0.57423991
0.0039430861 -0.050716668 0.62590992
0.019499781 -0.0094348788 0.61463618
0.1107383 -0.1842096 0.56836188
0.06581533 -0.1380409 0.59372407
0.092898548 -0.0087356567 0.58120811
0.038777739 -0.2330396 0.60961509
-0.1279569 0.01183343 0.58638549
0.051481839 -0.2422597 0.60510862
-0.1147372 0.0078865588 0.61060572
0.061947379 -0.031210151 0.59068382
-0.01163581 -0.21163259 0.63391572
0.016574981 0.0067057912 0.61394542
0.070031457 -0.28761929 0.59354502
-0.03881824 -0.27523199 0.64530092
0.021549171 -0.1467014 0.61199892
-0.118403 0.0050481558 0.55983073
-0.042853829 0.0056114201 0.59002757
-0.063558519 0.003160089 0.57816547
-0.13523281 -0.00059941411 0.46056369
-0.110402 0.009603709 0.63773203
0.054863069 0.002829283 0.58830422
0.074140906 -0.20818301 0.58819348
0.093173862 -0.15823209 0.57578731
-0.055901531 -0.0002284646 0.53191191
0.057775799 -0.04397526 0.59100658
-0.15933821 0.0085373521 0.53267592
0.1034909 -0.01549163 0.57304072
0.075826667 -0.00028479099 0.52076608
0.066485293 -0.0083687007 0.59059352
0.01425624 -0.25718641 0.62214887
-0.024320571 -0.21598861 0.63829857
0.09168455 -0.26686361 0.57818288
0.02458122 -0.1164128 0.61464947
-0.001587272 0.0049933488 0.52961087
-0.1404997 0.0054749851 0.56302029
-0.090201743 0.0020301039 0.46050659
-0.08715409 -0.0036053059 0.41121799
-0.053078622 -0.00652492 0.64632779
-0.097586177 0.0048364699 0.58442438
0.0053948462 -0.093353838 0.61720312
0.0107168 -0.1332003 0.61704493
0.034094632 0.0082183182 0.54211903
0.098345667 -0.077569127 0.56900442
0.01909646 -0.1342116 0.61168808
-0.00089615578 -0.1253802 0.62922227
0.05012238 -0.1813603 0.59876293
-0.019240441 -0.001760721 0.63247102
-0.0067054629 -0.1099534 0.62569439
-0.074768603 -0.0061776042 0.418479
-0.03245249 -0.16092759 0.64192462
-0.1265841 0.01138806 0.61922872
-0.020889699 -0.0031175909 0.52453321
-0.0072610378 -0.0035212929 0.54256868
-0.079991192 0.0044222181 0.57362068
-0.087766953 -8.046627e-06 0.4720538
-0.14255761 0.0092279017 0.48772639
-0.079504609 0.002110034 0.44495299
-0.02366996 -0.1043658 0.63794321
-0.020431221 -0.1274801 0.6382668
0.01538312 -0.16314469 0.61370838
0.07526955 -0.006614476 0.53038043
0.0085519552 0.005838275 0.54491931
0.05416197 -0.0022592249 0.49692571
0.051221851 0.01410863 0.52826011
0.1075853 -0.25839031 0.55932248
0.1088961 -0.2969808 0.59171921
0.097645342 -0.16405161 0.57508123
0.050580051 -0.1209315 0.59199297
0.044411991 -0.036218882 0.60242718
0.055168599 0.0025342109 0.51124811
0.1036051 -0.29157051 0.52398598
-0.1500777 0.0072911382 0.57212567
-0.01783788 -0.19251341 0.63530362
0.15966991 -0.29820251 0.59491909
-0.059148669 0.00025358799 0.41821161
-0.069733262 0.0078981519 0.4775407
0.025132449 0.0107438 0.50558138
0.1035722 -0.080033749 0.56991613
0.1066027 -0.016548449 0.56161499
0.067777753 -0.145142 0.59042621
0.06186673 -0.2269697 0.59495038
0.05187973 -0.2766805 0.60312378
0.054237071 -0.087872528 0.57671428
-0.1036762 0.003436208 0.4414092
-0.03852633 -0.0016722979 0.48209271
0.041083779 0.001132458 0.54097688
-0.099920154 0.0023958981 0.64356542
0.02949262 -0.2359677 0.61689693
0.01603967 -0.1322199 0.62317997
0.1012675 -0.2320319 0.5627476
0.03581747 -0.070924729 0.60436851
-0.001244426 -0.2849845 0.6256395
0.0266518 -0.0025550129 0.61021757
0.1010092 -0.01742941 0.56467181
0.050301671 -0.2303661 0.59825689
0.03992283 -0.1296505 0.59867448
0.026043421 -0.27735281 0.61661971
0.05317476 -0.2856752 0.59743559
-0.075595587 0.0023372171 0.55857241
0.0097724805 -0.091074564 0.61185688
0.1034286 -0.16405369 0.56760049
0.037845518 -0.2434838 0.60733563
0.036040898 -0.1077075 0.60745102
0.071700327 -0.2938163 0.58778661
0.1021318 -0.29505661 0.56357712
-0.050054912 0.001021594 0.60106641
0.002862215 0.00068837398 0.38429049
-0.13497099 0.006796598 0.56798488
-0.1198686 0.0052948589 0.60375363
-0.058223221 0.001914918 0.64164257
0.02429026 0.00099757314 0.59358501
-0.1142699 0.0040954351 0.61311108
-0.02319923 0.00074478978 0.41847599
0.01130727 0.0057916939 0.61485809
0.019191271 0.003365844 0.46512839
0.003468394 -0.24773391 0.62203932
-0.093092352 0.0052594538 0.50689572
-0.069458961 0.0058172941 0.58749193
5.090237e-05 0.00084593892 0.44686621
0.034618501 0.00051867962 0.59469497
0.019669861 -0.2375195 0.61350107
-0.1150708 0.003423125 0.58328283
-0.1175395 0.0079963515 0.44375801
-0.077048868 0.003998965 0.54752779
0.02238792 0.0033773179 0.50669098
0.084226489 0.001834512 0.54571003
0.04328683 0.0037176311 0.58618701
0.021588501 -0.1870047 0.60837471
-0.1160343 -0.002720505 0.63057739
-0.1546043 0.0069943671 0.51409042
-0.130394 0.0050511961 0.60306728
-0.13978291 -0.054698352 0.5872376
-0.1293477 -0.16692831 0.61677933
-0.1106168 -0.0088060498 0.64923251
0.05722028 0.0053365231 0.52089459
-0.003263474 -0.002387553 0.47138119
0.087717123 0.0070559978 0.56109512
0.1013786 -0.075575143 0.56507951
0.047098789 -0.0522874 0.60167342
-0.19166 -0.2486653 0.50029761
-0.027080091 -0.093165807 0.63249189
-0.1650719 -0.00052511692 0.53572029
-0.15895741 -0.0074850922 0.54177898
-0.1614535 -0.060440481 0.54626489
-0.1577713 0.004923373 0.55111718
-0.092125803 0.0022339821 0.50168431
-0.1485848 0.003772229 0.56614262
-0.18477669 -0.053723309 0.50869823
-0.19546659 -0.0102357 0.47999921
-0.1866115 -0.032720689 0.50089598
-0.1943914 -0.083173104 0.4839797
-0.1952894 -0.080799818 0.48047009
-0.153018 -0.054087069 0.55949342
-0.1925658 -0.13165499 0.48517129
-0.17386679 -0.16689231 0.53337717
-0.1555426 -0.1978911 0.56719363
-0.1909593 -0.15922169 0.48769471
-0.17505839 -0.1222269 0.52373397
-0.1471011 -0.099365316 0.57912391
-0.1943109 -0.2286289 0.49035281
-0.1569486 -0.29946449 0.56958419
-0.1112797 -0.1855616 0.64723271
-0.1098323 -0.066434711 0.64964563
-0.1429196 -0.1894653 0.60559511
-0.2010493 -0.2933619 0.50970072
-0.1219888 -0.03214151 0.63021928
-0.159275 -0.24007051 0.56221497
-0.1484928 -0.22201329 0.58536088
-0.151766 -0.2299225 0.58285868
-0.1768623 -0.26983261 0.52927482
0.0032837689 -0.0020685201 0.39333141
-0.027488589 0.008249104 0.63242388
-0.020573709 0.0095307231 0.62722951
-0.039325621 0.002877593 0.50778049
-0.041206092 0.00471893 0.61439592
-0.041696731 0.0029656889 0.58853412
-0.034023259 0.0085089495 0.60128218
0.017909771 0.00033122301 0.4223237
-0.01981071 0.0001097918 0.63603687
0.036415789 0.0060622692 0.42550379
0.061080519 0.003098696 0.56582367
0.1012575 -0.2336632 0.56238329
0.08960551 -0.1203319 0.57378578
0.1026449 -0.1438385 0.5618844
-0.02014726 -0.1280259 0.63590598
-0.020981429 -0.098202907 0.63811088
0.01547754 -0.047368851 0.61804187
0.016441969 -0.091466673 0.61164331
0.05577207 -0.1643479 0.59732538
-0.1114084 -0.0543941 0.63916463
0.092716657 -0.070154518 0.57358849
-0.00057214499 -0.16462369 0.63059849
-0.14810079 -0.1528372 0.57962012
-0.068721317 0.00071549421 0.4601143
-0.19299451 -0.29002911 0.4719182
0.056562241 -0.03222039 0.59852779
-0.1166036 -0.009509027 0.63780117
-0.1194707 0.0081915855 0.56364048
-0.1635868 -0.032563921 0.55549419
-0.1488651 -0.01386341 0.57697803
-0.1152643 -0.02418551 0.63705653
-0.1307351 -0.025409579 0.60180342
-0.1003343 0.0043361778 0.52643371
-0.19565371 -0.061461601 0.49015179
-0.166471 -0.032792419 0.53560418
-0.1653398 -0.04911384 0.54089588
-0.1957079 -0.05359149 0.47749439
-0.1929643 -0.12541731 0.49305859
-0.1582133 -0.1948041 0.56742108
-0.1433758 -0.1379448 0.58684528
-0.1500258 -0.1282506 0.57899702
-0.1778686 -0.18123171 0.52209377
-0.1511732 -0.16392469 0.57206398
-0.1691041 -0.29211539 0.54222822
-0.1323653 -0.07581374 0.61475939
-0.1831243 -0.1511876 0.5070985
-0.1840903 -0.1339654 0.50562942
-0.1416174 -0.2941474 0.58662337
-0.1067075 -0.14951789 0.64939308
-0.1145887 -0.1570528 0.64099568
-0.1109496 -0.1169232 0.64602858
-0.13997211 -0.1739198 0.60440588
-0.1362067 -0.072648637 0.59210652
-0.167761 -0.24457701 0.54641718
-0.16316161 -0.1763932 0.55297518
-0.053240482 0.0001473427 0.63765168
-0.01441687 0.0019724071 0.52394098
0.019429799 0.00043001771 0.490655
0.050179031 0.0045473869 0.48396999
-0.077042997 0.0060857241 0.57646358
-0.040339742 0.0035811961 0.61174792
0.025011631 0.01621565 0.44241291
-0.00293377 0.003549159 0.51347989
-0.062940747 0.003984869 0.51455557
-0.016511951 0.0080633759 0.4457995
0.068448417 -0.1442768 0.59271002
-0.0065164268 -0.104572 0.62992758
0.1041965 -0.12706169 0.55885619
-0.1044538 -0.0090724528 0.54799348
-0.1616779 -0.1015653 0.54947209
-0.061954468 0.01114833 0.45448899
0.01762828 0.006420583 0.54543728
-0.039359059 0.003615499 0.4528071
0.005031615 0.002597094 0.57590139
-0.05953088 0.01129898 0.57547837
-0.1189507 -0.2912555 0.63390177
0.019243 -0.103926 0.61704278
-0.1852303 -0.1131198 0.50339222
-0.01930359 -0.0025118589 0.46959439
-0.1264282 -0.1193388 0.62131262
0.1142665 -0.1029578 0.5637607
-0.1660016 -0.25364399 0.55068582
-0.2042058 -0.2432026 0.47059679
0.082258731 -0.097391009 0.58324212
-0.1711763 -0.022566799 0.52379018
-0.1698772 -0.083329894 0.53272492
0.001627862 -0.055205639 0.61837357
0.01149988 -0.2584441 0.62570691
-0.1255942 -0.196871 0.6251384
0.04399452 -0.035647541 0.60067117
0.080121249 -0.03452456 0.58357328
0.063865103 -0.26649901 0.59272778
-0.1286798 -0.14418121 0.60905182
0.027428949 -0.091774337 0.61273319
-0.02967504 -0.1802426 0.64520597
-0.1106347 -0.03720862 0.64899951
-0.18614291 -0.2507138 0.51135778
-0.1001009 0.0027470291 0.4391807
-0.14401171 -0.054072078 0.58685273
-0.093829513 0.0052238111 0.42790681
-0.1472993 -0.060377631 0.57495958
-0.17900909 0.003666729 0.50253779
-0.1581286 0.01630977 0.55635601
-0.1226905 -0.03386366 0.60515028
-0.1668373 0.0052762632 0.50831121
-0.15346541 -0.03545871 0.56809437
-0.1926298 -0.01186618 0.47893369
-0.12520599 -0.030629011 0.62587368
-0.19328891 0.01077974 0.48907799
-0.18991619 -0.1145197 0.48209369
-0.14520361 -0.075825423 0.57977402
-0.17080081 -0.0102323 0.52410412
-0.1549506 -0.15098099 0.56795979
-0.1265955 -0.094213903 0.62005919
-0.1301551 -0.23840161 0.61816782
-0.1653429 -0.20733 0.55267721
-0.1689868 -0.1365491 0.5465368
-0.12901799 -0.27140689 0.6256811
-0.1599177 -0.1054953 0.56428307
-0.1623164 -0.1524179 0.55470967
-0.1786388 -0.1764545 0.51090318
-0.1735267 -0.1519146 0.53155059
-0.15382829 -0.2223445 0.57199109
-0.1201263 0.00057038659 0.63193983
-0.064428031 -0.005274653 0.46568549
-0.009991765 0.0044454341 0.3703838
-0.1137696 -0.058481961 0.63031268
-0.16360579 -0.01306376 0.53632271
-0.27427781 -0.28404081 0.61515099
-0.1181575 -0.01310918 0.62978798
-0.069057047 0.0070169568 0.55169761
-0.1237064 -0.059397042 0.61647081
-0.1529931 -0.233391 0.58067322
-0.2185455 -0.27243379 0.37430081
0.01962522 -0.01189566 0.6122297
0.068164289 0.003985256 0.51580977
-0.1793374 -0.29805049 0.52931201
-0.1933969 -0.23120961 0.48347121
-0.15499149 0.0056609809 0.47076079
-0.16545349 0.0021646321 0.46044081
-0.1947881 -0.069110267 0.4712103
-0.01862137 0.0026096699 0.52507669
-0.092698447 4.1604038e-05 0.511271
-0.16571841 0.0083537698 0.48934841
-0.1850836 -0.1494108 0.46580511
-0.18714079 -0.086646438 0.46162781
-0.16837201 -0.007113636 0.45962441
-0.0265885 -0.081053063 0.38047379
-0.1514696 -0.0027767939 0.4484697
-0.1495387 -0.1731129 0.44250789
-0.1197148 -0.24107 0.42520079
-0.097537428 -0.1853722 0.41856161
-0.18171941 -0.21927249 0.45718679
-0.181811 -0.1031167 0.45912081
-0.18780451 -0.17713679 0.46614459
-0.1692273 -0.1414323 0.46155301
-0.1202897 0.0039716959 0.43703011
-0.035101239 -0.02116817 0.38125759
-0.1202952 -0.01932684 0.42820901
-0.14624029 -0.2185403 0.43569359
-0.1543867 -0.051501241 0.44621271
0.01170719 0.0053579509 0.4925223
-0.1075356 -0.0058556199 0.42454481
-0.085364401 -0.007511199 0.4154276
0.034365769 -0.002956986 0.54042113
-0.1857698 -0.053237591 0.4652608
-0.159007 -0.1985956 0.4470304
-0.17782819 -0.1669855 0.4591336
-0.1473453 -0.1969974 0.43790719
-0.090899102 -0.26191509 0.40734419
-0.0028276739 -0.24478319 0.37521711
-0.1859099 -0.1327211 0.46019661
-0.07917162 0.00742957 0.55527109
-0.1237422 -0.016000871 0.4343954
-0.084580593 -0.0297578 0.40946469
-0.1193181 -0.2124157 0.4209756
-0.095102638 -0.2735759 0.40876561
-0.094605736 -0.18663239 0.41202241
-0.060856968 -0.027860951 0.40004891
-0.1008991 -0.033460978 0.42196941
0.05720675 0.002906889 0.50032723
-0.1387596 -0.081061423 0.4420099
-0.1702833 -0.24557289 0.45287129
-0.02111062 -0.1119746 0.37785259
-0.064379036 -0.068597987 0.39920169
-0.072148681 -0.039644118 0.4053764
-0.1369015 -0.038326081 0.44281089
-0.1862248 -0.093115211 0.46437779
-0.1909477 -0.072183251 0.47261751
-0.160533 -0.20925491 0.44876751
-0.054244399 -0.19266181 0.39555669
-0.035735909 -0.0120995 0.38614759
-0.094072312 0.00099569559 0.45680431
-0.1369551 0.002263665 0.46097279
-0.078512132 -0.048798859 0.4107435
-0.055642959 -0.003251642 0.42602739
-0.01836871 -0.023318321 0.3716875
-0.02251941 -0.01444989 0.3791151
-0.15920641 -0.05253372 0.45357221
-0.080927312 -0.068452239 0.40264091
-0.045431409 0.0064799492 0.62954068
-0.1749202 -0.2468309 0.45134619
-0.1819994 -0.2058332 0.46069121
-0.1321118 -0.2240448 0.42712021
-0.15230151 -0.069273829 0.44855559
-0.098029263 -0.2451378 0.41336751
-0.01006287 -0.0043866341 0.37300241
-0.072138451 0.001058877 0.40284619
-0.05942088 0.0024174449 0.43057609
-0.1462484 -0.1669223 0.44031301
-0.1610987 -0.02463999 0.4543775
-0.1152683 -0.039504409 0.42638659
-0.041116118 0.003124326 0.59949231
-0.1418429 0.0050755739 0.56208837
-0.1843324 -0.1734526 0.4608635
-0.1086685 -0.02045575 0.4289048
-0.13955911 -0.0064663892 0.44384211
-0.078697257 0.00077787042 0.4678888
-0.036888242 -0.001669794 0.39629269
-0.14225709 -0.079421848 0.44107509
-0.083128557 -0.2349882 0.40022731
-0.071320273 -0.055298571 0.40330479
-0.01553597 -0.0099946856 0.36631939
-0.09166044 -0.17949709 0.4178814
-0.00188531 0.001079142 0.3763023
0.02591488 0.0042347242 0.44492209
-0.1228587 0.001709998 0.46225929
-0.1186008 -0.2422107 0.4244571
-0.062527083 -0.056341019 0.39387709
-0.1078693 -0.00031304359 0.45206049
-0.1623164 -0.1676441 0.4534834
-0.053851102 -0.087976404 0.38715661
-0.17041419 -0.073632628 0.45964971
-0.153604 -0.080583327 0.44988501
-0.1940553 -0.089587927 0.48099491
-0.1899721 -0.29859391 0.48171061
-0.2360265 -0.28238249 0.58508039
-0.01362649 -0.24152359 0.37172389
-0.050170001 -0.03631648 0.3910161
-0.073626101 0.004324615 0.42248029
-0.02581194 0.0027313831 0.61632168
-0.020248471 -0.1741194 0.3790442
-0.00134182 0.003331989 0.58732229
0.04623526 0.008718133 0.5525741
-0.066456713 -0.1971705 0.39624429
-0.1132225 -0.1012374 0.4268367
-0.078552991 -0.1460261 0.4065246
-0.066266768 -0.061881568 0.3936967
-0.15729301 -0.1015572 0.45007849
-0.006864727 -0.076012813 0.37218979
-0.1596829 0.0080719292 0.50191802
-0.050963461 0.001839161 0.41575661
0.05556554 -0.0042538941 0.51370561
-0.1053022 -0.18253329 0.41570199
-0.14570419 -0.26497969 0.43645629
-0.005700856 -0.028926371 0.37173739
-0.03698742 -0.22295371 0.3861798
-0.062584609 -0.25698441 0.3976725
-0.036901951 -0.25440809 0.3844744
-0.046421379 -0.20027851 0.43619201
-0.093071073 -0.1206728 0.4142355
-0.02795147 -0.030996621 0.37679571
-0.1412515 -0.095169477 0.44164261
-0.1325053 -0.068957269 0.43922469
0.04874808 0.001015306 0.55125368
-0.022510169 -0.0034932201 0.42058659
-0.043422941 -0.1881993 0.3896611
-0.03539985 -0.1097436 0.38652751
-0.1220761 -0.05782938 0.43305621
-0.083341964 -0.1411842 0.39902011
-0.04265463 -0.1474341 0.3909384
-0.1211593 -0.0537952 0.43375149
-0.04256171 -0.1868964 0.38788781
-0.1221789 -0.088419966 0.41798449
-0.04185978 -0.1454235 0.38731989
-0.079418033 -0.26367861 0.4047645
-0.0043205018 -0.1507463 0.37162551
-0.18457469 0.0035167041 0.49762049
-0.1652457 -0.00012549759 0.52160978
-0.1999992 -0.0099548995 0.47695211
-0.20313179 -0.099394798 0.45224619
-0.0035128591 -0.074489772 0.37132871
-0.1728292 -0.068304539 0.45564651
-0.1186484 -0.081853934 0.43763551
-0.1042755 -0.1754925 0.4170883
-0.1013198 -0.1287569 0.41503441
-0.13725109 -0.1004336 0.43695879
-0.1228202 -0.1213005 0.43162519
-0.1001462 -0.1363046 0.42229259
-0.1091388 -0.1126858 0.42293721
-0.038129989 -0.1646715 0.38484219
-0.12803011 -0.088396192 0.43541139
-0.1737795 -0.033322688 0.46406189
-0.04614025 -0.1005967 0.39144421
-0.079994619 -0.034289811 0.4111616
0.003177881 -0.027181029 0.36221579
-0.094890334 -0.067303121 0.4191044
-0.1083128 0.01266408 0.51675892
-0.098841369 -0.1097144 0.4176828
-0.1189597 0.0062721968 0.55856478
-0.101582 0.002383359 0.42509761
0.02920619 -0.048785631 0.4228591
0.037755989 -0.1371917 0.43253019
0.070601702 -0.04401977 0.50635469
-0.02851427 -0.1081375 0.3771584
0.071413986 -0.1789676 0.49813849
0.072287723 -0.2430049 0.4895491
0.01131266 -0.085997343 0.38835791
0.090686619 -0.098370872 0.53288567
0.024049129 -0.2358539 0.40094039
0.080157578 0.00042836371 0.51387322
0.0431788 -0.2038614 0.43505079
0.076835811 -0.029968441 0.51349771
0.037018381 -0.2180831 0.4331058
-0.052854091 -0.296588 0.38957399
0.092591181 -0.2454454 0.53651118
0.063530311 -0.2381957 0.47726011
0.029808071 -0.093441293 0.4228135
0.02996668 -0.1700625 0.422728
0.079914548 -0.2133112 0.50709659
0.098959357 -0.018432939 0.55116111
0.01049319 -0.18468399 0.37927851
0.097002923 -0.01215053 0.54779869
0.01343131 -0.1219095 0.3878988
-0.086695403 -0.14781719 0.4110927
-0.073976673 -0.25952351 0.39843071
0.0074568391 -0.06485305 0.37521851
-0.098808348 -0.0086096302 0.42158499
-0.1438002 -0.083053693 0.44069871
0.1012775 -0.052731149 0.55810672
0.079864137 0.001258407 0.54701912
0.09402743 -0.001499739 0.56238478
0.061500311 -0.0026073421 0.47892699
0.0089405626 -0.057789441 0.38851401
0.024917999 -0.27252761 0.40089959
0.01562078 -0.1864697 0.39322379
-0.001609415 -0.157711 0.37055331
0.030252339 0.0001906455 0.43074989
0.02890395 -0.00017112491 0.44107461
-0.03777926 -0.25201431 0.38248679
-0.09637095 0.00076565152 0.50568843
-0.062810719 -0.063083053 0.40166149
-0.094854772 -0.1937132 0.41029149
-0.091930903 -0.26103991 0.40764219
-0.080668807 -0.151737 0.41181669
-0.131221 -0.22625621 0.43073121
-0.098790109 -0.033036679 0.42146021
-0.028521029 -0.02833095 0.3785601
0.03230935 0.0099497139 0.489104
-0.037776768 -0.2241998 0.3867614
-0.1489239 -0.16879191 0.4421787
-0.1046991 -0.1673442 0.41498521
0.0123236 -0.2035493 0.38465869
-0.083914138 -0.01538414 0.409446
-0.022305351 -0.01550248 0.37527919
-0.059888229 -0.022184251 0.39315021
0.01089721 -0.2797617 0.3747991
-0.063265853 -0.069830827 0.39342099
-0.1173685 -0.1006004 0.4223398
-0.045592491 -0.1796446 0.3853102
-0.1222675 -0.2360806 0.42233291
-0.068581723 -0.19586509 0.3975549
-0.0047602062 -0.1727218 0.36853489
0.0010809 -0.28500041 0.37288609
-0.01831007 -0.072029769 0.3744497
-0.0038636921 0.0039439499 0.45927939
0.026025649 0.0028003161 0.56578189
-0.070865698 -0.035992261 0.40155911
-0.074281268 -0.044674098 0.40329781
-0.042961959 -0.18619999 0.38603821
-0.1132007 -0.19980539 0.4197579
-0.076945223 -0.1985756 0.39964229
-0.091985591 -0.061730299 0.41368291
-0.1013218 -0.1057253 0.41971251
0.037928179 -0.13700061 0.43411019
0.03983641 0.0039257109 0.57732421
-0.048250519 -0.036097169 0.39046201
-0.078948408 -0.068663813 0.40290979
-0.042260561 -0.14522859 0.3861421
-0.09284398 -0.1200222 0.41223931
-0.022649899 -0.1087616 0.3747091
-0.1197069 -0.1979534 0.42585409
-0.1180958 -0.2137448 0.4229565
-0.038439199 -0.1659646 0.38500169
-0.094072513 -0.022178439 0.41598561
-0.056592882 -0.1800586 0.3896926
-0.1324632 -0.141617 0.43720791
-0.18313649 -0.1336727 0.46151641
-0.04281554 -0.19714101 0.38347229
-0.0070957839 0.0020346339 0.3778336
0.06948816 -0.1822958 0.49624121
0.1028159 -0.27676591 0.52791119
-0.0340872 -0.023114029 0.3859005
-0.01845132 -0.01012626 0.3704682
-0.078462891 0.005865097 0.55578363
-0.0006718114 -0.2444984 0.37161371
-0.0041727419 -0.1521752 0.37153199
-0.018678891 -0.033373799 0.37224349
-0.043987919 -0.1724769 0.38562971
-0.043788251 -0.1562079 0.38521829
-0.096651927 -0.1114384 0.41709849
0.045604501 0.002828181 0.52124792
-0.0032589361 -0.03421754 0.37177739
-0.070750281 -0.00072008371 0.40343761
-0.01244232 -0.01431876 0.37217301
-0.077647857 -0.1444871 0.4023177
-0.03607237 -0.1109163 0.38464621
-0.062435549 -0.26041001 0.39835009
0.0073235631 -0.09629041 0.38324669
-0.078037918 -0.1351085 0.40515789
-0.08880458 0.003813863 0.58738953
-0.083493501 0.0031192 0.49942589
-0.1101214 0.002469003 0.53065151
-0.0080982633 0.003132463 0.46905041
-0.08837758 0.0045550759 0.42097709
-0.02413073 0.003557235 0.60635042
-0.02710473 0.0001365542 0.40961879
-0.080901012 -0.04871228 0.40878391
-0.02411687 -0.038535919 0.37901261
0.0135201 -0.1192098 0.39106569
-0.1238304 -0.15206259 0.4296138
-0.02025827 -0.170652 0.3725177
-0.099118859 -0.1171917 0.4163444
-0.094928287 -0.27318841 0.40841869
-0.078671671 -0.036515981 0.40578991
-0.073128887 -0.2444922 0.3999134
0.03617024 0.00194788 0.47554281
-0.096798241 -0.0001004636 0.45622519
-0.02614321 -0.079432189 0.37854999
-0.089089431 -0.2706385 0.4101122
-0.093407027 -0.18311121 0.4081673
0.018352151 -0.19862629 0.39585361
-0.052698009 -0.03177914 0.39269179
-0.02571716 -0.0097957253 0.39245349
-0.0043035191 0.0066780448 0.47440359
0.1002963 -0.060283359 0.55854392
-0.1014344 -0.033293489 0.42067781
-0.05964398 -0.054200619 0.39460769
-0.02783178 -0.01094937 0.37867409
-0.051615801 -0.2838884 0.3928442
-0.05108713 -0.2211372 0.38801479
0.099231131 -0.28526649 0.54059452
-0.1489156 -0.1388506 0.43886089
0.078636713 0.0036797519 0.53842378
0.033097051 0.002394587 0.56250751
0.098958023 -0.01267108 0.55281788
0.061960291 -0.28903541 0.47273499
-0.1115406 -0.049505681 0.42498359
-0.1181545 -0.2407034 0.42231971
-0.099188633 -0.12959041 0.41370979
-0.064690903 -0.034248319 0.39901069
-0.060859781 0.0011986491 0.4638584
-0.02740065 0.0048442478 0.61755812
-0.001261026 -0.0066460371 0.36675999
0.135625 -0.29648301 0.57866871
-0.0097484998 0.0042777061 0.51235431
0.088955678 -0.29803941 0.48654699
-0.065936863 -0.1944878 0.3932642
-0.065582328 -0.2496244 0.39008969
0.090044923 -0.056281481 0.53701401
0.068572707 -0.090218313 0.4936392
0.02799199 -0.019801799 0.42032379
0.079174593 -0.04892927 0.51725078
0.074377254 -0.056861941 0.51036203
0.072570063 -0.064612843 0.49560559
-0.03678453 -0.01492819 0.38922241
-0.0089773238 -0.0052609742 0.3741551
0.0091290697 -0.1873937 0.3816981
-0.081995867 -0.2367527 0.40326199
-0.072296642 -0.063034363 0.4040336
-0.020895381 -0.1098623 0.37113789
-0.054789539 -0.19299971 0.39233041
-0.1056035 -0.1076369 0.41050291
0.005972676 -0.061508302 0.37297249
-0.077362113 0.00524652 0.50420141
-0.081178203 -0.065697998 0.40755019
-0.01527692 -0.0036708119 0.43953449
-0.043733239 -0.1349763 0.38772839
-0.070889391 0.0053029661 0.57665187
-0.048374809 -0.001237184 0.46239579
0.01550338 0.0019873979 0.49475989
-0.044804309 0.002178252 0.51034719
-0.093929663 -0.06437248 0.4126679
0.084808357 -0.06241161 0.52566028
0.088688336 0.00084415078 0.56132418
0.096339323 -0.21807159 0.5406428
0.1466222 -0.29802969 0.60063797
0.11901 -0.29983631 0.54588902
-0.1222098 0.0053742528 0.55540693
-0.09011475 9.6797943e-05 0.4564043
-0.03199492 -0.0036795139 0.41184929
-0.01277222 0.001391351 0.38340709
-0.093897417 0.00078839058 0.4540123
0.005512245 0.001126409 0.51104242
-0.1147469 0.0093513429 0.5744046
-0.043064371 0.003102601 0.50758058
-0.02781119 0.0066318512 0.56229502
0.029664841 -0.032917202 0.42116511
-0.045588668 -0.1414143 0.38384941
0.048077919 -0.2668952 0.44692841
-0.01216402 -0.13167129 0.36981171
0.071400322 -0.2454575 0.49002451
-0.096842401 -0.2395421 0.405956
-0.081151389 -0.002587616 0.59263372
-0.1201395 -0.1856657 0.4251579
-0.029013 -0.020738451 0.38004461
0.0020445359 -0.2631194 0.36932161
0.13729849 -0.29256761 0.61829382
0.1300306 -0.30081001 0.56841111
-0.033902168 0.0050653219 0.58759338
0.006549425 0.00087189669 0.4519515
-0.050945651 0.0067124069 0.57337773
-0.087241411 0.0095800459 0.4977738
-0.046807311 0.002845228 0.63182491
-0.041733809 -0.0076692998 0.40910661
-0.1260654 -0.2443641 0.42139399
-0.048499081 -0.1671021 0.38832
-0.02409358 -0.005893141 0.39180559
-0.076713167 0.00058454281 0.41978681
0.064294003 0.0055143829 0.50388581
0.06568674 -0.072991967 0.4943893
0.039904431 0.0068943198 0.5528577
-0.1085039 0.0029430089 0.51668292
0.018536869 0.000215739 0.42301479
-0.1008873 0.006286025 0.64144373
-0.02622187 0.00079271197 0.62904501
-0.050354119 0.000462383 0.62290788
-0.020666361 0.00029709941 0.6236465
-0.1167943 0.002974391 0.60417742
0.0492847 0.001777321 0.5305028
-0.054077741 -0.00089597702 0.64748973
0.060305659 0.0022046571 0.54950231
0.02903229 0.0033451619 0.55760741
0.096244752 -0.2329151 0.56430179
-0.05463374 -0.0049536531 0.64431602
0.1012947 -0.054571599 0.56462753
-0.04776537 -0.00053545833 0.41712829
0.08597365 -0.2058541 0.57774258
-0.084780157 0.0065439641 0.51576388
-0.132166 0.0062227552 0.58277148
-0.055981699 0.003881067 0.63193369
-0.17379031 -0.0022549629 0.4600769
0.0061075692 -0.003374815 0.45180961
-0.003118098 0.002003819 0.52925909
-0.04550809 0.0002928972 0.57619208
0.098814927 -0.058874279 0.58127081
-0.06173712 0.00038525459 0.42280859
0.0066595082 0.0046109562 0.4996233
0.090717882 -0.0077312589 0.54927909
-0.086230218 0.002402812 0.57150328
0.076047838 0.00090110302 0.55413181
0.1063823 -0.1918502 0.56563127
-0.1145371 0.0088059902 0.58752108
-0.06350863 0.0020803809 0.62567759
-0.1160008 0.0056543951 0.61333948
-0.039220329 -6.9826841e-05 0.59051669
-0.087523282 -0.001390845 0.50194788
-0.024223329 -0.00065216422 0.56550223
0.019295281 -0.001346469 0.44961119
0.076412983 0.003998071 0.53472131
0.054362301 -0.0049501359 0.47329989
-0.01971269 -0.001539022 0.37510559
0.1017873 -0.1174607 0.56247008
-0.054309249 0.0042920709 0.61531901
-0.0048795338 0.0055384338 0.55218083
0.073994219 -0.026670661 0.50836271
0.03042567 -0.25597891 0.42087439
0.052579641 0.0076138382 0.49412921
0.104831 -0.25823539 0.56089163
0.06196174 -0.28315771 0.47310981
-0.1083238 0.0052982871 0.62699968
0.026352471 0.0051305001 0.59580141
