# .PCD v0.7 - Point Cloud Data file format
VERSION 0.7
FIELDS x y z normal_x normal_y normal_z curvature
SIZE 4 4 4 4 4 4 4
TYPE F F F F F F F
COUNT 1 1 1 1 1 1 1
WIDTH 613
HEIGHT 1
VIEWPOINT 0 0 0 1 0 0 0
POINTS 613
DATA ascii
0.2157312 0 0.3219935 -0 1 -0 0
0.30910721 0 0.32532379 -0 1 -0 0
-0.0082987063 0 0.33922821 -0 1 -0 0
0.022049781 0 0.33458078 -0 1 -0 0
0.03837157 0 0.33785611 -0 1 -0 0
0.049296651 0 0.33863649 -0 1 -0 0
0.057301361 0 0.33549988 -0 1 -0 0
0.064122938 0 0.33390716 -0 1 -0 0
0.074241228 0 0.33356544 -0 1 -0 0
0.086021058 0 0.3381182 -0 1 -0 0
0.094461925 0 0.33661258 -0 1 -0 0
0.10806945 0 0.33265156 -0 1 -0 0
0.1115897 0 0.33346111 -0 1 -0 0
0.1278922 0 0.33763444 -0 1 -0 0
0.1346456 0 0.33401617 -0 1 -0 0
0.14581855 0 0.33372742 -0 1 -0 0
0.1575187 0 0.3315528 -0 1 -0 0
0.1630262 0 0.33060741 -0 1 -0 0
0.022449549 0 0.34572551 -0 1 -0 0
0.034449782 0 0.34406129 -0 1 -0 0
0.04281747 0 0.3420307 -0 1 -0 0
0.051363446 0 0.34425652 -0 1 -0 0
0.064124495 0 0.34764755 -0 1 -0 0
0.073434576 0 0.34527957 -0 1 -0 0
0.081927747 0 0.34566271 -0 1 -0 0
0.092246152 0 0.34636375 -0 1 -0 0
0.10656955 0 0.34644371 -0 1 -0 0
0.0081904642 0 0.35300109 -0 1 -0 0
0.024815639 0 0.35186049 -0 1 -0 0
0.038191989 0 0.3581228 -0 1 -0 0
0.043715358 0 0.35580924 -0 1 -0 0
0.055813435 0 0.353892 -0 1 -0 0
0.063815385 0 0.35363546 -0 1 -0 0
0.071609832 0 0.35365531 -0 1 -0 0
0.085995197 0 0.3554351 -0 1 -0 0
0.35442951 0 0.35623559 -0 1 -0 0
0.36570299 0 0.35387981 -0 1 -0 0
0.0080226921 0 0.36727941 -0 1 -0 0
0.01828865 0 0.36087671 -0 1 -0 0
0.029280931 0 0.36487719 -0 1 -0 0
0.03546872 0 0.36476669 -0 1 -0 0
0.044453099 0 0.36176991 -0 1 -0 0
0.053725086 0 0.36129224 -0 1 -0 0
0.1633236 0 0.36872071 -0 1 -0 0
0.20898411 0 0.36740881 -0 1 -0 0
0.35216159 0 0.3622739 -0 1 -0 0
0.0035632921 0 0.3774845 -0 1 -0 0
0.04977829 0 0.37609789 -0 1 -0 0
0.052620951 0 0.37931451 -0 1 -0 0
0.1651888 0 0.37854531 0.01181911 0.99820417 0.058724925 0.031155288
0.17099786 0 0.37713611 0.0074689388 0.99797505 0.063166119 0.032857858
-0.030130999 0 0.3831352 -0 1 -0 0
0.016335489 0 0.3819313 -0 1 -0 0
0.02369085 0 0.38808659 -0 1 -0 0
0.05869012 0 0.38293311 -0 1 -0 0
0.16598044 0 0.38539946 -0.0046957857 0.99173379 0.12822667 0.061831202
0.17322481 0 0.38576502 0.016962392 0.99773008 0.065169334 0.039802492
0.2140922 0 0.38986591 -0 1 -0 0
-0.05250575 0 0.39787951 -0 1 -0 0
-0.044751789 0 0.39881501 -0 1 -0 0
0.02871462 0 0.39579651 -0 1 -0 0
0.034906194 0 0.39463532 -0 1 -0 0
0.042516559 0 0.3981646 0.039412126 0.99514031 0.090234645 0.067977659
0.16816559 0 0.394532 -0.0056930953 0.98755682 0.15715936 0.087307617
0.2185747 0 0.3950327 -0 1 -0 0
-0.054303959 0 0.4016825 -0 1 -0 0
0.13500831 0 0.40781951 0.11757046 0.97395432 0.19388196 0.10528739
0.1978035 0 0.4045417 0.55352288 0.50936693 0.65890658 0.18286851
0.20147841 0 0.4079529 0.34817815 0.34674355 0.87094247 0.15518846
-0.068446822 0 0.41453511 -0 1 -0 0
0.048385341 0 0.4156974 0.20894077 0.95893061 0.19182232 0.11299913
0.13806885 0 0.41560578 0.18736945 0.91261995 0.36334217 0.13570379
0.1686195 0 0.41551021 0.33052155 0.45827329 0.82507032 0.11462066
-0.070596047 0 0.4256604 -0 1 -0 0
-0.043809 0 0.42955521 -0 1 -0 0
0.073593266 0 0.420412 0.019892108 0.96435958 0.26384631 0.1065479
0.1028697 0 0.42023939 0.0013537481 0.92591751 0.37772349 0.11160286
-0.053037673 0 0.43208432 -0 1 -0 0
0.1194761 0 0.43209341 0.36221632 0.37618476 0.85280967 0.090576321
0.1564211 0 0.43256369 0.38160145 0.30736691 0.87172574 0.091687061
-0.051950268 0 0.4423674 -0 1 -0 0
0.03625546 0 0.44757044 0.60406327 0.79166949 0.091471054 0.098323412
0.075613111 0 0.44631091 0.28119659 0.93736088 0.20562842 0.16517675
0.054204911 0 0.4512507 0.54057813 0.83103329 0.13099253 0.11730868
0.076832131 0 0.45419949 0.37086713 0.89612716 0.24374925 0.16720232
0.081078827 0 0.45381859 0.31466863 0.89896262 0.30471301 0.18100786
-0.055979252 0 0.47657171 -0 1 -0 0
-0.04910538 0 0.4727062 -0 1 -0 0
0.034160499 0 0.47135341 0.79918373 0.52637386 0.29023424 0.11065298
-0.047688011 0 0.4976016 -0 1 -0 0
0.017239939 0 0.49295539 0.10535349 0.95317626 0.28347048 0.10214116
0.022708749 0 0.49301559 0.17122778 0.90983379 0.37799928 0.11992957
0.031759001 0 0.4900313 0.28381616 0.88412327 0.37117979 0.12742536
0.001723826 0 0.50085819 0.097804688 0.99282122 0.068850122 0.13051264
0.016735539 0 0.51272941 0.19196185 0.93199837 0.30745685 0.18883708
0.02327862 0 0.51045138 0.52592039 0.36485714 0.76830149 0.15685548
0.03701885 0 0.51164109 0.72178048 0.044697605 0.69067723 0.086634226
0.15041929 -0.22263214 0.32927608 0.0051829233 -0.99358869 0.11293646 0.02056529
0.14227681 -0.2219317 0.31540164 -0.011081536 -0.99954098 0.028194452 0.0046479078
0.16907781 -0.22311522 0.32778558 0.00043111487 -0.99109477 0.1331574 0.022737861
0.13425866 -0.22273472 0.25614935 -0.014088856 -0.99979293 0.014681788 9.755569e-05
0.12881598 -0.22170448 0.28355843 -0.015046929 -0.99982864 0.010794681 0.00010640552
0.15953235 -0.22325969 0.23166603 -0.017826555 -0.99967515 0.018217016 7.1686198e-05
0.19756787 -0.22307473 0.29343188 -0.015009807 -0.9998098 0.012449861 8.0527599e-05
0.18959793 -0.22343972 0.26143342 -0.018126426 -0.99972534 0.014854383 0.00010467108
0.21248986 -0.2234643 0.26181886 -0.017828396 -0.99970675 0.016387952 0.00018308933
0.22428071 -0.22324069 0.27835473 -0.017342709 -0.99972063 0.016060453 0.00020087701
0.08389385 -0.22212335 0.25977099 -0.015776448 -0.99980211 0.012118048 0.00027514147
0.07522016 -0.22200227 0.25862101 -0.017003099 -0.99976963 0.013099214 0.00031422565
0.06157814 -0.22232258 0.27734098 -0.020824356 -0.99971402 0.011760104 0.00038216313
0.063448906 -0.22219768 0.28282681 -0.021724625 -0.99970847 0.010542613 0.0003858672
0.063966729 -0.22130609 0.3493804 -0.034219101 -0.99833411 0.046455074 0.001178053
0.054420065 -0.22177467 0.36259913 -0.042863496 -0.99734342 0.058896348 0.0018606669
0.052593917 -0.21593252 0.37829792 -0.05478764 -0.99617356 0.068091527 0.0025993793
0.050789163 -0.22015598 0.34836045 -0.038366333 -0.99812573 0.047675643 0.0013502211
0.044566717 -0.22141236 0.26829249 -0.0090186847 -0.99955249 0.028517984 0.0012923193
0.044773679 -0.21887803 0.36175886 -0.03278831 -0.99825257 0.049159821 0.0036066012
0.043272898 -0.21885023 0.3421692 -0.043076016 -0.99813282 0.04330425 0.001359874
0.036689129 -0.22121879 0.26969457 -0.015470448 -0.99962139 0.022754362 0.0015747858
0.035936773 -0.21748735 0.36441815 -0.03458808 -0.99811471 0.050702121 0.0039537414
0.027572224 -0.22082855 0.28704643 -0.018824503 -0.99946249 0.026841013 0.0014174544
0.037573557 -0.20890553 0.39803869 -0.029477561 -0.9961037 0.083118081 0.0091061583
0.055154655 -0.22073931 0.35192087 -0.038796727 -0.99805832 0.048727311 0.0013430167
0.050121561 -0.21716772 0.37534714 -0.05567769 -0.99631858 0.065186135 0.0024785569
0.074380971 -0.22188792 0.34934825 -0.032865711 -0.99847978 0.044248257 0.0011705357
0.021408958 -0.22002883 0.27340257 -0.015479648 -0.99945694 0.029089617 0.0018290792
0.17499359 -0.22306629 0.28162393 -0.016214067 -0.99980152 0.01157521 6.2903418e-05
0.055339724 -0.22143443 0.26368237 -0.019720847 -0.99970275 0.014332922 0.00046053584
0.04854824 -0.22014256 0.35468507 -0.041309867 -0.99779516 0.051945578 0.0016058822
0.017768729 -0.22030643 0.29997703 -0.022135887 -0.99939167 0.026949598 0.0015482556
0.042756338 -0.20770396 0.39996666 -0.022391554 -0.9951939 0.095329657 0.010094853
0.0080914106 -0.21608059 0.36722472 -0.0066956473 -0.99914634 0.040764757 0.0051642973
0.031818911 -0.218465 0.34027773 -0.033727944 -0.99871606 0.037799548 0.0024745034
0.0038227171 -0.22050925 0.37745324 0.039888632 -0.99920392 0.0007209598 0.007602741
0.021372126 -0.2191878 0.30607656 -0.024046088 -0.99919057 0.032246865 0.0016017939
0.038910232 -0.21935493 0.35863626 -0.033428237 -0.99835986 0.046477728 0.0032733632
0.031981092 -0.22103883 0.28412786 -0.016360091 -0.99957073 0.024305495 0.0012849503
0.024302693 -0.22049603 0.28319886 -0.014285001 -0.99941498 0.031075126 0.0014186195
0.011771641 -0.21947806 0.27796763 -0.016978052 -0.99932486 0.032582935 0.0020988912
0.0081451088 -0.21671924 0.35299864 -0.010004675 -0.99927866 0.036633059 0.0039648176
0.024890006 -0.21899885 0.32006404 -0.044775885 -0.99843615 0.033472337 0.0012482414
0.16885567 -0.15085404 0.38460189 0.18531978 -0.41716522 0.88973576 0.0096433647
0.09102203 -0.222464 0.28015658 -0.017806116 -0.99981701 0.0069863866 0.00024065582
0.088135891 -0.22268145 0.2703248 -0.017067751 -0.99982005 0.0082722381 0.00023951319
0.098797292 -0.22168542 0.33886257 -0.020274146 -0.99962717 0.018287739 0.00034319237
0.082251579 -0.22245467 0.2785221 -0.019327313 -0.99978453 0.0075769024 0.00027329504
0.058157276 -0.22213243 0.27377188 -0.020613581 -0.99970084 0.013158785 0.00039621376
0.074436173 -0.22232506 0.26363915 -0.018016778 -0.99975199 0.013089346 0.00030352062
0.063806541 -0.22166188 0.35598916 -0.037183788 -0.99806935 0.049749047 0.0013890621
0.053424112 -0.22075041 0.32592502 -0.031043224 -0.99886721 0.036062855 0.00099364517
0.024104195 -0.21911454 0.32109195 -0.045657996 -0.99836493 0.034392335 0.0012883565
0.028984455 -0.21126813 0.39386487 -0.013322707 -0.99723619 0.07309211 0.0090240864
0.019571703 -0.21911858 0.30510628 -0.023026522 -0.99929827 0.029543463 0.0015753565
0.017290791 -0.21884081 0.30707198 -0.024128171 -0.99915946 0.033140153 0.0016761777
0.014958968 -0.22040525 0.28941435 -0.017914835 -0.99925643 0.03413973 0.0015349755
0.016747532 -0.21335037 0.38114086 -0.0041646366 -0.99893326 0.045988955 0.0060742027
0.036895294 -0.084529079 0.44602892 -0.47066474 0.88035905 0.058674332 0.057534073
0.016408026 -0.22055413 0.28466937 -0.021945938 -0.99937016 0.027885173 0.0018385389
0.052749645 -0.22207862 0.27251196 -0.021724684 -0.99965906 0.014484732 0.0004591723
-0.0086594755 -0.21802692 0.33889112 0.0014631661 -0.99949235 0.031824738 0.003419044
0.0152502 -0.1150512 0.51256979 -0.97916567 0.10031221 -0.17655593 0.040571954
0.036656208 -0.084054805 0.44928825 -0.47066474 0.88035905 0.058674332 0.057534073
0.035785928 -0.22112682 0.27686283 -0.011333842 -0.99959111 0.026251664 0.0012390914
-0.0043626931 -0.22054586 0.3126063 -0.001886152 -0.99960989 0.027865438 0.003413019
-0.022201065 -0.22297415 0.23962174 0.036117755 -0.99934196 0.0033560239 0.0072629363
-0.025751475 -0.222532 0.22682223 0.15172817 -0.98279148 -0.10535364 0.008929926
0.19773886 -0.22472019 0.32403269 -0.0094629508 -0.99746192 0.07057067 0.011530912
0.14081304 -0.2221643 0.29114211 -0.015536919 -0.99982733 0.010200531 0.00010225601
0.16825336 -0.13930222 0.39456776 0.29969227 -0.36290991 0.8823157 0.007440873
0.16625987 -0.16978581 0.38364288 0.053733293 -0.59000772 0.80560762 0.0069926046
0.1088421 -0.22232817 0.27714381 -0.014938368 -0.99982989 0.010824346 0.00010429713
0.14064169 -0.09868037 0.41624981 0.12207833 -0.37978694 0.91698349 0.0077437535
0.07920558 -0.22261639 0.26656976 -0.017894076 -0.999771 0.011737793 0.00026868313
0.082496464 -0.22192676 0.34534696 -0.028932514 -0.99880886 0.039292149 0.00095579278
0.091612063 -0.22194865 0.34334713 -0.025920371 -0.99906677 0.03455076 0.00089090079
0.078950517 -0.22172342 0.28781733 -0.020801749 -0.99974722 0.0085329581 0.0003188554
0.024437642 -0.21298297 0.38566959 -0.015497006 -0.99842083 0.053997234 0.0061143977
-0.0029739493 -0.22012676 0.31549749 -0.0036327452 -0.99964523 0.026384382 0.0034178048
-0.029644562 -0.23167896 0.38436711 0.12837489 -0.99172568 0.00032022269 0.006243207
0.017397203 -0.096405119 0.50821334 -0.88202208 0.46056709 -0.099574573 0.054508381
-0.030186949 -0.23496731 0.26280281 0.027129872 -0.99959517 0.0085845478 0.0067617148
-0.031231683 -0.22419454 0.21747945 0.25151026 -0.9450559 -0.20883462 0.0060613602
-0.070527069 -0.22925808 0.42448342 -0.14390728 -0.98919713 0.027921889 0.026392708
-0.068516791 -0.22501951 0.41572905 -0.12388448 -0.99140638 0.042025458 0.037791878
0.1282673 -0.22174677 0.28254128 -0.014781488 -0.99982828 0.011179408 9.8651457e-05
0.059936173 -0.065395176 0.44991305 0.68127203 0.099060304 0.72529674 0.10167962
0.0017952159 -0.23750332 0.50100845 -0.22510085 -0.94301826 0.2450431 0.030039441
0.072424203 -0.22124054 0.34100905 -0.030605782 -0.99878621 0.038594928 0.0009489996
0.055095151 -0.22029071 0.3328225 -0.032561101 -0.9987843 0.037009005 0.0010087799
0.10877327 -0.22097325 0.32456586 -0.016657129 -0.99977463 0.013163875 0.00022046723
0.044985954 -0.22107802 0.29685006 -0.030092396 -0.99942732 0.015480283 0.00053809281
0.11514242 -0.22211467 0.28148925 -0.014622607 -0.99984384 0.0099240486 0.00010350379
0.11951037 -0.22224414 0.26641059 -0.014682453 -0.99980116 0.013494465 9.8657387e-05
0.042064976 -0.21987982 0.32336038 -0.038948547 -0.99860603 0.03562158 0.001287818
0.075740375 -0.22207449 0.25954145 -0.017016394 -0.99977064 0.01300602 0.00030737228
0.08810816 -0.22132497 0.30220237 -0.020648299 -0.99973476 0.010204573 0.00028922706
0.11253344 -0.22176333 0.33277026 -0.016268337 -0.99977577 0.01355538 0.00021793245
0.072448008 -0.22101283 0.33412033 -0.028549595 -0.99895453 0.035705015 0.00083625369
0.039368913 -0.21852349 0.34546062 -0.044007875 -0.99795532 0.04635334 0.0014445207
0.10777751 -0.22138864 0.3305406 -0.016927416 -0.99975574 0.014206214 0.00024133934
0.12608917 -0.22148101 0.3079001 -0.014412768 -0.99986768 0.0075394982 0.00012124408
0.14476082 -0.22215226 0.30289793 -0.016372873 -0.99983132 0.0083170775 0.000117232
0.099118687 -0.22246331 0.27062896 -0.016276529 -0.99982846 0.0088408981 0.00018485586
0.12462175 -0.22122826 0.31642804 -0.013934837 -0.99987656 0.0072522801 0.00012182642
0.16049412 -0.222441 0.31009886 -0.013041139 -0.99952316 0.027986994 0.0043920958
0.10636244 -0.22164421 0.30318606 -0.014365663 -0.99986333 0.0081761759 0.00013618692
0.093258224 -0.22249746 0.2748386 -0.016685264 -0.99983251 0.0075221239 0.00021333089
0.08274553 -0.22270563 0.26579469 -0.016753001 -0.9997977 0.011134182 0.00026798187
0.049217809 -0.21941677 0.33861512 -0.037934911 -0.99845129 0.0406942 0.0011717866
0.031821962 -0.21776269 0.34332711 -0.03401928 -0.99868357 0.038390908 0.0025581613
0.069596022 -0.22246288 0.26053604 -0.01799411 -0.99975467 0.012916814 0.00035837019
0.16954282 -0.14827628 0.37878981 0.24119471 -0.38662839 0.89013684 0.0094698379
0.165332 -0.17092653 0.3682498 0.10863731 -0.65835482 0.74482679 0.017632965
0.13918333 -0.22209443 0.29318267 -0.014978703 -0.99983633 0.010148068 0.00010351749
0.12513238 -0.22203156 0.260777 -0.014769267 -0.99979442 0.013895249 9.3633527e-05
0.11812707 -0.22206636 0.26380402 -0.014395164 -0.99979752 0.01405901 9.6015327e-05
0.12201522 -0.22132164 0.29614174 -0.014000466 -0.9998576 0.0094210273 0.00010654318
0.10866313 -0.22216314 0.26410916 -0.014581962 -0.99979502 0.014042812 9.4122362e-05
0.12258974 -0.22155565 0.32445434 -0.0063203997 -0.99965024 0.025679089 0.004611379
0.10088644 -0.22239539 0.26757431 -0.016555075 -0.99979895 0.011309749 0.00016680478
0.10417004 -0.075113297 0.41754243 0.24812128 -0.11993372 0.96127611 0.045497555
0.078244008 -0.22211653 0.27914548 -0.019749891 -0.99977195 0.008127396 0.00030176347
0.090682939 -0.22142458 0.25287467 -0.015167972 -0.99979711 0.013256948 0.00027427517
0.044844232 -0.22171913 0.28654718 -0.017340068 -0.99966437 0.019246483 0.0010876675
0.022224084 -0.22024527 0.28080225 -0.019267891 -0.99950045 0.02505051 0.001668973
0.089956835 -0.22089991 0.33398235 -0.022864789 -0.99955297 0.01925981 0.00035385328
0.16366059 -0.22241615 0.30284911 -0.016585056 -0.9998098 0.01026763 8.1856968e-05
0.16905011 -0.2238449 0.25393942 -0.019165713 -0.99973726 0.012572863 8.3704639e-05
0.15319768 -0.2234153 0.24922377 -0.015266637 -0.99977374 0.014811771 6.455167e-05
0.18464622 -0.2243589 0.22629738 -0.017370159 -0.99960899 0.021913802 0.00010615548
0.19301993 -0.22416724 0.24326152 -0.01795554 -0.99967909 0.017866073 0.00010982923
0.18766023 -0.22423629 0.2375427 -0.01780469 -0.9996472 0.019706892 0.00010184095
0.17172782 -0.22423571 0.23460025 -0.018159786 -0.99966216 0.018593902 6.4170134e-05
0.17559649 -0.22416314 0.24772269 -0.018948512 -0.99970549 0.015159535 8.874065e-05
0.17739509 -0.22420759 0.25344846 -0.01874592 -0.99973238 0.013560908 9.1602989e-05
0.16825828 -0.22402607 0.23708215 -0.018431623 -0.99967498 0.017616142 6.7830864e-05
0.16309015 -0.2239667 0.23378827 -0.017817223 -0.99967384 0.018294277 6.3933359e-05
0.17071177 -0.22383989 0.24577011 -0.018329665 -0.99970853 0.015718525 7.1272261e-05
0.25990433 -0.22363424 0.29087213 -0.030614965 -0.99946654 0.011375137 0.0012168253
0.25190935 -0.22368093 0.27856338 -0.026167607 -0.99954891 0.014738341 0.00084955827
0.27267483 -0.22421575 0.31907836 -0.038002651 -0.99923307 -0.0094393073 0.0026639455
0.22771958 -0.22425489 0.24851839 -0.018437631 -0.99965405 0.018759128 0.0002331146
0.22025201 -0.22450367 0.23651564 -0.01815366 -0.9996177 0.020856133 0.00023666429
0.22619924 -0.22329563 0.26045269 -0.017621951 -0.9997074 0.016572112 0.00021083101
0.20237578 -0.22436875 0.22090912 -0.016941028 -0.99954903 0.024792802 0.00012181136
0.21554317 -0.22355896 0.25700724 -0.017684372 -0.99970579 0.016601672 0.00021028284
0.19230606 -0.22424734 0.22277339 -0.017434936 -0.99958646 0.02286445 0.00011338604
0.20369968 -0.22402442 0.24254014 -0.018086715 -0.99965221 0.019191168 0.00019619892
0.19516546 -0.22411659 0.23380271 -0.017234977 -0.99964261 0.020436389 0.00011544603
0.19606084 -0.22400998 0.2509996 -0.018008722 -0.9997133 0.015780488 0.00012730343
0.19513819 -0.224016 0.24167874 -0.017755704 -0.99967486 0.01830386 0.00011159266
0.18385831 -0.22423515 0.23168543 -0.017301135 -0.99962181 0.021373726 0.00010514111
0.17197765 -0.22434492 0.22779055 -0.01816855 -0.99964368 0.0195555 8.2672123e-05
0.17826042 -0.2241275 0.24755368 -0.018563695 -0.99971241 0.015185067 7.847797e-05
0.26147681 -0.22729538 0.23603214 -0.030111661 -0.9990114 0.032704011 0.00028339063
0.26355574 -0.22680284 0.24344164 -0.038408536 -0.99884892 0.028732991 0.0010976654
0.26534581 -0.22616513 0.25057358 -0.036289051 -0.99906003 0.023711909 0.0011250839
0.23621355 -0.22632676 0.2126275 -0.022030815 -0.99916106 0.03452282 0.00032858437
0.26774585 -0.22569834 0.26007444 -0.037705362 -0.99902713 0.022871781 0.0011743056
0.23873301 -0.22570781 0.22051631 -0.021389853 -0.99925286 0.032189291 0.00029263931
0.27253062 -0.22398746 0.2767829 -0.039021391 -0.99907064 0.018306971 0.0014019688
0.22641958 -0.22564484 0.21348305 -0.021491518 -0.99929225 0.030871389 0.00032787555
0.27717841 -0.22571822 0.29607734 -0.041741952 -0.9990446 0.012944374 0.0022461009
0.25784931 -0.22405615 0.27452502 -0.028267758 -0.99948186 0.015393898 0.00096886751
0.26836541 -0.22354956 0.29770815 -0.035298239 -0.99932927 0.009749162 0.0017185028
0.22754954 -0.22481348 0.23460425 -0.019591689 -0.99954343 0.022999888 0.00024609314
0.25083056 -0.22425781 0.26732656 -0.025724115 -0.99954188 0.015948268 0.00082573108
0.23044731 -0.22455913 0.24346745 -0.018848194 -0.99962139 0.02004228 0.00023262599
0.25380453 -0.22363962 0.29331303 -0.027974838 -0.99954402 0.011364873 0.0010109765
0.23519611 -0.22382516 0.26060435 -0.01707687 -0.99970156 0.017464897 0.00022574433
0.27644554 -0.22563501 0.29597959 -0.041089006 -0.9990741 0.012754208 0.0021758513
0.23064789 -0.22474553 0.23796445 -0.019171447 -0.99959844 0.020868013 0.00024217533
0.21265444 -0.22356279 0.2467868 -0.017642261 -0.99968207 0.018012676 0.00022019309
0.26784068 -0.2238387 0.30661866 -0.035882492 -0.99932975 0.0072537246 0.0020957545
0.21162632 -0.22445296 0.23116015 -0.017945668 -0.99956089 0.023579434 0.00022770005
0.21770251 -0.22404332 0.24205105 -0.018288491 -0.99964184 0.01953898 0.00022375457
0.24403402 -0.22360826 0.2909331 -0.025172304 -0.99959075 0.013588189 0.00081658555
0.21500383 -0.22322123 0.28933078 -0.015868504 -0.99976492 0.014772417 0.00012036861
0.20248491 -0.22440483 0.22955972 -0.016661797 -0.9996168 0.022104206 0.00011137346
0.22285412 -0.22423796 0.31016415 -0.013549401 -0.9998467 0.011089116 0.00013214565
0.18571849 -0.22414044 0.24812277 -0.018861637 -0.99970251 0.015464967 0.00010454233
0.1979634 -0.2231741 0.29383171 -0.015009807 -0.9998098 0.012449861 8.0527599e-05
0.20475926 -0.22370313 0.31319657 -0.013241716 -0.99985999 0.010225718 0.00010620269
0.18736523 -0.22328073 0.31875622 -0.011549699 -0.99832636 0.056666423 0.010008618
0.19813839 -0.22418626 0.22723699 -0.016329614 -0.9996025 0.022981768 0.00012037233
0.17034982 -0.22254319 0.30974481 -0.014194712 -0.99948925 0.028631143 0.0048372312
0.20456421 -0.22431131 0.2367028 -0.018353743 -0.99962187 0.020479459 0.00022041184
0.24019505 -0.22379372 0.30431399 -0.023099612 -0.99969292 0.0089829685 0.00079850102
0.22966674 -0.22316533 0.29178527 -0.014511216 -0.99978757 0.014638186 0.00015592918
0.20452663 -0.22367457 0.25003219 -0.016057983 -0.99974179 0.016074704 0.00013713965
0.18745974 -0.22404002 0.25481883 -0.018235346 -0.9997195 0.015110227 0.00010405551
0.17055646 -0.22383545 0.24550872 -0.018329665 -0.99970853 0.015718525 7.1272261e-05
0.16631185 -0.22369511 0.24399182 -0.018078484 -0.99970514 0.016215738 7.612128e-05
0.17101048 -0.22362182 0.26151624 -0.018407958 -0.99976176 0.011729994 7.7987323e-05
0.17854939 -0.22273692 0.30650672 -0.015859338 -0.99981612 0.010781191 8.9399575e-05
0.16674525 -0.22293624 0.27982283 -0.017179919 -0.99979198 0.010988325 6.8774454e-05
0.17373867 -0.22318019 0.27388936 -0.016453946 -0.99979979 0.011385789 7.095476e-05
0.17234194 -0.222837 0.28421071 -0.016464442 -0.99979943 0.011402082 6.7475456e-05
0.16531391 -0.22275004 0.29199785 -0.016469339 -0.99980211 0.011155733 7.3140181e-05
0.35442951 -0.2142055 0.35623559 -0.28302085 -0.80016589 0.52880406 0.010352757
0.28044978 -0.22434995 0.28259459 -0.047713377 -0.99869531 0.018196246 0.0020414549
0.27805704 -0.22607005 0.28454456 -0.044493925 -0.9988718 0.016592337 0.001922627
0.36570299 -0.213743 0.35387981 -0.042265642 -0.9226917 -0.38321492 0
0.24435197 -0.22615153 0.22242987 -0.022906296 -0.99917483 0.033539344 0.00029531727
0.25330457 -0.22440284 0.26689216 -0.026897794 -0.99949747 0.016775073 0.00085077214
0.23696771 -0.22413787 0.25353742 -0.018451514 -0.99964762 0.019082557 0.00023894596
0.22741589 -0.22474387 0.23801799 -0.019023426 -0.99960518 0.020680558 0.00023200705
0.22647223 -0.22523668 0.21710911 -0.020756917 -0.99928594 0.031571705 0.0003098071
0.23693873 -0.2257932 0.2176341 -0.021922112 -0.99920928 0.033169113 0.00028808296
0.25254488 -0.22383368 0.27441254 -0.026358338 -0.99954098 0.014932266 0.00087400584
0.25639427 -0.2236405 0.28957126 -0.02879099 -0.99950343 0.012804461 0.0010120553
0.35216159 -0.2166086 0.3622739 -0.28302085 -0.80016589 0.52880406 0.010352757
0.26681241 -0.22583652 0.25616807 -0.03713011 -0.99904716 0.022937631 0.0011703783
0.2720983 -0.22391087 0.28131679 -0.038015567 -0.99914455 0.016277462 0.0014565248
0.26871943 -0.22544992 0.2653017 -0.036271445 -0.99914134 0.02002524 0.0012095234
0.26237792 -0.22682168 0.24088934 -0.038626041 -0.99878734 0.030526765 0.0010775649
0.29957283 -0.22342251 0.30712545 -0.0061121741 -0.99762964 0.068540014 0.0050981198
0.23228133 -0.22315393 0.29124966 -0.016521635 -0.99974197 0.015590981 0.00023331831
0.25119922 -0.22364612 0.29595733 -0.027470281 -0.99955696 0.011453726 0.00097865809
0.233858 -0.22345288 0.30034336 -0.021651603 -0.9997074 0.010781229 0.00069933728
0.25169468 -0.22412871 0.31001478 -0.028255425 -0.99959671 0.0028413457 0.0012261374
0.19835632 -0.22450687 0.2241706 -0.016627112 -0.99959475 0.023104286 0.00011726479
0.23771992 -0.22379488 0.30692747 -0.022724226 -0.99971086 0.0078650378 0.00079404359
0.20100044 -0.22428334 0.231941 -0.016639026 -0.9996376 0.021159284 0.00011358278
0.20799766 -0.22339395 0.25603405 -0.018199759 -0.99969608 0.016630042 0.00018985705
0.19032399 -0.22413629 0.24415511 -0.018441608 -0.99967676 0.017497705 9.863478e-05
0.20468117 -0.22396438 0.24477322 -0.018135162 -0.99967271 0.018044366 0.00020394998
0.21437812 -0.22321211 0.29755241 -0.014918782 -0.99980181 0.013181248 0.00012507879
0.21656315 -0.22361624 0.30673108 -0.013810858 -0.99984169 0.011222091 0.00011837567
0.23391753 -0.2242952 0.31644714 -0.023371555 -0.9997263 0.0010289225 0.00086920691
0.21585783 -0.22474687 0.32217312 -0.01313861 -0.99990147 0.0049320124 0.00012689097
0.21908529 -0.22428225 0.31185269 -0.01304327 -0.99986577 0.0099110883 0.00011214554
0.18144141 -0.22428067 0.23040862 -0.017464191 -0.99963742 0.020494154 0.00010776809
0.19143772 -0.22437735 0.23004726 -0.01715838 -0.99960577 0.022224152 0.00011518054
0.18549916 -0.22419256 0.24229755 -0.018231777 -0.99967366 0.017895391 8.2987921e-05
0.21294394 -0.22338462 0.25436813 -0.017884646 -0.99970156 0.016640905 0.00020704183
0.20046832 -0.22403027 0.24721365 -0.016671557 -0.99973464 0.015896847 0.0001229115
0.22236218 -0.22375454 0.30592388 -0.013267669 -0.99984276 0.011761012 0.00012747472
0.19465654 -0.22413626 0.24159919 -0.017881539 -0.99967229 0.018316586 0.00010735576
0.22653185 -0.22325757 0.29328659 -0.014200761 -0.99979818 0.014205179 0.000152949
0.18749678 -0.22424392 0.23570023 -0.017902045 -0.99963635 0.020167243 9.245977e-05
0.18184905 -0.22424014 0.25133333 -0.017911958 -0.99973375 0.014543149 8.951097e-05
0.20189399 -0.22386062 0.31750393 -0.013120917 -0.99987012 0.0093642883 0.00010134366
0.19727542 -0.22327538 0.30237815 -0.013723047 -0.99983066 0.012259649 7.259933e-05
0.19909801 -0.22344913 0.31080854 -0.013979242 -0.99984318 0.010872446 9.1555092e-05
0.17035039 -0.224196 0.23725753 -0.017904803 -0.99967742 0.018014209 6.7169807e-05
0.17170265 -0.22414586 0.24394155 -0.018226644 -0.99970233 0.016217124 7.4945885e-05
0.17571796 -0.22395936 0.25818649 -0.018004989 -0.99975324 0.013009181 8.4388586e-05
0.16848171 -0.22373201 0.25101456 -0.018688489 -0.9997285 0.013920693 7.8014309e-05
0.19724765 -0.22488612 0.32649434 -0.0075746747 -0.99674237 0.080295645 0.012437961
0.17276868 -0.22336864 0.26472422 -0.017855458 -0.99976802 0.012048023 7.1317889e-05
0.20761241 -0.22336267 0.30410889 -0.013615722 -0.99983996 0.011605891 9.872752e-05
0.15893972 -0.22329731 0.23537554 -0.0168548 -0.99969792 0.017889095 6.9587011e-05
0.16197422 -0.2235938 0.24574515 -0.017351277 -0.99972969 0.015472442 6.4423279e-05
0.16468225 -0.22361127 0.25674954 -0.018225461 -0.9997611 0.012066611 7.7343815e-05
0.18576412 -0.2230265 0.31281614 -0.013440398 -0.99942058 0.031270023 0.004941579
0.17870978 -0.22274543 0.30602244 -0.015864234 -0.99981529 0.010853874 9.1341361e-05
0.18339823 -0.22356854 0.32261282 -0.010592242 -0.99811578 0.060437161 0.011011249
0.18095303 -0.2228799 0.31507894 -0.011099183 -0.99862045 0.051323172 0.0090444731
0.17244905 -0.22420527 0.23661026 -0.017974472 -0.99966651 0.018537072 6.3836553e-05
0.17970474 -0.22416261 0.25747129 -0.01848327 -0.99973899 0.013428192 9.1472866e-05
0.24096027 -0.2236682 0.30087769 -0.023034353 -0.99968666 0.0097960131 0.00078923523
0.15923041 -0.22315826 0.26719031 -0.016635772 -0.99980348 0.010779331 7.9758713e-05
0.16450799 -0.22398366 0.23490684 -0.01789959 -0.99967802 0.017984986 6.1443621e-05
0.19024605 -0.22326005 0.31038028 -0.013787679 -0.99984086 0.011321254 9.2253926e-05
0.16942924 -0.22261444 0.3181915 -0.012548883 -0.99846578 0.053931102 0.0098932004
0.15348965 -0.22260791 0.28318471 -0.016314086 -0.99980932 0.01072969 7.5161966e-05
0.15754369 -0.22304419 0.33159789 0.0082826624 -0.99139279 0.13065906 0.023434278
0.22147585 -0.22358295 0.28752717 -0.015091099 -0.99977666 0.014795565 0.00013302837
0.19470696 -0.22345541 0.26533604 -0.017551081 -0.9997347 0.014915928 0.00010591636
0.18656278 -0.22325492 0.28069958 -0.015403696 -0.99980259 0.012556576 7.8675599e-05
0.17765829 -0.22378658 0.26500386 -0.017226534 -0.99976951 0.012814602 7.3607473e-05
0.16065748 -0.22279961 0.27662936 -0.016794916 -0.99979967 0.010890263 7.6365635e-05
0.1635254 -0.22272885 0.32039049 -0.01051381 -0.99852079 0.053344794 0.0096970182
0.16582236 -0.22314826 0.32804388 -0.0026625469 -0.991952 0.12658632 0.022037419
0.17541303 -0.2227962 0.31965789 -0.011147616 -0.99843222 0.054853085 0.0099237822
0.14713524 -0.22284746 0.33161545 0.0059023439 -0.99306542 0.1174146 0.021409957
0.13678811 -0.22201383 0.30475882 -0.015295023 -0.99984628 0.0085671758 0.00011517449
0.12651244 -0.22161776 0.28522503 -0.014828948 -0.99982804 0.011133198 9.9979843e-05
0.12286407 -0.22220308 0.276117 -0.014683384 -0.99982357 0.011709761 9.686892e-05
0.15686998 -0.22247638 0.32259858 -0.0088765873 -0.99862731 0.05161985 0.0096998494
0.13142431 -0.22200716 0.32638213 -0.00037532806 -0.99862158 0.052486025 0.0088779218
0.11363091 -0.22226751 0.26839498 -0.014738348 -0.99980611 0.013062548 9.7759294e-05
0.12780631 -0.22194372 0.32953715 0.00086107565 -0.99866265 0.0516931 0.0086881453
0.12879241 -0.2225794 0.33749411 0.014533205 -0.99628937 0.084830604 0.014026768
0.11047689 -0.2223019 0.27134615 -0.014693678 -0.99983084 0.011066483 0.00010267641
0.12120546 -0.22151263 0.32377461 -0.014244375 -0.99987775 0.00644348 0.00013008477
0.16862488 -0.1510276 0.38827926 0.24119471 -0.38662839 0.89013684 0.0094698379
0.11050791 -0.22181676 0.33379856 -0.016985552 -0.99975365 0.014288357 0.00023804086
0.19348016 -0.22342856 0.27132884 -0.017330265 -0.99973857 0.014912623 0.00010469354
0.14624666 -0.22231381 0.29490763 -0.016348435 -0.99982148 0.0094752572 0.000100916
0.14482674 -0.22215962 0.32245103 -0.0055747083 -0.99865884 0.051471584 0.0093594315
0.11984628 -0.22130825 0.30964586 -0.014676823 -0.99986345 0.0075986222 0.00012039964
0.13713312 -0.22208922 0.3265425 -0.00051079981 -0.9986518 0.051907137 0.0091643659
0.12242913 -0.22201169 0.25707605 -0.014461746 -0.99976856 0.015925312 0.00010300783
0.13804585 -0.22273387 0.33277684 0.016585737 -0.99353343 0.11232198 0.019762293
0.15491202 -0.066963695 0.42639393 0.34591508 0.027580481 0.93786031 0.035112523
0.095853694 -0.22250567 0.27121061 -0.01551129 -0.99984479 0.0083546918 0.00019820835
0.10309335 -0.22077647 0.3254934 -0.017258694 -0.99975091 0.014143857 0.00024536502
0.10381062 -0.22317438 0.34999818 -0.02157722 -0.99967766 0.013376562 0.00035807886
0.082322888 -0.22284666 0.27181911 -0.018408902 -0.9997884 0.0091789719 0.00025883171
0.10294015 -0.22039051 0.23633423 -0.016452618 -0.99978977 0.012235015 0.00026964385
0.10203617 -0.2223379 0.26808599 -0.016272716 -0.99980187 0.011464322 0.00016700222
0.086037003 -0.22353062 0.35564485 -0.031012839 -0.99841756 0.046910223 0.0012830024
0.0842105 -0.22166009 0.28770509 -0.02027625 -0.99975884 0.0084323864 0.00027487811
0.08001975 -0.22272387 0.27293712 -0.018440286 -0.9997831 0.0096698143 0.00026884922
0.05003069 -0.22141951 0.29862896 -0.026011122 -0.99952704 0.016400624 0.00052261812
0.052208364 -0.21983445 0.34025565 -0.037039794 -0.9984194 0.042269897 0.0011617868
0.041888259 -0.22142886 0.28545144 -0.016194403 -0.99964982 0.020927684 0.0011148527
0.042031944 -0.22098114 0.30219048 -0.031196775 -0.99937153 0.016832033 0.00056861469
0.040308975 -0.22002511 0.31317398 -0.035703491 -0.99912745 0.021672538 0.00070313533
0.042974137 -0.21954976 0.35433471 -0.032558318 -0.99848741 0.044304188 0.0030671698
0.035304237 -0.22103436 0.27886191 -0.012276754 -0.99956656 0.026757104 0.0012344808
0.040073205 -0.21851756 0.35862413 -0.033428237 -0.99835986 0.046477728 0.0032733632
0.038386267 -0.21870287 0.33785468 -0.043720078 -0.99811691 0.043025788 0.0013567152
0.031976979 -0.22052918 0.26632875 -0.01330428 -0.99958986 0.025358574 0.0016973551
0.035951592 -0.21825747 0.3471458 -0.03310433 -0.99860597 0.041112375 0.0026859345
0.068293616 -0.22160596 0.2946811 -0.021826288 -0.99970436 0.010720099 0.00035680382
0.045848243 -0.22134778 0.26447177 -0.0082258433 -0.99958402 0.027643356 0.0013367746
0.05378807 -0.22129355 0.36050943 -0.042685211 -0.99752122 0.055940863 0.0017480103
0.032137625 -0.21161269 0.39391091 -0.015278517 -0.99723369 0.072742552 0.0085627474
0.014198007 -0.21845324 0.26872852 -0.014469953 -0.99941087 0.031121856 0.0022629476
0.0072637517 -0.21997643 0.29409596 -0.017160561 -0.99921799 0.035622761 0.001742918
-0.0073341699 -0.2204802 0.31675851 0.00045372566 -0.99962568 0.027355293 0.0036983243
-0.023068601 -0.22036369 0.32560545 0.042667735 -0.99838525 0.037502203 0.0039809383
0.14967275 -0.22228508 0.30205959 -0.016147334 -0.99982405 0.0095509114 9.6694115e-05
0.13883223 -0.22198988 0.28167775 -0.015303159 -0.99981922 0.011283616 0.00010225759
0.17341341 -0.22389868 0.25034916 -0.018802164 -0.99972934 0.013699988 8.8092347e-05
0.19239579 -0.22348593 0.31627673 -0.013279019 -0.99934787 0.033578511 0.0054406589
0.13920744 -0.22289105 0.25092265 -0.014252435 -0.9997651 0.016329097 8.8550842e-05
0.1391118 -0.22268537 0.26624024 -0.014631174 -0.99981064 0.012827235 8.9523593e-05
0.15241244 -0.2222698 0.313353 -0.011773581 -0.99953449 0.028146502 0.0048521571
0.13769312 -0.22305028 0.26153535 -0.014694826 -0.99981004 0.012808567 8.7252549e-05
0.15568797 -0.22284885 0.32852259 0.0046130149 -0.99315089 0.11674761 0.021871012
0.18552664 -0.22445329 0.22460715 -0.017263731 -0.99961185 0.021866104 0.00011542767
0.18902199 -0.22424422 0.23531869 -0.017627364 -0.99963522 0.020464247 9.8662567e-05
0.19160356 -0.22413632 0.24448203 -0.018246775 -0.99968654 0.01714723 0.00010989115
0.24399363 -0.22352725 0.28434071 -0.024810385 -0.99959117 0.014210945 0.00077237148
0.21121268 -0.22418582 0.23788089 -0.017869813 -0.9996298 0.020519469 0.00022170307
0.21321601 -0.22368827 0.24388923 -0.017743964 -0.99966884 0.018637599 0.0002140682
0.20206639 -0.22436775 0.21837485 -0.01672115 -0.99953717 0.025414733 0.00011936198
0.2058678 -0.22458883 0.23026417 -0.018529704 -0.99955165 0.023518635 0.00022907236
0.20423999 -0.22402902 0.24098025 -0.017966691 -0.99965018 0.019411888 0.00020784864
0.23374443 -0.2238581 0.30492392 -0.021941844 -0.99971938 0.0089270519 0.00074326392
0.18765816 -0.22461055 0.22318256 -0.017921973 -0.99960256 0.021761697 0.00012219476
0.19407657 -0.22414982 0.24337907 -0.01795554 -0.99967909 0.017866073 0.00010982923
0.19559702 -0.22406912 0.24940167 -0.018008722 -0.9997133 0.015780488 0.00012730343
0.21809836 -0.2244779 0.31422085 -0.013250871 -0.99986768 0.0094347466 0.00011332388
0.18510292 -0.22415687 0.24649513 -0.018395724 -0.99969774 0.01630903 9.4516865e-05
0.20476924 -0.22356145 0.3099685 -0.013409408 -0.99985349 0.010639684 9.7928947e-05
0.17847484 -0.22415009 0.2561253 -0.018649787 -0.99973655 0.013382678 8.5885469e-05
0.17134181 -0.22386438 0.24836788 -0.018522928 -0.999717 0.014929068 7.4243602e-05
0.18251772 -0.22316602 0.28398839 -0.015117018 -0.99981433 0.011946164 7.4280404e-05
0.16818143 -0.22372234 0.25166738 -0.018667143 -0.99973083 0.013778412 7.8943507e-05
0.18739584 -0.22322643 0.31690273 -0.011358999 -0.99842882 0.054871153 0.0096167047
0.16366814 -0.22312911 0.2710788 -0.017340584 -0.99979305 0.010634571 8.0018464e-05
0.20698617 -0.22334559 0.30196685 -0.013517679 -0.99983901 0.011800549 0.00010051009
0.19999513 -0.22310883 0.295856 -0.015235855 -0.999807 0.012404877 8.0026475e-05
0.195958 -0.22315894 0.29809073 -0.013603686 -0.99983114 0.012355669 7.1268412e-05
0.18171147 -0.22372189 0.26516402 -0.016887544 -0.99976063 0.013911195 7.9630976e-05
0.17804851 -0.22286685 0.30365586 -0.015938958 -0.99981135 0.011099677 8.4265346e-05
0.15324922 -0.22342502 0.25382346 -0.015279339 -0.99979216 0.013498428 6.6304368e-05
0.15006548 -0.22325557 0.25636563 -0.015318804 -0.99979657 0.01312152 6.6751934e-05
0.16116916 -0.22243729 0.30906323 -0.013115082 -0.99952298 0.027958544 0.0044026813
0.18252309 -0.22308001 0.30150849 -0.015294266 -0.99981338 0.011809251 7.4736665e-05
0.16504757 -0.22249722 0.30579782 -0.016342016 -0.99981374 0.010264493 8.2319573e-05
0.16305701 -0.2232646 0.33065104 4.8100839e-05 -0.99112201 0.1329551 0.023017483
0.13549665 -0.22287016 0.25840154 -0.014270754 -0.99980998 0.013278854 9.1667709e-05
0.14695545 -0.22215919 0.31008261 -0.012127409 -0.99955028 0.027427979 0.0045419778
0.13174385 -0.22248699 0.2609717 -0.01466799 -0.99980336 0.013343506 9.7214586e-05
0.14296143 -0.22189325 0.31330028 -0.011963207 -0.99955767 0.027227852 0.0045271311
0.16718312 -0.16512206 0.37882525 0.027578004 -0.59040499 0.80663586 0.0071923803
0.14455695 -0.22307424 0.33594266 0.013871585 -0.99076217 0.13489951 0.023665419
0.11947647 -0.22219558 0.26368433 -0.014690445 -0.99979311 0.014069112 9.484063e-05
0.18983191 -0.2232459 0.3081902 -0.013867081 -0.99983525 0.01171478 8.1197119e-05
0.18064871 -0.22361974 0.3238239 -0.010917873 -0.99794382 0.063158579 0.011184616
0.16740364 -0.17486812 0.37616473 0.12329844 -0.62677413 0.76938397 0.0096558211
0.1378734 -0.22210458 0.29766521 -0.015013841 -0.99984169 0.0095505714 0.0001142952
0.13603018 -0.22190762 0.28912824 -0.014824723 -0.99983674 0.010333849 0.00010593201
0.13493522 -0.22252627 0.33128387 0.00089548819 -0.9984833 0.055048894 0.0098162293
0.13031316 -0.22167507 0.31404534 -0.014291964 -0.99987102 0.0073230993 0.0001150998
0.12183855 -0.22171611 0.28637594 -0.014174367 -0.99985057 0.0098977471 0.000102629
0.11548079 -0.22220574 0.26548475 -0.014602745 -0.99979675 0.013901888 0.00010327942
0.12655129 -0.22163092 0.31766981 -0.014090562 -0.99987984 0.0064625391 0.00012243145
0.19659413 -0.07784459 0.40314248 0.34283012 -0.22639942 0.91170758 0.01591547
0.11974628 -0.22171484 0.29309002 -0.014105498 -0.99985671 0.0093612326 0.00010188248
0.12704523 -0.22245713 0.33789179 0.0051063565 -0.99842525 0.055865776 0.0099246781
0.16892289 -0.15098621 0.38307559 0.18531978 -0.41716522 0.88973576 0.0096433647
0.10591962 -0.22227071 0.27047744 -0.01472334 -0.99982786 0.01128617 0.00010745837
0.10498334 -0.22222221 0.261861 -0.015951134 -0.99978739 0.01306626 0.00018218523
0.10144815 -0.22107154 0.2511656 -0.015237985 -0.99975777 0.015879404 0.00021250725
0.098205581 -0.22246605 0.26923248 -0.015987881 -0.99982637 0.0095725199 0.00018275586
0.17727263 -0.22267586 0.30984542 -0.014451586 -0.99946499 0.029341269 0.0046980353
0.13082862 -0.22180511 0.29995778 -0.014729009 -0.9998529 0.0087890662 0.00012671594
0.092267625 -0.22117776 0.24950258 -0.014935011 -0.99980003 0.013299387 0.00025790866
0.10943991 -0.2226565 0.34317032 -0.019092539 -0.99972856 0.013356428 0.00026949201
0.10241584 -0.22131178 0.25173309 -0.015312946 -0.99975389 0.016050238 0.00020545103
0.084076993 -0.22276999 0.2686044 -0.017349346 -0.99979877 0.010073878 0.00025488899
0.1083004 -0.22172597 0.33470997 -0.017315269 -0.99973541 0.015140114 0.0002613884
0.091532834 -0.22250633 0.34764242 -0.026952911 -0.99891508 0.03797764 0.0010081186
0.11986958 -0.22142485 0.32634684 -0.0059417784 -0.99963737 0.026264196 0.0048140609
0.10153396 -0.22239593 0.26524386 -0.016156092 -0.99979466 0.012230188 0.00017074391
0.13500831 -0.112179 0.40781951 0.16278295 -0.38063756 0.91028392 0.0079616578
0.091728419 -0.22152054 0.25454551 -0.015496022 -0.99978 0.014138687 0.00025352748
0.07189776 -0.22217903 0.27964789 -0.020988822 -0.99973488 0.0094713094 0.00035699093
0.081340536 -0.22195373 0.3458803 -0.02961106 -0.99873787 0.040568125 0.00098592252
0.078817151 -0.22055972 0.32839343 -0.024266394 -0.99948388 0.021049585 0.00037864948
0.076017886 -0.22083466 0.33297452 -0.028157402 -0.99899888 0.034762196 0.00081279618
0.082570858 -0.22202836 0.25837162 -0.015713083 -0.99979687 0.012622814 0.00030065567
0.063409373 -0.22258048 0.27083784 -0.020099098 -0.99970174 0.013874431 0.0003584956
0.07161051 -0.22212957 0.35365695 -0.035565872 -0.99827355 0.046743963 0.0013350614
0.064174086 -0.22236311 0.2767984 -0.020329317 -0.99973309 0.01097181 0.00035662667
0.064523473 -0.22160718 0.29652384 -0.023364427 -0.99965316 0.012153403 0.00041738182
0.06235157 -0.22246952 0.27441266 -0.020401563 -0.99971503 0.012401067 0.00037159602
0.066585101 -0.22096713 0.33691525 -0.029869452 -0.99887866 0.036732335 0.0009048616
0.065644786 -0.22103052 0.31432405 -0.024911283 -0.99954873 0.016787542 0.0004490384
0.063362665 -0.22133128 0.30509937 -0.024288053 -0.99959248 0.014998853 0.00045392988
0.064304568 -0.22121033 0.34597194 -0.034048446 -0.99839962 0.045153968 0.0011347031
0.062738903 -0.22090562 0.32307774 -0.028653448 -0.99912554 0.030449076 0.00073635438
0.058628548 -0.22249195 0.27478743 -0.020988116 -0.99970919 0.011875942 0.00038954115
0.063738681 -0.2213268 0.35108232 -0.035698604 -0.99822444 0.047683377 0.0012221264
0.061678916 -0.22109744 0.3331649 -0.031371739 -0.99884403 0.036419384 0.00094816188
0.05395291 -0.22104771 0.25939247 -0.017641306 -0.99975944 0.013033647 0.00047411109
0.059170246 -0.22067001 0.33807141 -0.033820972 -0.99865532 0.039290324 0.0010000422
0.046158478 -0.2215142 0.26688313 -0.0085803932 -0.99956322 0.028277757 0.0013035702
0.046087466 -0.22210059 0.281766 -0.015368332 -0.99970275 0.018925827 0.0011106308
0.040997967 -0.22160023 0.27842024 -0.012990553 -0.99966592 0.022344906 0.0011858793
0.042244665 -0.21992928 0.31717494 -0.036168359 -0.99897677 0.027150378 0.00086448912
0.037287336 -0.22081454 0.26498982 -0.014724882 -0.9996751 0.020805031 0.0016470852
0.037163347 -0.22081146 0.29997075 -0.022927225 -0.99944669 0.024097877 0.0012895813
0.081100374 -0.05733807 0.4540686 0.37438801 0.017413527 0.92710865 0.080525003
0.03701885 -0.107889 0.51164109 -0.88200831 0.46059945 -0.099546142 0.05450872
0.24958163 -0.22651881 0.22515105 -0.026006069 -0.99911141 0.03316782 0.00030509449
0.19010335 -0.22450444 0.22342551 -0.017254859 -0.99959362 0.022691268 0.00012581424
0.19556254 -0.22409856 0.24406844 -0.01766501 -0.9996931 0.017363524 0.00011800902
0.21960637 -0.22461115 0.31471497 -0.013410426 -0.99986839 0.0091306893 0.00011559424
0.18852583 -0.22423296 0.23738988 -0.01780469 -0.9996472 0.019706892 0.00010184095
0.22758454 -0.22328939 0.29777288 -0.014189276 -0.99980646 0.013626887 0.00016638527
0.23652659 -0.22371495 0.30562237 -0.022294236 -0.99971604 0.0084080901 0.00077909086
0.20202906 -0.085619926 0.40859002 0.30424821 -0.36876196 0.87832087 0.00660046
0.17233582 -0.13550648 0.38733378 0.29969227 -0.36290991 0.8823157 0.007440873
0.1936755 -0.22400342 0.25278348 -0.018160621 -0.99971294 0.015627474 0.00010938811
0.21726844 -0.085409053 0.39366832 0.35197079 -0.34980926 0.86818784 0.0097840708
0.13660495 -0.097371116 0.41559348 0.16703589 -0.39328903 0.90411437 0.010619507
0.21537019 -0.081204832 0.39120075 0.35197079 -0.34980926 0.86818784 0.0097840708
0.1695855 -0.068349712 0.41659042 0.29757884 0.0244416 0.95438433 0.050271448
0.11958615 -0.066180475 0.43124422 0.27133456 -0.097574949 0.95752639 0.050887465
0.20434719 -0.22362193 0.25517938 -0.016651083 -0.999735 0.015896874 0.00013738108
0.075645059 -0.055906076 0.44668165 0.46337011 -0.01630068 0.88601488 0.098622091
0.076781787 -0.057187628 0.45361534 0.46337011 -0.01630068 0.88601488 0.098622091
0.18472768 -0.2232483 0.30032647 -0.015120376 -0.99981457 0.011931383 7.3183823e-05
0.18511993 -0.22315319 0.29933879 -0.014986179 -0.99981743 0.011853155 7.302493e-05
0.18662488 -0.22316928 0.29906002 -0.014955346 -0.99981773 0.011862152 7.4342599e-05
0.18454267 -0.2231766 0.30065098 -0.01512541 -0.99981457 0.011918582 7.5153665e-05
0.25245628 -0.22650203 0.23054042 -0.025888741 -0.99920052 0.030463045 0.00028794637
0.31067175 -0.2390635 0.30140403 -0.0051864111 -0.99739802 0.071904778 0.0057808505
0.25895151 -0.22364016 0.28780034 -0.029811163 -0.99947232 0.012897795 0.0011208786
0.28243393 -0.23128095 0.23138241 -0.067322321 -0.99661845 0.047108773 0.0019786765
0.22713783 -0.22412083 0.24856877 -0.018437631 -0.99965405 0.018759128 0.0002331146
0.21411026 -0.22424811 0.23498622 -0.017967243 -0.99962354 0.020737078 0.0002318271
0.19757307 -0.22401917 0.24148604 -0.017102221 -0.99968576 0.018326068 0.00010963291
0.25957641 -0.22397736 0.27727559 -0.029812938 -0.99944663 0.014751656 0.0010598355
0.2296878 -0.22602323 0.21084549 -0.022011777 -0.99924517 0.032006998 0.00036597287
0.22903289 -0.22504222 0.22486627 -0.020395707 -0.99935955 0.029404184 0.00027492162
0.17045993 -0.22422998 0.21341537 -0.018142497 -0.99961925 0.020792738 9.9187062e-05
0.072313532 -0.066035144 0.42723116 0.42132384 0.14348826 0.89548719 0.10596337
0.048479732 -0.075997688 0.41570994 0.32072702 0.57221055 0.7547909 0.12140179
0.03150532 -0.082178667 0.47052249 -0.58605784 0.80774432 0.063915856 0.033677932
0.031759001 -0.068581343 0.4900313 0.83611703 -0.0031261158 0.5485422 0.055876121
0.020794064 -0.21636705 0.34505418 -0.035409834 -0.99850875 0.041550092 0.0033112671
0.019072495 -0.21678501 0.33427566 -0.033844639 -0.99868274 0.038565908 0.0028515372
0.021765294 -0.21756494 0.33646294 -0.033820998 -0.99867648 0.03874765 0.0028198971
0.017050417 -0.21555422 0.36066321 -0.019812567 -0.99894935 0.041325111 0.0041876058
0.010829847 -0.21908803 0.30000651 -0.019409265 -0.9993695 0.029731564 0.0017432026
0.014243444 -0.21788146 0.31114537 -0.026592173 -0.99910331 0.032944996 0.0018937455
0.029144768 -0.2148052 0.24904992 -0.010877438 -0.99979305 0.017189171 0.0023225483
0.064104736 -0.22078083 0.33148307 -0.030245967 -0.99888211 0.036328092 0.0009266343
0.057320319 -0.22048014 0.32496729 -0.030295968 -0.99895465 0.034231026 0.0009515782
0.05624295 -0.22094248 0.31168124 -0.026801491 -0.99949968 0.016796496 0.00049343577
0.028250769 -0.21572281 0.36514717 -0.036099546 -0.99795038 0.052838068 0.0045634741
0.033711594 -0.22126476 0.29062867 -0.017776009 -0.99955469 0.023967464 0.0012746039
0.023230299 -0.21752132 0.51034969 -0.049811449 -0.60736358 0.79286081 0.010793584
-0.016184626 -0.21400295 0.21252497 0.19319293 -0.9671697 -0.16510341 0.0079315184
-0.047139343 -0.22159787 0.39656633 0.16416317 -0.98620147 0.021380214 0.0087866699
-0.051904209 -0.21401763 0.47291952 -0.20908357 -0.97771907 0.01869392 0.015811795
-0.051170532 -0.22026429 0.4762052 -0.18969157 -0.98092103 0.042557094 0.012629728
-0.054519854 -0.21887934 0.39598256 0.1456147 -0.98934036 -0.0014457216 0.010863185
-0.053629864 -0.22091331 0.40232652 0.15898907 -0.98691243 0.026949104 0.013314898
0.056860413 -0.22137091 0.35628316 -0.038511727 -0.99790013 0.052078567 0.0014939217
-0.053244356 -0.23187858 0.43098146 0.056373689 -0.99817252 0.021764167 0.021613251
-0.043848015 -0.23125218 0.43022093 0.056373689 -0.99817252 0.021764167 0.021613251
-0.051933937 -0.23263068 0.43238768 0.056373689 -0.99817252 0.021764167 0.021613251
0.022941433 -0.23489892 0.49350527 -0.20317666 -0.77705073 0.59574437 0.035081964
-0.047688011 -0.22596081 0.4976016 -0.21497522 -0.9525879 0.21531808 0.015593562
0.14725257 -0.22314571 0.26555532 -0.015658397 -0.99980897 0.01169638 9.4591152e-05
0.14170358 -0.22317776 0.25511262 -0.015311385 -0.99979287 0.013408467 9.8238976e-05
0.15895261 -0.22254717 0.31869075 -0.011340868 -0.99853736 0.052861571 0.0092196865
0.13949132 -0.22321343 0.26021388 -0.01466995 -0.9998098 0.012846565 8.5023203e-05
0.13067394 -0.22219276 0.27028307 -0.014895341 -0.99980736 0.012783945 9.4051138e-05
0.11211801 -0.22217591 0.27314088 -0.014594371 -0.99983352 0.010952324 0.00010071015
0.11069072 -0.22229461 0.26487291 -0.014605723 -0.99979913 0.013726003 9.5944859e-05
0.13076867 -0.22266491 0.33757538 0.022205967 -0.9928596 0.11720373 0.019577822
0.085865662 -0.22276694 0.26769173 -0.016568769 -0.9998101 0.010258363 0.00025069871
0.086093158 -0.22259091 0.28188139 -0.019161483 -0.99979079 0.0071696709 0.0002609705
0.093602642 -0.22250859 0.34811112 -0.027385646 -0.99892855 0.037306935 0.0010240681
0.079324424 -0.22267351 0.27543235 -0.018881656 -0.99978852 0.0081519745 0.00027302789
0.075610414 -0.22264294 0.26348388 -0.017941695 -0.99975449 0.013004961 0.00029751234
0.085959539 -0.22106694 0.33789292 -0.026313486 -0.9991194 0.032682534 0.00080559647
0.20816807 -0.22408468 0.24126311 -0.017882634 -0.99965352 0.01931542 0.00021028079
0.19058485 -0.22423315 0.22074766 -0.017722039 -0.99958712 0.022618407 0.00012077114
0.20669512 -0.2234931 0.25373513 -0.017905954 -0.99969822 0.016815748 0.00019884887
0.196375 -0.22404721 0.23962857 -0.01731362 -0.99968433 0.018205602 0.00010956926
0.21867496 -0.2234585 0.29265285 -0.015255195 -0.99977922 0.014447736 0.00012894557
