# .PCD v0.7 - Point Cloud Data file format
VERSION 0.7
FIELDS x y z
SIZE 4 4 4
TYPE F F F
COUNT 1 1 1
WIDTH 581
HEIGHT 1
VIEWPOINT 0 0 0 1 0 0 0
POINTS 581
DATA ascii
0.1505651 -0.2191112 0.32947341
0.1423445 -0.2201173 0.31543171
0.1690844 -0.2229356 0.32779369
0.13441411 -0.2190468 0.2561405
0.1288188 -0.2215412 0.28355291
0.15961359 -0.2211348 0.23173361
0.197579 -0.213863 0.29357871
0.1893478 -0.21653689 0.2611044
0.2124718 -0.2192592 0.2617099
0.2243285 -0.2150619 0.27829641
0.083897807 -0.226675 0.2593967
0.07520213 -0.223943 0.25847891
0.061561961 -0.2234298 0.27739719
0.063441657 -0.22266489 0.28285339
0.063948549 -0.2219066 0.3493396
0.054238509 -0.2234834 0.36244401
0.052620951 -0.2203086 0.37931451
0.0505483 -0.2232035 0.34827241
0.044390071 -0.2248137 0.26809129
0.044453099 -0.2214105 0.36176991
0.04281747 -0.2226887 0.3420307
0.036602221 -0.223777 0.26954001
0.03546872 -0.2214597 0.36476669
0.027480589 -0.2231431 0.28705341
0.037460741 -0.2071473 0.3973645
0.0549624 -0.2233924 0.3517296
0.04977829 -0.22167531 0.37609789
0.074349448 -0.2227138 0.34927511
0.02131106 -0.2214071 0.27337179
0.1749545 -0.2263795 0.28171211
0.055309851 -0.2218672 0.26365331
0.048396729 -0.22135399 0.35461059
0.01753607 -0.2244408 0.30014029
0.042516559 -0.2032284 0.3981646
0.0080226921 -0.2172175 0.36727941
0.030985059 -0.2261813 0.34039599
0.0035632921 -0.21926451 0.3774845
0.0209627 -0.22594351 0.3067781
0.038191989 -0.2240148 0.3581228
0.031825218 -0.2243214 0.2840943
0.02422734 -0.22150479 0.28316209
0.01149241 -0.22369491 0.2779136
0.0081904642 -0.2161687 0.35300109
0.02464141 -0.2241509 0.32035869
0.1682896 -0.15077481 0.38457009
0.091076121 -0.2250066 0.2802484
0.088187799 -0.2254843 0.27030241
0.098793194 -0.22178011 0.33885339
0.082248583 -0.2221806 0.27851239
0.058202408 -0.2213541 0.27378619
0.074417502 -0.2235103 0.2635754
0.063852519 -0.2200307 0.35609871
0.053405561 -0.222381 0.3259353
0.02391031 -0.222607 0.32129559
0.02871462 -0.2185571 0.39579651
0.019352101 -0.22304191 0.30553499
0.01726523 -0.2193979 0.3071329
0.01472323 -0.2237553 0.2894845
0.016335489 -0.2179758 0.3819313
0.037192039 -0.084724978 0.44607919
0.016039141 -0.2263748 0.28480119
0.052580308 -0.2244616 0.2723982
-0.0082987063 -0.22231831 0.33922821
0.0152502 -0.1150512 0.51256979
0.035318881 -0.083171964 0.44906169
0.03567088 -0.224108 0.2767188
-0.0049252901 -0.2172295 0.31175041
-0.022939559 -0.2219113 0.23986331
-0.02626898 -0.2217872 0.2269915
0.1977226 -0.22517359 0.32399291
0.14071541 -0.22607251 0.29121569
0.16816559 -0.139276 0.394532
0.1627073 -0.16928861 0.38344339
0.1089588 -0.22651839 0.2772561
0.1391829 -0.098918602 0.41798699
0.079211153 -0.2233734 0.26656339
0.082482472 -0.222579 0.34526461
0.091571212 -0.2228758 0.3432402
0.078975528 -0.22609399 0.28808129
0.02369085 -0.2222331 0.38808659
-0.003400635 -0.2175115 0.31493011
0.01602298 -0.097974271 0.51595759
0.01553489 -0.08124584 0.51366931
0.01554131 -0.074579664 0.51261562
0.015823839 -0.057752948 0.51206428
-0.030130999 -0.2311396 0.3831352
0.018220879 -0.094164252 0.51288909
-0.030186949 -0.23496731 0.26280281
-0.067307293 -0.22593179 0.49686581
-0.073244929 -0.2328283 0.50066137
-0.03114233 -0.224335 0.2174619
-0.070596047 -0.22679441 0.4256604
-0.068446822 -0.22751869 0.41453511
0.1282745 -0.2213621 0.28252861
0.054204911 -0.05662892 0.4512507
0.001723826 -0.2373565 0.50085819
0.072519697 -0.21813899 0.34128401
0.055416182 -0.2157077 0.33291021
0.1087438 -0.2215414 0.32451871
0.045029052 -0.217838 0.2966539
0.1151333 -0.2217664 0.28148189
0.1195451 -0.2247321 0.26638979
0.042228788 -0.21746691 0.32331899
0.075768851 -0.219009 0.25976589
0.088084564 -0.214039 0.30180821
0.112749 -0.21584579 0.3332577
0.07246659 -0.22000609 0.33416659
0.039315298 -0.2189371 0.34544009
0.1079023 -0.21907149 0.3307389
0.12618309 -0.2162948 0.30787241
0.1449248 -0.21743719 0.30289111
0.099070787 -0.22079749 0.27061459
0.1246978 -0.2191703 0.31649119
0.1605217 -0.2217101 0.31010029
0.1063213 -0.21758901 0.30310759
0.093198732 -0.2201013 0.2748147
0.082706973 -0.2182216 0.26586741
0.049296651 -0.2187234 0.33863649
0.031795401 -0.2179382 0.34332669
0.069639347 -0.21909671 0.26062301
0.1651888 -0.1476669 0.37854531
0.1633236 -0.1710365 0.36872071
0.1392816 -0.21737 0.29309481
0.1252162 -0.2168543 0.26081851
0.1180877 -0.2207536 0.2638301
0.1220414 -0.2160207 0.29605809
0.1083997 -0.2158393 0.2642388
0.1226686 -0.21750849 0.32454991
0.1008191 -0.22036339 0.2675519
0.1028697 -0.077351741 0.42023939
0.07824143 -0.2212953 0.27909431
0.090625748 -0.2180388 0.25317559
0.044958759 -0.2182776 0.28641841
0.022250479 -0.2198922 0.2808139
0.090130657 -0.2172503 0.33437181
0.1637079 -0.2205859 0.30283079
0.16902509 -0.2251655 0.25396371
0.1533114 -0.22096629 0.24914511
0.18465979 -0.22559109 0.2263086
0.1929957 -0.22266489 0.2432566
0.18766031 -0.2242479 0.23754279
0.17173751 -0.2223082 0.2345749
0.1756047 -0.2218596 0.2477068
0.17737371 -0.22107691 0.2533761
0.16826139 -0.2238106 0.23708031
0.16305099 -0.2261575 0.2338047
0.1707273 -0.2233267 0.24576961
0.2598891 -0.2249328 0.29087949
0.25195059 -0.22216 0.27853379
0.27266261 -0.2227639 0.31911781
0.2277043 -0.22478659 0.2485383
0.2202521 -0.2244691 0.23651411
0.22619919 -0.2232929 0.26045269
0.2023768 -0.2255796 0.2209224
0.2155415 -0.2234474 0.25700611
0.1923053 -0.22419479 0.2227731
0.20371 -0.22449151 0.2425496
0.19515041 -0.22339471 0.2338002
0.1960301 -0.22293331 0.2509681
0.1950196 -0.2190412 0.2416748
0.1838672 -0.22763111 0.2316802
0.17199831 -0.2217041 0.22775979
0.1782527 -0.2199242 0.2475283
0.26167831 -0.22537521 0.235939
0.26374561 -0.225015 0.2432999
0.26552239 -0.22391739 0.25034311
0.2362145 -0.22631051 0.2126264
0.26782849 -0.22373 0.25990471
0.2387353 -0.22566301 0.22051451
0.27252731 -0.2235093 0.2767649
0.22643229 -0.2247766 0.21343531
0.27745271 -0.2232843 0.29609269
0.25785309 -0.2237753 0.27451569
0.26836249 -0.2223192 0.29770389
0.2275684 -0.22407439 0.2345767
0.25083831 -0.22405469 0.26731721
0.2304492 -0.2245132 0.2434655
0.2538054 -0.223355 0.29331291
0.2351761 -0.22455551 0.26062521
0.27630669 -0.2268672 0.29597181
0.230661 -0.2243786 0.2379539
0.2126487 -0.2233272 0.246775
0.26783869 -0.2213998 0.30670869
0.2116297 -0.2251182 0.2311953
0.2177058 -0.2249019 0.24210431
0.24403889 -0.2220061 0.29094321
0.215029 -0.2212771 0.2893427
0.2025449 -0.2287064 0.22970501
0.22292469 -0.2224246 0.3103627
0.185718 -0.2240473 0.24812201
0.1979726 -0.22131769 0.29384419
0.2048322 -0.22115891 0.31329849
0.1874301 -0.22140241 0.3188014
0.1981504 -0.2247842 0.22724719
0.17037231 -0.2211123 0.30974451
0.2045363 -0.2222061 0.2366361
0.24022789 -0.2217759 0.3043983
0.22965939 -0.22343931 0.2917763
0.20454121 -0.22415841 0.2500461
0.1874675 -0.2245495 0.25483161
0.1705783 -0.2231134 0.245508
0.166269 -0.2250742 0.24399181
0.170955 -0.2257833 0.26157391
0.1785309 -0.2234267 0.30651271
0.166706 -0.224481 0.27986571
0.17375501 -0.2221549 0.27385521
0.1724004 -0.2210539 0.28417271
0.1652787 -0.2239638 0.29202601
0.35442951 -0.2142055 0.35623559
0.41934431 -0.20841859 0.35025379
0.40482509 -0.21414921 0.3428039
0.4281207 -0.2069317 0.38347551
0.28065449 -0.2201063 0.28238249
0.278229 -0.2248859 0.28451619
0.4391315 -0.2338974 0.32603791
0.41806519 -0.2094539 0.3468782
0.64725399 -0.1199061 0.54570478
0.36570299 -0.213743 0.35387981
0.73730701 -0.26708281 0.80481851
0.2445017 -0.2246469 0.2223634
0.25323951 -0.22631329 0.26699099
0.23689499 -0.2262089 0.2536338
0.22740319 -0.2252378 0.2380338
0.2264452 -0.2262879 0.21713971
0.23679189 -0.22899701 0.217776
0.2524555 -0.2276333 0.27449551
0.2563999 -0.22251929 0.28956819
0.35216159 -0.2166086 0.3622739
0.30910721 -0.20432501 0.32532379
0.26675931 -0.22717831 0.25630251
0.27207369 -0.2259565 0.28136599
0.2686756 -0.226842 0.26544461
0.26226079 -0.22795179 0.24098229
0.29938719 -0.2243907 0.3075394
0.23223171 -0.2256439 0.2911799
0.25119919 -0.22379559 0.29595509
0.2338504 -0.22377311 0.30032769
0.25173071 -0.2263606 0.30994481
0.1983646 -0.2257406 0.22420479
0.237726 -0.2227103 0.30700219
0.20101491 -0.225236 0.2319665
0.2080847 -0.225997 0.25610739
0.1903618 -0.22726689 0.2441728
0.2047452 -0.22683419 0.24482749
0.2143345 -0.2259911 0.29746029
0.2165312 -0.2248396 0.3066386
0.2339389 -0.2268661 0.31632021
0.2157312 -0.22765011 0.3219935
0.2191354 -0.2229397 0.31199461
0.1814516 -0.226933 0.2304166
0.1914757 -0.228211 0.2300874
0.18551099 -0.2268524 0.2423076
0.2130831 -0.2278533 0.254482
0.20050161 -0.2252176 0.24723829
0.222229 -0.2271765 0.3055492
0.19472501 -0.2284071 0.2416344
0.2265275 -0.2235529 0.2932781
0.1875152 -0.2270745 0.23571271
0.1818547 -0.22455209 0.2513409
0.2019137 -0.22297581 0.31754601
0.1972484 -0.2255265 0.30235261
0.199082 -0.2242371 0.31079471
0.1703105 -0.2293749 0.23730519
0.17163379 -0.2288814 0.2439115
0.17568091 -0.22751629 0.25827891
0.1684224 -0.2259945 0.25101581
0.1971941 -0.22658651 0.32634431
0.17274851 -0.2246722 0.26477659
0.2076344 -0.2215267 0.30414471
0.15886711 -0.2251444 0.235359
0.1619461 -0.2246931 0.2457481
0.1646623 -0.2243993 0.25677109
0.18569 -0.2252631 0.3127808
0.17864729 -0.2250756 0.3060427
0.18340901 -0.2233271 0.32262939
0.18090039 -0.2241849 0.31505549
0.17243899 -0.2258458 0.23662899
0.1797353 -0.22640429 0.257525
0.24090061 -0.2272436 0.30073011
0.31328261 -0.027856199 0.61033022
0.1591149 -0.2261773 0.26731041
0.1643804 -0.23112179 0.23496041
0.19026379 -0.22255599 0.31038541
0.16939449 -0.22494461 0.31814691
0.1533841 -0.22495919 0.28325251
0.1575187 -0.2239055 0.3315528
0.2214569 -0.2248524 0.28753909
0.1947321 -0.2241708 0.26535761
0.1866222 -0.22628631 0.2807838
0.1777529 -0.2283567 0.2651678
0.1605856 -0.2247525 0.276683
0.1634611 -0.22479039 0.32034051
0.1658037 -0.2236823 0.32802141
0.1753501 -0.2249613 0.31956881
0.147149 -0.22247989 0.3316412
0.1367061 -0.22494879 0.30480021
0.12650099 -0.22240619 0.28524959
0.1229159 -0.22553509 0.27620739
0.1568412 -0.22378349 0.32257921
0.13135201 -0.2243132 0.32627851
0.1137579 -0.22536831 0.2683509
0.12774 -0.22375099 0.32941341
0.1287825 -0.2228639 0.33747491
0.110542 -0.224335 0.27135211
0.1211634 -0.2236717 0.32372361
0.1669444 -0.15079241 0.38818491
0.1104304 -0.2231719 0.33366451
0.193534 -0.2254169 0.27136451
0.1462086 -0.223727 0.2949324
0.14480349 -0.22279119 0.32243389
0.1197873 -0.22453129 0.30966571
0.1370877 -0.22337399 0.3264899
0.1224167 -0.2207109 0.25708911
0.1381519 -0.219697 0.3330054
0.1564211 -0.070088223 0.43256369
0.095780693 -0.2199433 0.27118871
0.1030416 -0.2217166 0.325418
0.103745 -0.2248054 0.34981579
0.082353622 -0.2272511 0.27186739
0.1028076 -0.2164436 0.23656709
0.1020255 -0.2220256 0.26808289
0.085995197 -0.2249995 0.3554351
0.084237687 -0.2233512 0.28781739
0.080022261 -0.2231193 0.2729423
0.05007096 -0.2236115 0.29874289
0.052178591 -0.2201883 0.3402406
0.041955341 -0.2200681 0.28544411
0.0420467 -0.220268 0.30215329
0.040171891 -0.22214191 0.3133418
0.042740911 -0.22144251 0.35422069
0.035219859 -0.2231095 0.27885649
0.040008441 -0.21885949 0.35859641
0.03837157 -0.21883629 0.33785611
0.031971559 -0.22079951 0.26630551
0.035703368 -0.22011641 0.34708229
0.068279646 -0.2240127 0.29482031
0.045984238 -0.21897151 0.2645815
0.053211659 -0.22661661 0.3601405
0.03235165 -0.2031655 0.39190611
0.01422501 -0.218181 0.2687566
0.0071246531 -0.2225927 0.2941933
-0.0075881109 -0.21893629 0.3164539
-0.023089619 -0.222028 0.3254227
0.1498283 -0.21726011 0.3020511
0.1389735 -0.2177633 0.2815457
0.1734 -0.22446039 0.25035119
0.1924585 -0.22017249 0.31638539
0.1393511 -0.2197718 0.25090989
0.139337 -0.2144753 0.26593229
0.1525714 -0.2166381 0.3134304
0.1376735 -0.2235924 0.26155129
0.1558004 -0.219723 0.32870319
0.1855623 -0.22666889 0.22463571
0.1890323 -0.22550561 0.23532321
0.1916173 -0.22546341 0.24448951
0.2440325 -0.2205168 0.28439161
0.2112008 -0.2220988 0.23779631
0.2131972 -0.22239029 0.2438096
0.20206951 -0.2237508 0.21836761
0.2058574 -0.2237051 0.23021489
0.20421541 -0.2229462 0.24095979
0.2338236 -0.2214568 0.3051824
0.1876485 -0.2236778 0.2231613
0.19404911 -0.22244731 0.2433735
0.1955421 -0.2221171 0.24934509
0.2181142 -0.2240653 0.3142637
0.1850924 -0.2221662 0.246479
0.2048603 -0.22010981 0.3101992
0.1784723 -0.2237816 0.25611711
0.17135771 -0.2232978 0.248366
0.18249869 -0.2214755 0.28395671
0.16822159 -0.2221045 0.25166509
0.1874689 -0.2209602 0.316966
0.1637115 -0.2220484 0.27103981
0.2069881 -0.2231719 0.3019689
0.1999964 -0.2228705 0.29586121
0.1959679 -0.2217112 0.29810941
0.1816659 -0.2220307 0.26509839
0.1780628 -0.2220324 0.30363551
0.1532643 -0.2230645 0.2538175
0.1501051 -0.2221013 0.256347
0.16118211 -0.2220704 0.30906439
0.1825196 -0.2232186 0.30151039
0.16504321 -0.222652 0.3057977
0.1630262 -0.2242204 0.33060741
0.1354796 -0.2232502 0.25840339
0.1469574 -0.2220964 0.31008339
0.1317814 -0.2215769 0.2609674
0.14297991 -0.2214276 0.3133069
0.1706908 -0.165613 0.37902221
0.1444881 -0.2248825 0.33581361
0.1195178 -0.2243036 0.26363689
0.1898136 -0.22398829 0.308189
0.1806574 -0.2234135 0.3238399
0.1713049 -0.1746545 0.37525001
0.1378978 -0.2206478 0.29764089
0.1359787 -0.2234814 0.2891525
0.134977 -0.22143941 0.33137491
0.1303025 -0.22209349 0.31404129
0.1218438 -0.2236515 0.28642249
0.1154535 -0.221375 0.26548979
0.1265381 -0.22248679 0.3176457
0.1978035 -0.076018922 0.4045417
0.1197655 -0.2243522 0.29313701
0.1270019 -0.2239771 0.33779401
0.1717544 -0.15138251 0.38323459
0.1058418 -0.2200736 0.2704654
0.105157 -0.2267735 0.26165169
0.101535 -0.2248798 0.25071731
0.098151147 -0.2207514 0.2692205
0.1773264 -0.2205088 0.30983561
0.1308189 -0.2224859 0.29996601
0.092314601 -0.2232978 0.2493201
0.1093941 -0.2236535 0.34307161
0.1024393 -0.22258461 0.25159761
0.084089354 -0.2260204 0.26854071
0.1082366 -0.222865 0.33456421
0.091512263 -0.22298069 0.34758481
0.1198273 -0.2233628 0.3262409
0.1015935 -0.22400001 0.26521
0.13500831 -0.112179 0.40781951
0.091756783 -0.2238231 0.2543264
0.071908668 -0.2210253 0.27958709
0.081373028 -0.22050899 0.34606081
0.078811668 -0.2214856 0.32834879
0.076015867 -0.2210297 0.3329643
0.082572393 -0.2235401 0.25824001
0.063376039 -0.2239553 0.2708247
0.071609832 -0.222148 0.35365531
0.064190693 -0.2199547 0.276678
0.064515829 -0.221938 0.29654419
0.06234156 -0.22370359 0.27447161
0.066588409 -0.2207351 0.33692801
0.065674387 -0.2199875 0.31430131
0.063309699 -0.2227304 0.3052032
0.064300433 -0.22140519 0.34595549
0.062754117 -0.22258841 0.32305601
0.05857465 -0.2239939 0.27482039
0.063778259 -0.2199038 0.35117221
0.06168025 -0.22133189 0.33316121
0.05392262 -0.2214632 0.25936401
0.059186541 -0.2201855 0.33808959
0.046059482 -0.2232777 0.26678979
0.046072278 -0.2225354 0.28175879
0.04096435 -0.2222793 0.2784065
0.041937161 -0.2236868 0.3173815
0.037332531 -0.2197613 0.2650564
0.037118051 -0.2228232 0.30008331
0.081078827 -0.058709901 0.45381859
0.03701885 -0.107889 0.51164109
0.086330377 -0.02267481 0.69042927
0.13438641 0.0036119041 0.64858001
0.35321459 -0.00072604878 0.57694262
0.24988361 -0.2235107 0.2249819
0.1901118 -0.22617 0.22345079
0.1955795 -0.2246187 0.2440778
0.25588149 -0.13240699 0.36111829
0.2195795 -0.2253218 0.31463999
0.1885155 -0.2224355 0.2373769
0.33612481 -0.0265217 0.59149629
0.3353295 -0.016581841 0.5908401
0.20898411 -0.1490801 0.36740881
0.227523 -0.2251672 0.2976414
0.2365274 -0.2229373 0.3056744
0.20147841 -0.086451218 0.4079529
0.17469519 -0.1362114 0.38829541
0.19364069 -0.22280119 0.2527459
0.2185747 -0.084018476 0.3950327
0.1369548 -0.096061282 0.41322461
0.2140922 -0.082565323 0.38986591
0.1686195 -0.069673173 0.41551021
0.1194761 -0.066771433 0.43209341
0.25343579 -0.1511268 0.3586764
0.20435371 -0.22385921 0.25518751
0.075613111 -0.05794033 0.44631091
0.076832131 -0.053982489 0.45419949
0.083828263 -0.02282523 0.65091848
0.1847281 -0.22322869 0.3003262
0.1851245 -0.2229223 0.29933849
0.18663029 -0.2229162 0.29905981
0.18457571 -0.221962 0.30063391
0.25170049 -0.2345389 0.23090731
0.30996579 -0.2402088 0.30214149
0.25898531 -0.2207569 0.2877841
0.54547751 -0.2053414 0.5156998
0.68569982 -0.2296434 0.65065122
0.57504803 -0.2232206 0.56141102
0.2823998 -0.2314909 0.2314073
0.22728939 -0.21829461 0.2483145
0.2140446 -0.2176517 0.23462281
0.1974595 -0.21887951 0.24148171
0.25973019 -0.2159963 0.2770195
0.2297737 -0.2233375 0.2106684
0.22940341 -0.21641199 0.22469591
0.17057569 -0.2135268 0.21345741
0.073593266 -0.050651539 0.420412
0.048385341 -0.075902008 0.4156974
0.034160499 -0.083826654 0.47135341
0.024211129 -0.03098092 0.50012732
0.05869012 -0.15926179 0.38293311
0.02536574 -0.01724444 0.48739269
0.02693552 0.0027917279 0.485174
0.01846241 0.01295957 0.50035751
0.026155431 -0.02989546 0.4994168
0.031759001 -0.068581343 0.4900313
0.008471489 -0.01373296 0.4887411
0.1061379 -0.030925769 0.59375077
0.022449549 -0.2066503 0.34572551
0.021264991 -0.19853359 0.33301839
0.022834569 -0.2068443 0.3361432
0.01489941 -0.018765699 0.49334979
0.01828865 -0.20867521 0.36087671
0.01118191 -0.20827711 0.29817849
0.01490697 -0.2079605 0.30973539
0.029721251 -0.20893221 0.25050759
0.064100161 -0.21647041 0.33163229
0.05731089 -0.21476869 0.32508361
0.056062181 -0.21361031 0.31142929
0.029280931 -0.2105103 0.36487719
0.033771049 -0.218666 0.2905291
0.02327862 -0.2176207 0.51045138
0.01827541 -0.0078841932 0.5036248
-0.01602371 -0.01941875 0.51252109
-0.01616494 -0.2140339 0.21252111
-0.044751789 -0.214633 0.39881501
-0.04910538 -0.2138011 0.4727062
-0.055979252 -0.22063629 0.47657171
-0.05250575 -0.2130039 0.39787951
-0.054303959 -0.2224476 0.4016825
-0.082256243 -0.2172167 0.47272009
-0.086194083 -0.2188579 0.4720189
0.056664471 -0.2243751 0.3560544
-0.002593294 -0.023157431 0.4837862
-0.144409 -0.2212798 0.48999709
-0.1497853 -0.22738869 0.50187743
-0.02575665 -0.02368631 0.50840878
-0.0533862 -0.22681209 0.43340191
-0.043809 -0.23264571 0.42955521
-0.05711199 -0.2254625 0.52720559
-0.05268915 -0.2381817 0.4307667
-0.056867819 -0.2438743 0.52493763
0.022708749 -0.2344204 0.49301559
-0.047688011 -0.22596081 0.4976016
0.022911949 -0.01862821 0.52363932
-0.02140967 0.026429201 0.52433717
0.1471602 -0.22625241 0.2656557
0.14166521 -0.22412419 0.25512531
0.1588836 -0.2247082 0.31864759
0.1394279 -0.22501761 0.26025411
0.1306486 -0.2233234 0.27032691
0.1120773 -0.2210611 0.27312639
0.1106162 -0.2205666 0.2649036
0.13080791 -0.2211961 0.33766821
0.085880473 -0.22426151 0.26766419
0.086158492 -0.2290725 0.2820875
0.093654998 -0.22096109 0.34826621
0.079329453 -0.22977491 0.2755408
0.075549513 -0.2299448 0.2631748
0.086021058 -0.2193072 0.3381182
0.2082063 -0.2266172 0.24133851
0.1905764 -0.2237677 0.2207461
0.2066882 -0.223263 0.25372881
0.1963287 -0.2219521 0.2396268
0.3333689 -0.01162909 0.58428723
0.2186756 -0.22341681 0.29265279
0.19598681 -0.2260679 0.26964501
0.19663469 -0.22386581 0.28734231
0.17623881 -0.2245394 0.2453196
0.17889319 -0.2246121 0.27519199
0.05893464 -0.223197 0.29854831
0.024815639 -0.2247244 0.35186049
-0.0051749651 -0.38253579 0.29804781
0.017239939 -0.23943511 0.49295539
0.0084866993 -0.22062241 0.30219001
-0.076841123 -0.22419851 0.52252102
-0.050116971 -0.2371328 0.4435989
-0.084368147 -0.2212583 0.48533061
-0.088556267 -0.2268851 0.49295521
-0.041825991 -0.0080787372 0.61797452
-0.04418603 -0.01802109 0.61250079
-0.1524311 -0.2494368 0.55209798
