# .PCD v0.7 - Point Cloud Data file format
VERSION 0.7
FIELDS x y z normal_x normal_y normal_z curvature
SIZE 4 4 4 4 4 4 4
TYPE F F F F F F F
COUNT 1 1 1 1 1 1 1
WIDTH 578
HEIGHT 1
VIEWPOINT 0 0 0 1 0 0 0
POINTS 578
DATA ascii
0.015296425 -0.1624102 0.76222211 -0.26423916 -0.010339344 0.96440172 0.05624935
0.19035332 -0.14416993 0.70373952 0.89718288 0.034086548 0.4403418 0.058971312
0.099023819 -0.079604417 0.73529005 0.2438352 0.48873207 0.83766663 0.079373471
0.092217483 -0.14620291 0.74275529 0.29068589 0.027097138 0.95643473 0.00038119976
0.14109343 -0.08302556 0.72333419 0.35735697 0.41958165 0.8344143 0.051783592
0.15776306 -0.085531816 0.71938133 0.49238059 0.40983817 0.76785028 0.072065629
0.16695444 -0.32946002 0.58854944 0.80954045 -0.51866764 -0.27500564 0.078016609
0.016406646 -0.27206492 0.76467717 -0.26133764 0.052712992 0.96380705 0.050024699
0.011359752 -0.20723486 0.76444769 -0.31455526 -0.061685774 0.94723272 0.054468267
0.19457412 -0.13021183 0.69923955 0.88641477 0.046360485 0.46056443 0.04796258
0.13292925 -0.31620669 0.49876285 0.52131468 -0.23018697 -0.82173288 0.091368474
0.18507762 -0.12226237 0.63622171 0.96282268 0.083413854 -0.25693306 0.013708292
0.18279196 -0.071312591 0.63581115 0.84427416 0.48450425 -0.22903425 0.069439098
0.14373888 -0.30341554 0.72840196 0.4019599 -0.21379425 0.89034843 0.057788327
0.042810693 -0.050314549 0.67765921 -0.04846739 0.99726933 0.055721212 0.0045796288
-0.0053503755 -0.052706033 0.64567918 -0.33521497 0.9404366 0.056656245 0.054244619
0.19081372 -0.05808365 0.68970126 0.73059845 0.6347115 0.25172868 0.10517033
0.19209841 -0.330562 0.70715719 0.75554544 -0.37164006 0.53947628 0.1118731
0.16537382 -0.32595518 0.72135371 0.53910702 -0.44768351 0.71340245 0.10118018
0.087860279 -0.063838355 0.73652458 0.15390486 0.74730146 0.64641613 0.072340399
0.077946171 -0.065317087 0.74072582 0.1947825 0.727211 0.65819752 0.07427226
0.1954387 -0.18743113 0.668369 0.99844474 0.0076727183 -0.055220656 0.026863148
0.0037726271 -0.079171151 0.76116967 -0.34079039 0.38655683 0.85699224 0.082354903
0.19458726 -0.26481646 0.69861811 0.87853694 0.019731054 0.47726682 0.051022336
-0.046890654 -0.060806155 0.62440354 -0.55237174 0.80963624 0.19843026 0.064075202
0.10166728 -0.048657447 0.69068098 0.073654719 0.96753585 0.2417631 0.036649976
-0.0011859606 -0.083758004 0.76381904 -0.38804778 0.34317735 0.85536438 0.080288045
0.17596644 -0.27861184 0.71357191 0.7038334 -0.040071435 0.70923394 0.047612231
0.14471158 -0.26245409 0.51655167 0.7618165 -0.050465766 -0.64582407 0.049461775
0.19175583 -0.24546741 0.64700085 0.99032289 0.00068436778 -0.13878073 0.015141005
0.095720194 -0.054002259 0.72631574 0.12416418 0.82172316 0.55619621 0.074220054
0.15102637 -0.081472062 0.72215992 0.43948883 0.43823746 0.78409022 0.064499728
0.14439806 -0.063391998 0.71686023 0.33680663 0.66986644 0.661695 0.067798875
0.052557468 -0.30959615 0.75766289 0.17524603 -0.23143172 0.9569369 0.053615022
0.11473644 -0.10711344 0.73303235 0.29342216 0.2349977 0.92664963 0.028628521
0.1142915 -0.26640001 0.7380693 0.31808537 -0.0031639785 0.94805682 0.0010942342
0.18950078 -0.25100806 0.70739102 0.82468325 -0.0099011445 0.56550813 0.04967843
0.017599884 -0.051065814 0.59371561 -0.095465906 0.99178237 -0.085170403 0.011558559
0.037450422 -0.049980797 0.70326877 -0.044596825 0.98279625 0.17922783 0.024032557
0.14377177 -0.21539682 0.72772771 0.4044928 0.017874336 0.91436648 0.0079970267
0.059052724 -0.095262058 0.74994618 0.20110013 0.33530891 0.92039484 0.042368263
0.17767392 -0.33142805 0.71560282 0.62446696 -0.47390288 0.62085187 0.10740274
0.17049842 -0.15609609 0.71635419 0.58637613 0.014104555 0.80991614 0.044249259
0.17819569 -0.21296807 0.60683429 0.95012987 0.023712276 -0.31095183 0.00035335688
0.020580694 -0.24143954 0.76262194 -0.25423425 -0.020149754 0.96693271 0.062955655
0.18732856 -0.23229489 0.63559389 0.98215723 0.0080999769 -0.1878871 0.0097104888
0.16631244 -0.2852253 0.57719404 0.93716621 -0.12389823 -0.32614222 0.017825782
0.011623706 -0.13533074 0.76640046 -0.4509775 0.015900813 0.89239371 0.081785537
0.137695 -0.13475731 0.72686607 0.39589778 0.02685672 0.91790175 0.0080045685
0.053998072 -0.1785381 0.75392556 0.18857607 0.030215912 0.98159361 0.011087102
0.12589988 -0.29206845 0.73421639 0.27789822 -0.17141278 0.94519329 0.035868082
0.084473632 -0.11023898 0.74346864 0.28907564 0.18536811 0.93918788 0.0186332
0.19349541 -0.065791696 0.68206638 0.81437117 0.55280757 0.17664441 0.1008084
0.18468298 -0.065443926 0.7018826 0.72208214 0.57210153 0.38896951 0.1092644
0.0095490431 -0.26803261 0.76264381 -0.38295132 0.089547329 0.91941804 0.044196952
0.056928787 -0.2272245 0.75456476 0.16368888 0.0043078111 0.98650265 0.014858305
0.071659341 -0.28522351 0.75203782 0.25794503 -0.093125828 0.96166104 0.011526829
0.13400333 -0.050391246 0.70198721 0.2077872 0.90519798 0.37073049 0.048914447
0.018993318 -0.13985607 0.76708013 -0.25505793 0.04464696 0.96589452 0.07442122
0.088397332 -0.17698531 0.74424404 0.28216597 0.021195585 0.95913142 0.00019392531
0.16252005 -0.27347985 0.72071451 0.60303628 -0.030310404 0.79713762 0.041171953
0.16806729 -0.075177453 0.71491367 0.51633275 0.45873639 0.72316068 0.084220439
0.090138122 -0.055111665 0.5262773 0.11033332 0.85598773 -0.50508577 0.076803863
0.1015019 -0.0603831 0.50869942 0.17501774 0.66489416 -0.7261436 0.080432415
0.1104376 -0.052657738 0.53163487 0.20375104 0.84397686 -0.49617395 0.066083305
0.11516432 -0.051440541 0.55610973 0.18536851 0.95436925 -0.2341321 0.042717647
0.15957955 -0.2248991 0.55215371 0.92482805 0.004788911 -0.38035527 0.0043937387
0.13218918 -0.21460877 0.49500439 0.42996123 0.017103836 -0.90268534 0.057997797
0.060507406 -0.065408468 0.74420315 0.1260471 0.72216892 0.68013549 0.065943003
0.078022577 -0.14387283 0.74813449 0.27701989 0.030912528 0.96036679 0.00067023991
0.13359956 -0.23471594 0.73156971 0.3731859 0.018098168 0.92758 0.0034959728
0.0047511966 -0.28712884 0.76213086 -0.40388399 -0.022008849 0.91454542 0.053098872
0.19546798 -0.22124463 0.69043803 0.95508248 -0.022195721 0.29550779 0.064256966
0.19532529 -0.2507914 0.69497538 0.92227751 0.0047831303 0.38649878 0.066322297
0.1021018 -0.23806787 0.74138057 0.30132991 0.021479839 0.95327795 0.00028480426
0.15186292 -0.17056751 0.72420621 0.45877892 0.012560447 0.88846165 0.021369297
0.19519682 -0.30399561 0.66967016 0.97532749 -0.21874326 0.029792637 0.075052083
0.096018136 -0.26666683 0.74325347 0.29403278 -0.0065250751 0.95577306 0.0012113655
0.1526726 -0.24558008 0.72475153 0.47288421 -0.014173688 0.88101059 0.022206943
-0.00062798825 -0.27737299 0.7591179 -0.48168731 0.02967855 0.87584043 0.046137445
-0.071113482 -0.14782894 0.56967026 -0.84882319 0.027520286 -0.52796006 0.073740609
-0.0089112585 -0.12374437 0.75765562 -0.67254454 0.024548439 0.73964936 0.064542845
-0.012208204 -0.22724217 0.74778849 -0.59801954 0.032494932 0.80082244 0.055141874
-0.072870903 -0.27435574 0.5591591 -0.83023459 0.013907439 -0.55724066 0.07365787
-0.014646209 -0.14186038 0.74331528 -0.79964131 -0.11352234 0.58964938 0.036903597
-0.011379139 -0.1600735 0.74502665 -0.73739094 -0.082402512 0.67042106 0.050941218
-0.067898661 -0.066591449 0.57748216 -0.73392892 0.66986758 -0.11236428 0.12279699
-0.030733006 -0.22108513 0.7106998 -0.89222431 0.037330877 0.45004696 0.011475392
-0.047668103 -0.22218871 0.66026717 -0.94986236 0.029580886 0.31126612 0.00018019059
-0.020071954 -0.22105037 0.73686886 -0.71226948 0.014150879 0.70176345 0.046541501
-0.017599745 -0.30371505 0.74250633 -0.74594069 -0.15105364 0.64865655 0.061508182
-0.068513885 -0.21831569 0.5930658 -0.99792629 0.062997937 -0.013206313 0.060461015
-0.063625894 -0.065569803 0.58575702 -0.69425511 0.71858925 -0.040488981 0.1063396
-0.053480752 -0.20212747 0.6374799 -0.9595418 0.026674688 0.28029957 0.0015269669
-0.049807556 -0.22428805 0.6527217 -0.95010018 0.028805617 0.31061184 0.00018569607
-0.030999102 -0.1188863 0.70294857 -0.92757052 0.11189267 0.35650095 0.014198685
-0.011540538 -0.13726665 0.74915159 -0.78953528 -0.12259517 0.60133553 0.042074867
-0.050228223 -0.17977752 0.64273638 -0.95091927 0.023856061 0.30851799 0.00026955741
-0.032543443 -0.24925388 0.70721197 -0.87963635 0.01614194 0.47537276 0.013593577
-0.044742823 -0.059370119 0.62689567 -0.54142725 0.81712079 0.19791451 0.065710992
-0.026845846 -0.058486216 0.71405882 -0.75974196 0.57074958 0.31150779 0.07829456
-0.03645283 -0.057035543 0.65285224 -0.61197978 0.77036345 0.17894398 0.078108184
-0.016875815 -0.25285608 0.74588734 -0.68374711 0.075190127 0.72583491 0.053447358
-0.041781344 -0.057585608 0.56139374 -0.37439299 0.8726452 -0.31356046 0.091684677
-0.034037556 -0.075811349 0.67870235 -0.82345808 0.51796997 0.2315681 0.080496974
-0.010575886 -0.10363346 0.75196344 -0.70519745 0.19922855 0.68044442 0.065525986
-0.042163614 -0.264718 0.67913049 -0.94520837 -0.0085087661 0.32635668 0.00089885376
-0.051777333 -0.31970501 0.64396405 -0.85204309 -0.40983835 0.32566103 0.085026585
-0.024817185 -0.2188113 0.72653574 -0.78842825 0.015523008 0.61493087 0.034037415
-0.051031984 -0.10137708 0.63983184 -0.89052761 0.29615697 0.34532824 0.037827581
-0.01957595 -0.1417477 0.73454267 -0.82685745 -0.07541582 0.55733222 0.030373611
-0.029153615 -0.070741847 0.68738306 -0.79035771 0.56559962 0.23543954 0.085595869
-0.042860713 -0.085736632 0.65924615 -0.84849691 0.45461738 0.2708801 0.069285788
-0.035924025 -0.06311202 0.66030741 -0.68574566 0.69503891 0.21604136 0.083769001
-0.040209059 -0.14675897 0.67550296 -0.94610125 0.026237605 0.32280663 0.00078368129
-0.025115862 -0.10269655 0.72147483 -0.89051384 0.18701144 0.41474304 0.033577189
-0.035962708 -0.10732422 0.68538475 -0.93158603 0.20273098 0.30174094 0.028413896
-0.028553709 -0.25811741 0.72032905 -0.8495605 0.028764866 0.5267064 0.021594755
-0.022222042 -0.23824914 0.73510534 -0.75465733 0.084437549 0.6506632 0.038795013
-0.057159808 -0.22453377 0.63013488 -0.96630174 0.033525027 0.25521973 0.0023681882
-0.019198086 -0.059826303 0.7308774 -0.78475153 0.45270967 0.42334273 0.071230121
-0.018247101 -0.27295917 0.74076372 -0.76264244 0.026438931 0.64627969 0.036214124
-0.04542312 -0.10004466 0.65471971 -0.89422274 0.31393448 0.31907797 0.04973606
-0.024665462 -0.12453887 0.72307789 -0.88892281 0.024317797 0.45741111 0.01586535
-0.046437833 -0.1742512 0.65184855 -0.94900221 0.024965832 0.31427923 0.00018985607
-0.06992285 -0.087576531 0.5781281 -0.94183797 0.30157369 -0.14830592 0.10807676
-0.045241296 -0.16628987 0.6577481 -0.94893527 0.024275886 0.31453541 0.00018844609
-0.071147822 -0.13139364 0.581231 -0.97832102 0.0037561643 -0.20705983 0.074508175
-0.043963332 -0.18262032 0.6632883 -0.94943714 0.025463024 0.31292295 0.00019600276
-0.012996618 -0.22640647 0.74854177 -0.59801954 0.032494932 0.80082244 0.055141874
-0.038121529 -0.17123052 0.68263197 -0.9439311 0.023795629 0.32928392 0.0006763892
-0.018631734 -0.12440206 0.73583484 -0.86395347 0.027753219 0.50280613 0.017842641
-0.048648041 -0.2344321 0.66039896 -0.95032889 0.026200239 0.31014284 0.00019776441
-0.063965015 -0.063181177 0.5635038 -0.62455499 0.71471179 -0.31483027 0.12324522
-0.067338839 -0.081338845 0.58141762 -0.87518704 0.47083929 -0.11116657 0.11643299
-0.027589606 -0.12301458 0.71394694 -0.90408289 0.046520062 0.42481756 0.01336221
-0.071812719 -0.077826619 0.56866968 -0.88370109 0.40539369 -0.23394111 0.12819037
-0.070951492 -0.16748868 0.58440834 -0.98395783 0.10569636 -0.14371926 0.073358707
-0.067574203 -0.070227653 0.57470369 -0.77531761 0.60655624 -0.17598891 0.12739617
-0.044346165 -0.08232341 0.65371758 -0.82591999 0.48368233 0.28966811 0.068995602
-0.041633788 -0.063919254 0.64351177 -0.63352543 0.74895829 0.19418302 0.076037854
-0.026535325 -0.25366187 0.72566563 -0.81769729 0.056824178 0.57283694 0.029661693
-0.064388119 -0.17712171 0.60671753 -0.99418056 0.030022157 0.10345862 0.031022498
-0.016444737 -0.068589598 0.73433214 -0.75811106 0.4284898 0.49159348 0.079784892
-0.027065933 -0.0591617 0.71240461 -0.75935525 0.57211035 0.30995059 0.078038141
-0.071946062 -0.15863822 0.57649362 -0.9330315 0.035296895 -0.35805914 0.085272089
-0.072473794 -0.13496315 0.57726133 -0.97232908 0.0042895307 -0.2335761 0.074277647
0.0096336761 -0.052035432 0.7349382 -0.25055549 0.82964444 0.49891078 0.083335854
-0.026258895 -0.15262085 0.71861112 -0.88081986 0.0019789292 0.4734475 0.013813023
-0.042656962 -0.29332054 0.67903095 -0.93239421 -0.15679999 0.32566074 0.027132975
-0.067830548 -0.19888772 0.59702498 -0.99664301 0.059960831 0.05574286 0.042033773
-0.02696564 -0.21860887 0.72028315 -0.82623458 0.032132596 0.5624091 0.025744587
-0.025169397 -0.094333902 0.72115004 -0.87126344 0.24630019 0.42454231 0.042446285
-0.032725118 -0.14409614 0.70023376 -0.91900319 0.022992805 0.39357919 0.0052751484
-0.043565035 -0.066883996 0.64365381 -0.66750634 0.70845538 0.22918603 0.07275822
-0.0375406 -0.11326111 0.68184149 -0.93566483 0.17235593 0.3079364 0.023760242
-0.053917732 -0.092973761 0.63064343 -0.85604572 0.39229998 0.33658051 0.046131719
-0.033695072 -0.27040863 0.70390534 -0.90508097 -0.01701504 0.4248988 0.0078120413
-0.064918622 -0.19501477 0.6049068 -0.99551755 0.031516209 0.089171149 0.034795903
-0.02162401 -0.30136392 0.73641717 -0.77882528 -0.15802644 0.60700804 0.057652224
-0.027049039 -0.14897743 0.71744335 -0.88353413 -0.005994054 0.46832839 0.014123096
-0.068355188 -0.22607911 0.57340997 -0.93535972 0.052359924 -0.34980071 0.080759592
0.076110616 -0.049163193 0.59251511 -0.006605098 0.99942237 -0.033335697 0.0029622139
-0.023332389 -0.30157194 0.73263001 -0.81302708 -0.15262422 0.56186545 0.054384589
-0.043785378 -0.24092731 0.67715633 -0.9444778 0.025967227 0.32754743 0.00067901262
-0.038765825 -0.2767832 0.68847698 -0.93728936 -0.06978032 0.34149578 0.0093680015
-0.041852448 -0.059027243 0.55365795 -0.35618049 0.77899754 -0.51604092 0.09195473
0.031555634 -0.051698886 0.66518438 -0.092373945 0.99558908 0.016415475 0.0054998775
-0.068662331 -0.27902594 0.59454614 -0.99966925 -0.025651999 0.0017960375 0.04995428
-0.07100118 -0.23373024 0.56816238 -0.86868167 0.07627289 -0.4894636 0.073743872
-0.055281304 -0.11365666 0.62929237 -0.93994188 0.15925999 0.30190322 0.014419747
-0.01541099 -0.054265954 0.7036323 -0.59040803 0.76522833 0.25660068 0.087726332
-0.068499647 -0.067890026 0.5666635 -0.68927503 0.66941833 -0.27709031 0.12756111
-0.069321699 -0.074554659 0.57918227 -0.83390415 0.53927553 -0.1174133 0.12267429
-0.033154704 -0.13013323 0.69810152 -0.93178916 0.038760107 0.36092463 0.005055144
-0.037733529 -0.14069626 0.68277633 -0.94490618 0.026447859 0.326271 0.0010653929
-0.031455558 -0.22039461 0.70864391 -0.9007265 0.041600119 0.43239009 0.0092235422
-0.043063682 -0.24804403 0.67921221 -0.94259143 0.021230793 0.33327264 0.00080780225
-0.027626518 -0.25217503 0.72271711 -0.83121479 0.04660799 0.55399418 0.025684534
-0.033820301 -0.15019967 0.69744766 -0.92658454 0.022027193 0.37544078 0.0040182844
-0.058228146 -0.12791519 0.6227867 -0.962556 0.066890053 0.26270074 0.0083176773
-0.063340545 -0.067313969 0.59504235 -0.73533517 0.67591918 0.049147204 0.096119411
-0.032815602 -0.22798432 0.70506787 -0.90348554 0.049456041 0.42575589 0.0088746874
-0.059830271 -0.11480783 0.61637086 -0.95174468 0.15015154 0.26765016 0.020066492
-0.059714481 -0.10690047 0.61564171 -0.95203131 0.18236256 0.24572405 0.024851454
-0.027613726 -0.053024355 0.62380779 -0.41339701 0.89877063 0.14599393 0.057712041
-0.060058106 -0.060825814 0.59332258 -0.6407941 0.76736188 0.023208592 0.096336521
-0.027440302 -0.13077246 0.71568352 -0.8956387 -0.012712517 0.44460058 0.01192912
-0.032015931 -0.1306036 0.70175529 -0.92781937 0.033649933 0.37150902 0.005694692
-0.066917039 -0.23912157 0.59990185 -0.9983933 0.0019744148 0.056629758 0.032820534
-0.060913552 -0.24845597 0.620619 -0.9842419 0.013816237 0.17628691 0.011423486
-0.053970773 -0.096995488 0.63165069 -0.87657845 0.34549034 0.33503243 0.04464836
-0.032222021 -0.24984555 0.70812035 -0.87662607 0.012434878 0.4810116 0.014451932
-0.026165217 -0.10324848 0.71519309 -0.89778519 0.19185498 0.39645109 0.031537551
-0.038071793 -0.14716861 0.68237239 -0.9453671 0.027487395 0.32484677 0.00082874857
-0.015351871 -0.26935419 0.74521893 -0.7158494 0.068632938 0.69487357 0.044158958
-0.016549662 -0.055865936 0.7303983 -0.64868945 0.6404739 0.41109022 0.093790494
-0.041033261 -0.085180588 0.66238725 -0.85120106 0.45810771 0.25611341 0.072628416
-0.0073325988 -0.053341594 0.67107862 -0.4431217 0.89332694 0.074900791 0.069942728
-0.028618261 -0.063112646 0.71560264 -0.81816864 0.46441746 0.33899343 0.066131838
-0.04781441 -0.082958534 0.64429951 -0.80310202 0.4959842 0.33019212 0.065150864
-0.030382631 -0.06402266 0.70285356 -0.78707612 0.54670793 0.28569508 0.073450521
-0.032900967 -0.061444476 0.66586715 -0.68095237 0.70523554 0.19734922 0.085092187
-0.03233986 -0.13135135 0.70095903 -0.92825687 0.032377377 0.37052789 0.0053982683
-0.014880842 -0.22254565 0.74365085 -0.63609838 0.031565003 0.77096206 0.051230364
-0.039583292 -0.10207868 0.67349672 -0.92643851 0.25084648 0.28069159 0.040768318
-0.025236029 -0.13712649 0.7213974 -0.88603437 -0.034624226 0.46232486 0.012679959
-0.0073002027 -0.070128292 0.756203 -0.48703378 0.42844874 0.76107138 0.087686636
-0.042627402 -0.23873201 0.67989302 -0.9433862 0.026240643 0.33065671 0.00078714505
-0.048196089 -0.12019484 0.6496951 -0.94130278 0.15178537 0.30151331 0.015137247
-0.029160772 -0.059292175 0.70301336 -0.73570693 0.61874676 0.27547717 0.078312494
-0.045210611 -0.065094516 0.63636494 -0.61701632 0.7546578 0.22311968 0.068158597
-0.039370216 -0.092011444 0.67330545 -0.90019548 0.3344135 0.27895486 0.054281227
-0.013029662 -0.18407688 0.74500906 -0.6690321 -0.046075244 0.741804 0.046841614
-0.023940995 -0.26851732 0.73201311 -0.79756171 0.023723492 0.60277069 0.024458952
-0.047626216 -0.11386903 0.64993334 -0.93276298 0.18512535 0.30932477 0.020689065
-0.021876918 -0.062487338 0.72219604 -0.76950282 0.50791365 0.38715529 0.081528768
-0.033507515 -0.065535307 0.67552435 -0.71864855 0.6625641 0.21107605 0.089243375
-0.014369567 -0.072964072 0.73922127 -0.72550392 0.40369436 0.55738229 0.082222387
-0.052894935 -0.077479735 0.62396961 -0.72568423 0.64110237 0.24974018 0.061187226
-0.059273262 -0.29586852 0.62745667 -0.95032275 -0.1555599 0.26960671 0.027144952
-0.029121086 -0.113869 0.70782256 -0.91602081 0.15268783 0.37093422 0.022281049
-0.031305708 -0.23752269 0.7111395 -0.87000293 0.046484277 0.49085039 0.01392187
-0.036125038 -0.22275074 0.69671047 -0.92865324 0.033501703 0.36943296 0.0029054007
-0.072153158 -0.27932647 0.55818754 -0.85790265 -0.013340415 -0.51363903 0.085016489
-0.058464058 -0.32139489 0.62273872 -0.87514102 -0.40278023 0.26813465 0.059440747
-0.044904463 -0.15566325 0.65892798 -0.94938523 0.025559571 0.31307247 0.00023593515
-0.041001916 -0.16890472 0.67482615 -0.94715142 0.024457075 0.3198531 0.0003892082
-0.056282293 -0.07661438 0.61369854 -0.72301161 0.67583835 0.14316688 0.070911139
-0.027773246 -0.10242689 0.71003598 -0.90502155 0.20696151 0.37162203 0.029893175
-0.038472824 -0.22423522 0.69152123 -0.93698019 0.031029135 0.34800214 0.0010876763
-0.052557249 -0.1988713 0.63911611 -0.9562099 0.024308808 0.29167047 0.0010916204
-0.039261252 -0.20413171 0.68582892 -0.94109029 0.026532415 0.33711281 0.00092815491
-0.061588962 -0.30282453 0.61785007 -0.96897066 -0.12874016 0.21100199 0.034815643
-0.045536537 -0.16194168 0.65649343 -0.94911182 0.025636584 0.31389418 0.00018994229
-0.064266756 -0.24221832 0.60773861 -0.99495614 -0.0066231461 0.1000921 0.028112311
-0.050772112 -0.074756868 0.62921143 -0.68439674 0.68504983 0.24961518 0.063360117
0.10918142 -0.048117265 0.66939634 0.05808286 0.99326396 0.100265 0.013694033
-0.0078794472 -0.10296519 0.75906366 -0.6366781 0.19101056 0.74709833 0.066661507
-0.04891336 -0.08305721 0.64056575 -0.78882951 0.50894076 0.34456828 0.063425228
-0.061294504 -0.30419618 0.61863071 -0.96126145 -0.15334746 0.22904365 0.032999564
-0.029458975 -0.069713883 0.69685018 -0.79362559 0.54310739 0.27421305 0.075292066
-0.057188272 -0.33091047 0.61550176 -0.71753913 -0.67574471 0.16883931 0.075882822
-0.048997343 -0.067723192 0.63011491 -0.61624658 0.75041807 0.23898295 0.062646776
-0.070401415 -0.28941137 0.58035934 -0.98506701 -0.07284677 -0.15600112 0.082172632
-0.035274699 -0.1348774 0.69112849 -0.94198924 0.033939131 0.33392268 0.0018066367
-0.066620909 -0.071844622 0.58665317 -0.83243209 0.55169147 -0.051897909 0.10808507
-0.050961174 -0.29874632 0.65300006 -0.921996 -0.19162264 0.33645836 0.039217327
-0.025647579 -0.057588913 0.72675806 -0.79057521 0.46947864 0.39316726 0.070273414
-0.070881367 -0.16002604 0.5911032 -0.99529535 0.02610953 -0.093303017 0.071030721
0.17833941 -0.052301094 0.67493695 0.57703358 0.80335969 0.14712355 0.095675245
-0.035819191 -0.07698977 0.67267907 -0.82598138 0.51348823 0.23256075 0.080025643
-0.03698222 -0.18854092 0.68959194 -0.94126087 0.024492601 0.33679101 0.00088496628
-0.050875872 -0.23768523 0.65293837 -0.95142561 0.022571564 0.30705029 0.00020522847
-0.071416654 -0.087495059 0.57263494 -0.93624097 0.28026575 -0.21190564 0.11107507
-0.061423488 -0.064266376 0.60249597 -0.70978916 0.69771224 0.096938029 0.084518261
-0.067136399 -0.20868234 0.59855223 -0.99440271 0.083627515 0.064573623 0.041331384
-0.0510328 -0.304086 0.65153813 -0.90886807 -0.25563884 0.32955673 0.061262075
-0.072947845 -0.19885156 0.56002134 -0.80716437 0.094161414 -0.58276856 0.069061451
-0.044533636 -0.25654981 0.6744169 -0.94739693 0.011798433 0.31984356 0.00045586782
-0.066856481 -0.22202846 0.60109335 -0.9964295 0.03406667 0.077251039 0.035832066
0.04241034 -0.050940517 0.54720211 -0.13955186 0.92909044 -0.34251466 0.054751456
-0.057009749 -0.12137646 0.62534446 -0.95811701 0.10326864 0.26710948 0.011542747
-0.07301759 -0.28348514 0.57223707 -0.94504195 -0.040453713 -0.32443678 0.088161394
-0.066681527 -0.29469278 0.60157013 -0.9930805 -0.085865609 0.080113642 0.050981261
-0.036314677 -0.23945986 0.69671917 -0.92941183 0.033992346 0.36747536 0.0028482031
-0.07520058 -0.28620368 0.56347835 -0.89757758 -0.044860993 -0.43856815 0.090935551
-0.047044422 -0.22333422 0.66244376 -0.94957548 0.029064251 0.31218854 0.00018066054
-0.01085252 -0.068113714 0.75232142 -0.57567269 0.43429881 0.69280994 0.085978426
-0.056016229 -0.29053855 0.63845819 -0.94251645 -0.14729775 0.29994345 0.025229007
-0.066452496 -0.18114631 0.60385263 -0.99524611 0.022781236 0.094690621 0.031224696
-0.050730169 -0.089062735 0.63750768 -0.81997663 0.45004719 0.3536891 0.053158548
-0.073764019 -0.34554267 0.56188923 -0.75317675 -0.5530659 -0.35615012 0.14820758
-0.050752658 -0.10462316 0.64077747 -0.90919286 0.24858886 0.33402374 0.026778193
-0.072315782 -0.21730681 0.56688881 -0.88433093 0.074146032 -0.46093518 0.080305777
-0.06956891 -0.21196352 0.55844885 -0.76838475 0.081046373 -0.63483572 0.066465296
-0.039632827 -0.16157699 0.54329777 -0.51371747 0.01475977 -0.85783243 0.032333862
-0.070541888 -0.20844734 0.55803907 -0.77375609 0.082437061 -0.62809688 0.067583241
0.048770785 -0.094605885 0.51485902 -0.28022954 0.30373386 -0.9106136 0.040999539
0.09239921 -0.26382241 0.49820036 0.015821747 0.029888764 -0.99942797 0.035920989
0.097638205 -0.24443226 0.49760276 0.040175356 -0.0044056 -0.99918288 0.042753603
-0.061689693 -0.2349789 0.54956573 -0.68704665 0.066894934 -0.72352743 0.060998861
-0.012594686 -0.28037047 0.52902383 -0.34644851 -0.057813499 -0.93628579 0.012280556
0.022682566 -0.33201987 0.52155662 -0.27084121 -0.46830174 -0.84103423 0.08128535
-0.051206499 -0.14006872 0.54838592 -0.59554261 0.012952119 -0.80321938 0.04346361
-0.014585094 -0.24837777 0.531138 -0.36661431 0.048109807 -0.92912829 0.0035369759
-0.065912694 -0.095883019 0.54903126 -0.7046802 0.16175611 -0.6908406 0.080162555
-0.056509756 -0.27415878 0.54439205 -0.58359438 0.029782718 -0.811499 0.050073475
-0.070642926 -0.32518438 0.55346465 -0.77398753 -0.37741733 -0.50842834 0.1410135
-0.073323414 -0.2807945 0.56017935 -0.86926407 -0.022214087 -0.49384865 0.084748581
-0.066325217 -0.33236617 0.55044836 -0.68319249 -0.43974552 -0.58298528 0.14045219
-0.069266103 -0.31954163 0.55126274 -0.74632007 -0.31490824 -0.58637798 0.13250634
-0.061124913 -0.2747739 0.54672468 -0.6526078 0.032478131 -0.75699949 0.056924604
-0.034981769 -0.29405999 0.53572571 -0.4114621 -0.1160657 -0.90400642 0.039394397
-0.033400729 -0.32534128 0.537323 -0.37490591 -0.3398734 -0.86251467 0.076076902
-0.053821728 -0.301653 0.54197168 -0.54404336 -0.18661828 -0.81804055 0.077197246
-0.0475327 -0.29038399 0.53961217 -0.47057626 -0.10143494 -0.87650961 0.045909505
0.11874149 -0.068959683 0.49929252 0.29743791 0.49369806 -0.81718606 0.087071545
-0.04705973 -0.17563418 0.54623455 -0.58094174 0.058195457 -0.81186199 0.038352903
-0.050004583 -0.11346747 0.54638326 -0.60757625 0.11449008 -0.78596634 0.057683073
0.0027238564 -0.31906652 0.52382612 -0.27774858 -0.29154217 -0.91534632 0.057023719
-0.063130163 -0.32996118 0.54837656 -0.64723486 -0.42514181 -0.63272542 0.13256364
-0.0094078062 -0.27681562 0.52817297 -0.34424883 -0.051671214 -0.93745553 0.011479816
-0.015428965 -0.22375284 0.53271443 -0.37334538 0.052656658 -0.92619681 0.0041390695
-0.022974448 -0.31355119 0.53148663 -0.33599222 -0.2658025 -0.90358078 0.056688551
-0.069142081 -0.083260715 0.55663824 -0.81909329 0.326805 -0.47147083 0.12359256
-0.07184317 -0.29498971 0.55428338 -0.81886113 -0.10518921 -0.56427109 0.097770467
-0.018518375 -0.15720595 0.53643501 -0.40902013 0.022400159 -0.9122504 0.0086629372
0.0086265365 -0.073909871 0.53203022 -0.30437982 0.4382894 -0.84572768 0.068543017
0.038241744 -0.12516665 0.51832765 -0.31583339 0.090312108 -0.94450682 0.0056051156
-0.011635307 -0.33128232 0.52986872 -0.27283457 -0.42092311 -0.86509252 0.066194758
-0.069120891 -0.26831433 0.5522154 -0.69743371 0.048782278 -0.71498698 0.057913501
-0.068165898 -0.23663364 0.55309808 -0.72217602 0.069766104 -0.68818206 0.072563358
-0.045599546 -0.24046928 0.54269338 -0.56432593 0.093387477 -0.82025295 0.050849415
-0.065528773 -0.19775049 0.56006283 -0.76616573 0.10098416 -0.63465911 0.069024846
0.012227515 -0.3179974 0.5213623 -0.29866108 -0.30214551 -0.90526772 0.060867965
0.031055577 -0.28398874 0.51439315 -0.29353228 -0.077916764 -0.95276845 0.015631197
-0.021733526 -0.10573933 0.53645825 -0.39016467 0.20796908 -0.8969506 0.03881966
-0.0064623575 -0.078517236 0.53563875 -0.32145754 0.37092245 -0.87125289 0.055304624
-0.021612193 -0.073637724 0.53995973 -0.37418833 0.43246096 -0.82034165 0.062180184
-0.01631446 -0.15073195 0.53592443 -0.40862313 0.01098583 -0.91263705 0.0092199612
-0.072530515 -0.31058601 0.56667632 -0.90295172 -0.20323221 -0.37864885 0.11434792
-0.0017902988 -0.16699 0.53055179 -0.34711522 0.024002971 -0.93751526 0.0014926301
-0.049153056 -0.30142045 0.54002136 -0.51143825 -0.18363018 -0.83947057 0.070708945
-0.067210294 -0.091280632 0.5521 -0.73939705 0.18542928 -0.64723104 0.09475223
-0.044270627 -0.18444242 0.66297364 -0.94942445 0.025428139 0.31296414 0.00019492421
0.017561143 -0.10417834 0.52589691 -0.33609602 0.25164816 -0.90758622 0.041020874
-0.047099955 -0.24701656 0.54322618 -0.58746928 0.077052735 -0.80556977 0.050641164
-0.017950708 -0.31281677 0.52975309 -0.31441414 -0.24769077 -0.91640228 0.054447908
-0.052199956 -0.2634241 0.54273432 -0.57638222 0.075555354 -0.81367981 0.044044401
-0.061307292 -0.30234438 0.54528642 -0.63468581 -0.18520178 -0.75024939 0.093938597
-0.036017668 -0.32597721 0.53756779 -0.39847952 -0.34985259 -0.84783089 0.081524849
-0.055272706 -0.24540283 0.54550517 -0.61532372 0.086728312 -0.78348887 0.055277996
-0.057801709 -0.25259155 0.54633951 -0.61825526 0.071020387 -0.78276217 0.053231589
-0.018940212 -0.14224781 0.53709608 -0.41102019 0.011977427 -0.91154754 0.010104704
-0.065804265 -0.25698814 0.54976946 -0.66724545 0.07953877 -0.74057895 0.051844813
0.010200455 -0.069511518 0.53158021 -0.29242727 0.53372717 -0.79348707 0.06829273
-0.030235078 -0.083537914 0.54093629 -0.39810601 0.33368355 -0.85449803 0.067474715
-0.070683032 -0.25240541 0.5535472 -0.71927232 0.075748652 -0.69058639 0.065338664
-0.068997115 -0.23208354 0.55402821 -0.73234296 0.067477919 -0.67758423 0.065080464
0.062509745 -0.18013209 0.50862885 -0.253876 0.01408487 -0.96713418 0.0044494248
0.075039856 -0.33004746 0.50089639 -0.12556121 -0.44173661 -0.88831484 0.066730753
-0.04381717 -0.064215362 0.64049214 -0.63192701 0.7496205 0.19681819 0.069625326
-0.071034193 -0.16177607 0.58876246 -0.99398643 0.042901848 -0.10074865 0.073050193
-0.070490494 -0.13089122 0.56226939 -0.86470872 0.015212304 -0.50204325 0.069841623
-0.071154013 -0.1508788 0.56515497 -0.82341433 0.037921224 -0.566172 0.073278919
-0.039484616 -0.14742465 0.67819834 -0.94618058 0.027307712 0.32248518 0.000754915
-0.0023025682 -0.059149593 0.5405373 -0.21575606 0.77888513 -0.5888865 0.062235586
-0.011811091 -0.22950745 0.74788016 -0.59381878 0.036252808 0.80378169 0.055874147
0.025262123 -0.051634952 0.62530577 -0.076359108 0.99703038 0.0099831736 0.0022673262
-0.07228478 -0.12759341 0.57705879 -0.97503388 0.017864345 -0.22133653 0.074240342
0.0019538235 -0.05131625 0.57632977 -0.13472478 0.96985483 -0.20305339 0.03970575
-0.051865853 -0.10562865 0.63786471 -0.9094196 0.23908058 0.34028882 0.026212519
-0.037461352 -0.11625914 0.68256426 -0.93725562 0.15401413 0.31278026 0.019121366
-0.070971929 -0.32169369 0.55211365 -0.76426303 -0.31113049 -0.56488925 0.13515884
-0.076313451 -0.22762288 0.56198055 -0.83721459 0.069595613 -0.54242808 0.06378381
-0.05890226 -0.23151031 0.62825423 -0.97320962 0.033753868 0.2274286 0.0044981651
-0.074084871 -0.18518595 0.56145555 -0.71504378 0.075949498 -0.6949417 0.056273893
0.11326745 -0.047895599 0.67840278 0.073178165 0.98612958 0.14897449 0.019759592
0.0032730007 -0.054597858 0.55759525 -0.13548131 0.93352842 -0.33191791 0.048576955
0.025716314 -0.050312631 0.57430309 -0.1110375 0.96799785 -0.22505753 0.040701006
0.041651648 -0.051214866 0.65047896 -0.055715457 0.99841881 0.0074488334 0.0007630919
-0.029324787 -0.057936806 0.68086457 -0.64806837 0.74067032 0.17724256 0.08789897
0.048275188 -0.049781796 0.68569022 -0.013362373 0.99480683 0.10089992 0.01261122
-0.057438627 -0.075173534 0.6113807 -0.73287374 0.66839737 0.1270474 0.071956448
-0.047968302 -0.21854709 0.65781099 -0.94981825 0.030121813 0.31134889 0.00017918962
-0.069035187 -0.30433503 0.58860987 -0.98497868 -0.15985708 -0.065289535 0.084856234
-0.046522103 -0.070375837 0.63906825 -0.66819662 0.70231164 0.24550293 0.066047765
-0.069298469 -0.19741546 0.59465992 -0.9973914 0.044434298 0.05688576 0.04248812
-0.069703817 -0.276189 0.58922827 -0.99951875 -0.018695705 -0.024753924 0.048466291
-0.033587374 -0.21460465 0.70275646 -0.91684747 0.03918913 0.39730969 0.0052778544
-0.0438428 -0.26651841 0.67550033 -0.94673353 -0.020308308 0.32137698 0.0011262336
-0.069809586 -0.21442807 0.58996201 -0.9962073 0.080474913 -0.033087008 0.063634992
-0.076008379 -0.27553284 0.55960912 -0.85844749 0.0075663915 -0.51284558 0.074629061
-0.029899588 -0.24721049 0.71661043 -0.86212182 0.034428008 0.50553006 0.015867043
0.029139034 -0.053723738 0.53661442 -0.19180253 0.81007063 -0.55407333 0.075646505
0.039487332 -0.051639508 0.66898185 -0.070296146 0.99692273 0.034692116 0.0042947475
-0.044911444 -0.053809125 0.58616644 -0.44063842 0.89587539 -0.056965038 0.083541431
-0.032195337 -0.1306958 0.70130813 -0.92823011 0.034915403 0.37036446 0.0056897965
-0.06174979 -0.24797703 0.61726511 -0.98659718 0.013237499 0.16263659 0.012841215
-0.067601949 -0.071240045 0.58421016 -0.82463366 0.56140822 -0.069283113 0.11135044
-0.055338483 -0.2022582 0.63395292 -0.96284282 0.02835471 0.26856971 0.0021471577
-0.053318888 -0.24253489 0.6461587 -0.95291591 0.020013405 0.30257353 0.0003256042
-0.037539992 -0.13604827 0.68397886 -0.94466782 0.038993936 0.32570258 0.0016332953
-0.054687202 -0.12098719 0.63225073 -0.94205499 0.12874921 0.30976769 0.011098685
0.13372356 -0.048269846 0.62309724 0.2076201 0.97370565 -0.093761399 0.036287408
-0.028862029 -0.25754854 0.71883714 -0.85194558 0.024346469 0.52306402 0.021460582
-0.069370218 -0.081293344 0.57926518 -0.8997044 0.41654634 -0.13046548 0.11507794
0.093626775 -0.051539704 0.53851241 0.12234987 0.89658797 -0.42562959 0.061493054
0.0011036084 -0.052081496 0.68571097 -0.37207094 0.91860378 0.13315538 0.063866749
0.018058999 -0.050822768 0.70331287 -0.17921846 0.96262091 0.20308064 0.045936044
-0.059325952 -0.11709343 0.6179533 -0.95305628 0.13634661 0.27035785 0.017812848
-0.054510221 -0.062265232 0.55495304 -0.49862617 0.71895534 -0.48422629 0.11259972
-0.054627236 -0.099408224 0.63004434 -0.90150821 0.28478578 0.3258526 0.036414266
-0.032220643 -0.22168244 0.70659059 -0.90131134 0.042286944 0.43110284 0.0091499668
-0.063585974 -0.085251369 0.60139573 -0.91320211 0.40326813 0.058623143 0.079359509
-0.037524413 -0.10749742 0.68066955 -0.93218714 0.20610628 0.29756916 0.031119801
-0.071593978 -0.20289476 0.5588389 -0.77778172 0.080461234 -0.62336314 0.065980382
-0.023773054 -0.29715353 0.73215044 -0.82074255 -0.124009 0.55767679 0.044878494
-0.043736126 -0.2819227 0.53908485 -0.45760936 -0.036760487 -0.88839316 0.035413288
-0.053005833 -0.05795797 0.59588635 -0.54231679 0.84006256 0.013692463 0.088141933
-0.047795206 -0.17170429 0.64780837 -0.94964302 0.024419412 0.31238091 0.00021096421
-0.015127243 -0.22650231 0.74410415 -0.64391357 0.037196305 0.76419348 0.050135791
-0.057194795 -0.28653431 0.63592589 -0.94933921 -0.13082328 0.28572786 0.020963142
-0.077536196 -0.27683219 0.56459856 -0.91109115 0.0062115137 -0.41215834 0.079572909
-0.058476068 -0.30886701 0.63067257 -0.9155823 -0.24643303 0.31777307 0.051967259
-0.039360799 -0.094195247 0.67439264 -0.90786052 0.30762592 0.28487825 0.049501684
-0.07183332 -0.085352466 0.56902182 -0.92686909 0.28490323 -0.24442528 0.11371768
-0.061002582 -0.06082936 0.57695222 -0.57614779 0.80637389 -0.13347271 0.10657555
-0.034025032 -0.062798195 0.66473079 -0.68899399 0.69430023 0.20792925 0.083901793
-0.069784649 -0.22445269 0.56874102 -0.90506101 0.065598287 -0.42019215 0.077206329
-0.045287307 -0.18279077 0.65791368 -0.94915432 0.024779802 0.3138344 0.00019857536
-0.041176993 -0.15434574 0.67196298 -0.94788605 0.025947204 0.31755108 0.00050576299
-0.068259902 -0.068067662 0.56550735 -0.71283323 0.62616026 -0.31589875 0.12937906
-0.056711257 -0.10667979 0.62372041 -0.94323152 0.1784002 0.28015637 0.020765416
-0.067562521 -0.11364335 0.59112072 -0.99354911 0.084284477 -0.075870171 0.076824188
-0.065239668 -0.14157277 0.60290152 -0.99341357 -0.022592522 0.11233514 0.034690093
0.0085114799 -0.052080121 0.61768645 -0.15530521 0.98732966 0.032563839 0.015858838
-0.046322517 -0.058782693 0.62474638 -0.54319805 0.81703705 0.19335528 0.063874692
-0.038556479 -0.27759898 0.68936837 -0.93574351 -0.070770256 0.34550783 0.0094796326
-0.039305992 -0.053924624 0.60560554 -0.453233 0.88894105 0.066058189 0.062240053
0.14242004 -0.048200473 0.64597631 0.22983479 0.97314376 -0.012926217 0.032199331
-0.032515448 -0.25042775 0.70735842 -0.88041174 0.0099098003 0.47410658 0.013626928
-0.040635962 -0.20289473 0.68122095 -0.94343764 0.026252305 0.3305091 0.00077309133
-0.07208997 -0.15964127 0.5738197 -0.93364012 0.051731743 -0.35445732 0.082030334
-0.01402421 -0.053402584 0.63746297 -0.38947934 0.91661119 0.090164579 0.063014589
-0.018462146 -0.27142608 0.7406829 -0.76393217 0.029377749 0.64462745 0.036549654
-0.036484402 -0.057707243 0.6519267 -0.60755259 0.77460545 0.1756884 0.079692379
-0.049088694 -0.086878337 0.6415 -0.79984707 0.49453726 0.34011391 0.062486317
-0.032048084 -0.077468961 0.68165731 -0.81775767 0.5218873 0.24270543 0.08071848
-0.047776252 -0.11855159 0.65017682 -0.9370923 0.17278047 0.30332291 0.018120559
0.036654562 -0.051699534 0.73001051 -0.063073955 0.90521586 0.42024511 0.052934714
-0.025528345 -0.21871974 0.72468686 -0.79772317 0.017993258 0.60275531 0.032752872
-0.069037832 -0.20715405 0.59629631 -0.99466407 0.08050774 0.064512052 0.041781817
0.070073329 -0.04949753 0.58379674 -0.013536179 0.99769568 -0.066484302 0.0055815205
-0.004054443 -0.053001989 0.66201657 -0.38310927 0.92199165 0.056201823 0.060075983
-0.043224052 -0.29429114 0.67754728 -0.93199158 -0.16367047 0.32342511 0.028332632
-0.044563476 -0.2904008 0.67384601 -0.92889726 -0.15824887 0.33482429 0.027514698
-0.05510211 -0.090959258 0.62695664 -0.86741334 0.3932969 0.30481398 0.044862721
-0.067843728 -0.070660166 0.57403421 -0.78326464 0.59615463 -0.17634076 0.1270815
-0.078735836 -0.25561926 0.56815845 -0.90551054 0.032898489 -0.42304644 0.07988856
-0.062349517 -0.30054894 0.61399621 -0.97504687 -0.12009742 0.1867086 0.039469361
-0.030669417 -0.070788987 0.68418604 -0.78506541 0.57259601 0.23623338 0.085709333
-0.051442679 -0.29470995 0.65217006 -0.92855769 -0.16352998 0.33322445 0.031380352
0.1160836 -0.048234839 0.61731374 0.11669139 0.99146062 -0.058214508 0.01500677
-0.012189896 -0.054404721 0.56199169 -0.21588174 0.92710406 -0.30638739 0.052762512
-0.034224581 -0.12903623 0.69492406 -0.93941259 0.051257968 0.33893439 0.0046829106
-0.067723915 -0.19833742 0.59768349 -0.99664301 0.059960831 0.05574286 0.042033773
-0.068172112 -0.23529509 0.59407097 -0.99990147 0.013965709 -0.0013933191 0.048848659
-0.072022453 -0.12772124 0.57597816 -0.97334272 0.017178968 -0.22871134 0.074256502
-0.072250903 -0.29073861 0.56667089 -0.91290414 -0.082083836 -0.39983529 0.096617252
-0.071863264 -0.090210624 0.57531834 -0.94406283 0.27493164 -0.18209316 0.10493722
0.002580066 -0.052023742 0.62899953 -0.22945654 0.97126746 0.063160032 0.033480972
-0.042860739 -0.085634947 0.65923285 -0.84849691 0.45461738 0.2708801 0.069285788
-0.038213179 -0.17311844 0.68290621 -0.94352227 0.023683868 0.33046144 0.00068272545
-0.055578124 -0.11448463 0.62806386 -0.94038182 0.15900494 0.30066499 0.014334158
-0.039659221 -0.054648984 0.61853391 -0.49590802 0.85461295 0.15398741 0.063132793
-0.01424721 -0.24725263 0.74508184 -0.66699928 0.095013864 0.73897511 0.052878808
-0.0067981621 -0.12564489 0.75594115 -0.63716477 0.029781913 0.77015203 0.069357984
-0.041700646 -0.062522076 0.6396125 -0.61165226 0.76760018 0.19149795 0.070683204
0.05498933 -0.051504925 0.62040782 -0.024021827 0.99971026 -0.0015393711 0.0027524899
-0.026588583 -0.10458019 0.71438736 -0.90058291 0.1871606 0.3923282 0.031118399
-0.026334094 -0.058569245 0.71195525 -0.72054148 0.62127346 0.30795994 0.085307755
-0.01978769 -0.060204227 0.73081523 -0.78475153 0.45270967 0.42334273 0.071230121
-0.010315104 -0.10883662 0.75076491 -0.71677411 0.17306125 0.67548847 0.061319981
-0.012905406 -0.054215442 0.67545563 -0.47882578 0.8725549 0.096818462 0.07295388
-0.067211941 -0.060691576 0.56356931 -0.60914999 0.73084712 -0.30789411 0.1252827
0.010575932 -0.051405847 0.57842946 -0.10636444 0.97144932 -0.21206827 0.039812181
-0.023506727 -0.10912067 0.7258783 -0.88095105 0.14148983 0.45155945 0.033019528
-0.02557957 -0.15572862 0.71899348 -0.86909366 -0.01101373 0.49452484 0.016783858
-0.034039535 -0.27023771 0.70294279 -0.91167146 -0.015983041 0.41060886 0.0061559305
-0.01692481 -0.15553498 0.73917121 -0.79562598 -0.051043641 0.60363388 0.038054459
-0.071417116 -0.075816095 0.56818426 -0.8535071 0.45784888 -0.24879703 0.1297264
-0.0020776442 -0.14456156 0.75956625 -0.63404602 -0.076675206 0.76948458 0.071515396
-0.048766401 -0.22879195 0.65859574 -0.95005423 0.028030068 0.31082362 0.0001828322
-0.042576496 -0.16749983 0.66792184 -0.94927371 0.023880823 0.31354278 0.00018520973
-0.065159015 -0.23885575 0.60492641 -0.99601674 0.0071723382 0.088876896 0.030733898
-0.029206319 -0.20982151 0.71356338 -0.8742066 0.040290605 0.48387966 0.014156071
-0.029609052 -0.09811601 0.70502615 -0.90782237 0.21956834 0.357279 0.029055949
-0.027698783 -0.12672684 0.71413934 -0.89967412 0.019806312 0.43611252 0.013373793
0.041027434 -0.051222749 0.54469389 -0.14445053 0.91799361 -0.3693532 0.055976599
-0.068276159 -0.33465648 0.55335563 -0.73138601 -0.47940621 -0.48501971 0.1445749
0.0026495829 -0.05270401 0.64178514 -0.27512744 0.95993477 0.053198453 0.043341953
-0.071141332 -0.11126328 0.55959362 -0.86215538 0.10533836 -0.49557239 0.084770232
-0.01503009 -0.052350786 0.62346596 -0.36039394 0.92176795 0.14303878 0.053972773
0.109667 -0.050280035 0.56238079 0.14966905 0.97161138 -0.18322214 0.030661261
0.17224972 -0.055129651 0.69768405 0.56116438 0.74982244 0.3505151 0.10153642
0.11350243 -0.049581081 0.70618927 0.11439226 0.91516608 0.38650414 0.049753647
0.12692636 -0.27927589 0.49537134 0.4730936 -0.10161722 -0.87513226 0.057983361
0.11621245 -0.050557531 0.56955278 0.19525149 0.96964276 -0.14720647 0.028477574
-0.035023667 -0.056922626 0.64178509 -0.53747892 0.82922298 0.15331556 0.078107759
0.075419106 -0.049316093 0.58820289 -0.0063026515 0.99869114 -0.050757226 0.0036706806
0.049292669 -0.057851303 0.52265984 -0.19581448 0.73423225 -0.65004599 0.07304474
0.03599314 -0.050706595 0.67913544 -0.065309927 0.99636614 0.054672755 0.0059181317
0.048338961 -0.056383774 0.52303839 -0.19202702 0.74913347 -0.63397533 0.070137911
-0.021266351 -0.054387763 0.54980773 -0.25939354 0.87577879 -0.40709537 0.055751812
0.11138064 -0.062363535 0.49815983 0.19762588 0.56824458 -0.79877537 0.081444547
-0.0098311277 -0.31264594 0.52693534 -0.29285297 -0.25002071 -0.92289048 0.050235663
0.033419788 -0.12777765 0.5201124 -0.3189514 0.069264479 -0.94523674 0.0030290785
0.031447925 -0.28695789 0.51441425 -0.29288033 -0.098836184 -0.9510271 0.020719087
0.03641668 -0.19235682 0.51728785 -0.31279811 0.037821386 -0.94906628 0.00012220452
0.12311894 -0.04820586 0.65844828 0.11756294 0.99221385 0.041116975 0.017570766
0.061772253 -0.050463069 0.61122471 -0.019357713 0.99977779 -0.0083423126 0.0024010574
0.0073911045 -0.10574979 0.52954519 -0.33399144 0.22080654 -0.91634828 0.038523667
0.04722432 -0.092883281 0.51545936 -0.27576852 0.31457096 -0.90829343 0.040692154
0.02614418 -0.12706441 0.52292025 -0.31769818 0.072877392 -0.94538713 0.0036033893
0.0040788846 -0.1512026 0.52953202 -0.31947154 0.02374275 -0.94729841 0.00032932445
-0.066362724 -0.33324793 0.55247509 -0.69209486 -0.44890293 -0.56523538 0.14477696
0.08976426 -0.11802489 0.50118744 -0.0024888096 0.12246187 -0.99247015 0.048394728
0.096092254 -0.14257364 0.49853745 0.0030836684 0.027810466 -0.99960846 0.052679755
-0.019621691 -0.15613425 0.53683555 -0.40705532 0.019508213 -0.91319513 0.0086150346
0.043804854 -0.29261097 0.51161927 -0.28725901 -0.12159584 -0.95010352 0.025436388
0.096279673 -0.19128107 0.49847671 0.036785588 0.013559722 -0.99923116 0.042541414
0.035291675 -0.056983616 0.52268803 -0.23522809 0.69392836 -0.68053746 0.066149935
-0.068837918 -0.097332396 0.55359316 -0.81522763 0.12789053 -0.5648433 0.092229746
0.084029689 -0.12764847 0.50287962 -0.095111787 0.059118778 -0.99370956 0.033267591
-0.012993738 -0.25066748 0.53058016 -0.35956934 0.048446923 -0.93185991 0.0027877428
0.083378293 -0.11812041 0.50288182 -0.10478731 0.11248916 -0.98811227 0.034085903
0.019557282 -0.29853469 0.51822823 -0.29698992 -0.20589639 -0.93241823 0.042756297
0.088586278 -0.058988534 0.51057708 0.090833306 0.73361552 -0.6734668 0.088942468
0.015895903 -0.10229082 0.52626437 -0.33686882 0.25646478 -0.90594989 0.042616751
0.15956634 -0.050497938 0.65074891 0.38168162 0.92424393 0.009607099 0.05690613
-0.016860476 -0.1480903 0.53643811 -0.40860146 0.011969749 -0.91263443 0.0093893781
0.063612036 -0.18171436 0.50823438 -0.24817215 0.011215316 -0.96865106 0.0045724222
0.04648339 -0.088600799 0.51616931 -0.27834144 0.3416993 -0.89764565 0.045796786
0.02559498 -0.14812118 0.52204841 -0.31888875 0.025758184 -0.94744205 0.00014483104
-0.013442674 -0.27980757 0.52939612 -0.35138434 -0.053979989 -0.93467379 0.012420167
0.099283442 -0.049126755 0.59457111 0.082584739 0.99517715 -0.052935887 0.0094913375
-0.050777525 -0.064390756 0.55326551 -0.4750829 0.69056803 -0.54535496 0.11431292
0.014006225 -0.10649429 0.52711523 -0.34201723 0.22192188 -0.91311276 0.036212299
0.12097663 -0.16093552 0.496218 0.39325103 0.072031818 -0.91660517 0.067404792
0.097937934 -0.24553883 0.49762914 0.05518388 -0.0041917665 -0.99846739 0.042924762
0.11186844 -0.30988079 0.49315763 0.30372563 -0.22684982 -0.92535937 0.083318204
0.016315265 -0.24338086 0.52069044 -0.30768323 0.03764296 -0.95074385 0.00014287735
0.035112664 -0.33706272 0.51445121 -0.2540254 -0.52366924 -0.81316757 0.070975564
0.11317436 -0.10955318 0.4962928 0.26407251 0.19270357 -0.94505614 0.05606734
0.050725136 -0.050706282 0.53874242 -0.13885294 0.90914178 -0.39265901 0.057054427
-0.06456729 -0.23927541 0.55101144 -0.69693571 0.076203316 -0.71307337 0.069901176
0.062841959 -0.26937741 0.50654042 -0.22565672 0.0069298516 -0.97418225 0.0050522657
0.1131171 -0.18206853 0.49490702 0.26253778 0.016427688 -0.96478182 0.057685439
-0.023361102 -0.31206226 0.53184241 -0.34512025 -0.23799577 -0.90788209 0.051276207
-0.023480369 -0.19310805 0.53685868 -0.47132096 0.068849362 -0.87927032 0.023915177
-0.070282511 -0.16736495 0.56337416 -0.73117393 0.092569366 -0.67588127 0.06500452
0.018522564 -0.26611912 0.51874804 -0.29702309 0.0039618188 -0.95486212 0.0014940213
-0.020155134 -0.055606421 0.5595091 -0.23815554 0.91543531 -0.32443821 0.055861134
-0.0070448858 -0.078075767 0.5362342 -0.32669285 0.37830785 -0.86611485 0.056336503
0.095673405 -0.16220884 0.49768621 0.06543465 0.015342606 -0.9977389 0.057355516
-0.00037136531 -0.25693473 0.52521217 -0.31904376 0.035356767 -0.94708025 0.00053255714
-0.0059669744 -0.23016508 0.53083849 -0.3553251 0.052418847 -0.93327183 0.0023301013
-0.034508057 -0.18756159 0.54118788 -0.50489724 0.06539043 -0.860699 0.030530674
0.089661114 -0.052716121 0.52330858 0.09567719 0.85528737 -0.50924391 0.07758259
0.038194694 -0.050189927 0.56031406 -0.12998983 0.95273632 -0.27458361 0.043913797
0.11183884 -0.056919552 0.51252675 0.25033471 0.72155166 -0.64551979 0.075343728
0.072967537 -0.082650527 0.5084489 -0.13738014 0.42160416 -0.89631277 0.063890859
0.03855611 -0.18188302 0.51671326 -0.31159994 0.03310293 -0.94963652 0.00014607741
-0.0731695 -0.19004621 0.56100816 -0.75066304 0.089577973 -0.65458435 0.06712161
-0.062332384 -0.33318758 0.54930884 -0.62197804 -0.47135946 -0.62527078 0.13681017
0.071571745 -0.091641814 0.50803256 -0.17115647 0.31655613 -0.93300462 0.049820468
0.067745067 -0.32958511 0.50058281 -0.17067893 -0.38759661 -0.90589046 0.059531953
-0.042179536 -0.15906391 0.54407656 -0.51133621 0.0074283006 -0.85934865 0.032143321
-0.0084291315 -0.06641683 0.53815085 -0.29457858 0.56350094 -0.77180982 0.06507799
0.0263044 -0.21702754 0.51915419 -0.30462015 0.036405984 -0.95177794 0.00015039789
0.087949038 -0.14862451 0.50067395 -0.017007068 0.045518339 -0.9988187 0.048460133
0.11863556 -0.13424876 0.49411073 0.3714816 0.054069377 -0.92686456 0.05965022
-0.019516543 -0.098054223 0.5359385 -0.38296375 0.25336027 -0.88833964 0.044197738
0.024550334 -0.059460677 0.52516657 -0.23964365 0.63865978 -0.73122132 0.068132393
0.049793478 -0.050084095 0.57393891 -0.087617323 0.97841614 -0.18714996 0.030169504
-0.048463374 -0.1569145 0.54804605 -0.54743856 -0.0045663989 -0.83683348 0.032415312
-0.031028233 -0.059593648 0.68768436 -0.71113163 0.6757254 0.19413149 0.087484792
-0.065941319 -0.29983845 0.54879934 -0.73624581 -0.14789519 -0.66035539 0.09819448
0.011805022 -0.050307967 0.70443714 -0.27399641 0.93330359 0.2320998 0.06053343
0.09585426 -0.32702377 0.49738127 0.030960098 -0.46718085 -0.88361961 0.091592528
-0.070613869 -0.12654303 0.55972046 -0.85187715 0.0250539 -0.52314222 0.072363548
-0.026373178 -0.13691342 0.53935403 -0.43183362 0.016003251 -0.9018113 0.012987689
0.14607327 -0.054050535 0.56421632 0.48061812 0.8383199 -0.25734413 0.064644009
0.071987778 -0.053403754 0.51700348 -0.10005127 0.76816601 -0.6323849 0.079019539
0.12025267 -0.2844061 0.49382019 0.35704875 -0.11395892 -0.92710823 0.060958207
-0.024147512 -0.070667952 0.54149109 -0.38636866 0.47276437 -0.79196793 0.063455887
