# .PCD v0.7 - Point Cloud Data file format
VERSION 0.7
FIELDS x y z
SIZE 4 4 4
TYPE F F F
COUNT 1 1 1
WIDTH 1421
HEIGHT 1
VIEWPOINT 0 0 0 1 0 0 0
POINTS 1421
DATA ascii
-0.01359552 -0.053098019 0.625911
0.016620871 -0.050983671 0.62105823
-0.04544967 -0.054551542 0.62268472
0.030238571 -0.051713169 0.60521787
-0.02974182 -0.047154609 0.65708578
-0.009195447 -0.051933318 0.66051543
-0.04366887 -0.052505881 0.58649433
0.04781663 -0.053354319 0.59511143
0.03181744 -0.04825962 0.52124548
0.1511701 -0.0457297 0.63217127
0.1416297 -0.1085633 0.51333308
0.1492624 -0.083858073 0.54185402
0.0040949578 -0.052016739 0.7373389
0.1210763 -0.04604131 0.68529218
-0.021084189 -0.04511958 0.71571243
0.1157917 -0.047861699 0.61548668
0.1315586 -0.048361421 0.62849528
-0.086985469 -0.050454739 0.57330292
0.14925779 -0.1229128 0.54763973
0.1724302 -0.052841779 0.64890391
-0.01201385 -0.050954338 0.58910191
0.030449091 -0.050239861 0.57598358
0.074168317 -0.044119921 0.68345362
-0.00093615061 -0.04520303 0.70366681
0.067044199 -0.050019439 0.74183363
0.1018146 -0.050863471 0.67237151
0.1587541 -0.040979441 0.70312458
0.058362961 -0.054608259 0.55428809
0.13062111 -0.04810575 0.52953362
0.14352509 -0.03940472 0.66815758
0.092620373 -0.04787856 0.72312587
0.1169326 -0.088653982 0.62275839
0.1864277 -0.050786611 0.6876775
0.087371893 -0.044553101 0.70394021
0.01237959 -0.048009399 0.75085902
0.1022296 -0.04561853 0.58368242
-0.02460468 -0.04968363 0.54627901
0.082716636 -0.044833422 0.72582263
0.048373759 -0.049325261 0.57148731
0.094945759 -0.043659449 0.6739729
0.073977113 -0.047201339 0.61691219
0.1927385 -0.053795502 0.67930382
0.1765193 -0.1822347 0.62210631
0.1770933 -0.151048 0.62465131
0.16022269 -0.0546083 0.57271397
0.1924891 -0.12954681 0.65385711
0.1540473 -0.1359867 0.58943081
0.15636 -0.1429892 0.55695927
0.1971886 -0.201676 0.7061891
0.15761 -0.14100461 0.58235258
0.1939656 -0.1039679 0.65600848
0.19765259 -0.34086511 0.67209542
0.1945966 -0.32045901 0.64785618
0.1686895 -0.28773549 0.57373142
0.1891095 -0.1280584 0.68591988
0.20276131 -0.1844371 0.6911577
0.1873761 -0.053917989 0.68338442
0.1753712 -0.052403688 0.65471709
0.19520099 -0.096012637 0.7113595
0.19258399 -0.28953409 0.68238771
0.16367389 -0.1008806 0.58088851
0.16422731 -0.046635211 0.62214768
0.1772797 -0.09614715 0.71571451
0.1956218 -0.048518691 0.69495249
0.199247 -0.15702631 0.70073402
0.1849677 -0.2098746 0.63519162
0.13069861 -0.1221566 0.49417391
0.109212 -0.1416139 0.73792511
0.1967542 -0.073813841 0.70642948
0.1548579 -0.052617479 0.717507
0.1120753 -0.1098949 0.73046762
0.1815273 -0.1963304 0.71291322
0.15541691 -0.260313 0.52432042
0.1480142 -0.1462948 0.51359248
0.03288066 -0.26773369 0.76050591
0.068184257 -0.29026759 0.75479072
0.017428931 -0.15859631 0.76100522
0.07049942 -0.04931666 0.74321002
0.01960576 -0.1102679 0.76204592
0.1365772 -0.2206611 0.72678721
0.08687377 -0.25342461 0.7435196
0.18737429 -0.18096641 0.70710719
0.1501582 -0.1293799 0.53261161
0.20189761 -0.065567277 0.7029947
0.01772028 -0.27162671 0.76981843
0.03931725 -0.1767002 0.75384903
0.042644721 -0.2305851 0.75687683
0.026279271 -0.1876238 0.76250827
0.16248649 -0.1410688 0.71531391
0.1348509 -0.1871105 0.49671191
0.15392821 -0.1072662 0.54888183
0.1703191 -0.2961489 0.60018587
0.1982006 -0.23160911 0.70487303
0.1620331 -0.074143574 0.71767491
0.02858901 -0.32900259 0.75934798
0.1763086 -0.1178645 0.71374643
0.0062137251 -0.21087781 0.76604921
0.1598012 -0.2751523 0.72054189
-0.0066840048 -0.341129 0.76840228
0.15147869 -0.070363611 0.7224223
0.005153134 -0.1208357 0.76707172
0.1021062 -0.15035661 0.73742998
0.1758059 -0.2364962 0.71550572
0.1015958 -0.040845569 0.73314941
0.071155548 -0.25934219 0.74924248
0.14392421 -0.051943451 0.56627917
0.064356819 -0.063597232 0.74924678
0.1337799 -0.28767851 0.72736728
0.1956856 -0.17675731 0.69565302
0.1007079 -0.1772418 0.73620552
0.1591758 -0.1917714 0.56903881
0.1853305 -0.3152082 0.72363812
0.1971512 -0.2621119 0.70107788
0.059667159 -0.082770541 0.75066829
0.03770059 -0.047910541 0.66950887
0.090829223 -0.055024859 0.73228192
0.17496289 -0.063456833 0.71340722
0.109237 -0.1887276 0.73487991
0.1925184 -0.1875045 0.70216542
0.1768333 -0.1575803 0.71344298
0.0168317 -0.24010549 0.76614243
0.1813474 -0.2350015 0.71454507
0.1524705 -0.32206571 0.72901958
0.1974635 -0.28134921 0.67906952
0.1801946 -0.080773652 0.70605588
0.046937581 -0.06107479 0.75164968
0.1145882 -0.1036645 0.73948801
0.006275862 -0.1652364 0.76672739
0.04538554 -0.2197386 0.75662827
0.1982078 -0.2497665 0.69775689
0.194012 -0.32574019 0.71359932
0.20213521 -0.31677669 0.71030581
0.1161222 -0.33757311 0.73549742
0.077232242 -0.2265671 0.75154728
0.15038469 -0.2714465 0.53506982
0.1477609 -0.24964871 0.72528398
0.1864246 -0.1068868 0.71206778
0.1492932 -0.1663955 0.72543621
0.1218486 -0.1232564 0.73324722
0.01865989 -0.047435399 0.72526759
0.069724798 -0.1112318 0.74757272
0.060129821 -0.054841761 0.75034791
0.080990873 -0.31705949 0.75147969
0.029755941 -0.19984341 0.76132637
0.099274583 -0.2066168 0.73692739
-0.00058275461 -0.064155132 0.77052259
0.001450062 -0.33524409 0.76658553
0.047232319 -0.316897 0.76074582
-0.019239901 -0.096844397 0.77309418
-0.053144991 -0.05011788 0.60058337
0.087353706 -0.20459139 0.74224222
0.074423492 -0.2059011 0.74781293
0.16573191 -0.2164817 0.71363431
0.1424773 -0.1641797 0.5158385
0.1713455 -0.1858961 0.60227752
0.18770219 -0.1938853 0.64863378
-0.00064343208 -0.2294706 0.76776677
0.1907672 -0.15104941 0.71249717
0.15199479 -0.2474563 0.72429562
0.09668307 -0.1127716 0.73926812
-0.028781891 -0.053734928 0.72191632
0.1778346 -0.051097039 0.6442802
0.066023894 -0.1028171 0.75547212
0.087773003 -0.25045159 0.7411201
0.1442661 -0.1440607 0.72499669
0.14031871 -0.28667691 0.72885931
0.01271807 -0.1761003 0.76575482
0.085172407 -0.2280519 0.75298709
0.04285562 -0.28092131 0.76428002
0.064362347 -0.33831581 0.75302279
0.1043754 -0.3029927 0.74339747
0.1778336 -0.27776349 0.71716928
0.03651214 -0.2241559 0.7652958
0.19379491 -0.144538 0.70430768
0.092660069 -0.15031061 0.75133377
0.1993379 -0.1322251 0.70225811
0.048824679 -0.2006491 0.75500292
0.098488986 -0.22294331 0.7326811
0.061528739 -0.1737105 0.75784308
-0.037382841 -0.055582199 0.66231722
-0.0119468 -0.085835367 0.77000231
-0.02408516 -0.047603641 0.67162412
0.105531 -0.055815551 0.67221367
0.082573123 -0.043226238 0.69150978
0.1184151 -0.044000208 0.65945637
0.13826551 -0.13020509 0.72442031
0.09997797 -0.068776377 0.7380957
0.018185019 -0.04681408 0.5857619
0.094713673 -0.2163175 0.73898071
0.033779029 -0.1919253 0.74992311
0.091921508 -0.33724371 0.7401557
0.18511911 -0.2635695 0.71230322
0.18126351 -0.3297357 0.72063679
0.1381373 -0.31637961 0.73290253
0.098555148 -0.1858681 0.7445935
0.1413127 -0.0463528 0.55271268
-0.006765902 -0.1064157 0.76538801
0.18350489 -0.070418328 0.63591027
0.02965099 -0.049184982 0.76805252
0.2014645 -0.1118744 0.70553583
0.1492236 -0.05323641 0.57824439
0.2037798 -0.1903 0.70805317
0.1749939 -0.046530571 0.62723029
0.2056765 -0.095781803 0.70664579
0.1933531 -0.045533851 0.69663239
0.2045638 -0.1954173 0.71085638
0.2030317 -0.24493469 0.69560188
0.17972051 -0.046264499 0.6575368
0.172877 -0.1418758 0.60108048
0.19472 -0.1286004 0.65796262
0.2040588 -0.17244969 0.6986829
0.1290056 -0.047068208 0.56376362
0.2096141 -0.17746089 0.69213521
0.095494866 -0.043118861 0.72444332
0.2055079 -0.046669569 0.69706178
0.1980352 -0.053480569 0.68117899
0.1536458 -0.1550281 0.53797477
0.20188829 -0.1107862 0.68133742
0.13410871 -0.047132701 0.63879728
0.1637035 -0.053498361 0.57680207
0.1998001 -0.0933621 0.68400508
0.19572359 -0.32010821 0.64944232
0.1646785 -0.29563779 0.57923388
0.17580611 -0.28898001 0.60118711
0.1765385 -0.2042862 0.5961535
0.1700512 -0.052845381 0.60008299
0.16859759 -0.1409989 0.58432472
0.146156 -0.1057475 0.51701093
0.151934 -0.1270747 0.53524882
-0.0031776431 -0.048228592 0.67698419
0.1565142 -0.050475631 0.61972457
0.1787646 -0.053241599 0.62249392
0.1623684 -0.1184431 0.56807542
0.20729201 -0.33819649 0.67274082
0.1553044 -0.3394798 0.52955538
0.20456021 -0.1759325 0.68169868
0.1963384 -0.2098078 0.65444958
0.1772885 -0.3271901 0.60706758
0.1580622 -0.27667159 0.5516305
0.1964573 -0.1667037 0.69584811
0.1656554 -0.099756017 0.58292609
0.1676406 -0.06370458 0.58153182
-0.0095348358 -0.04537579 0.68704271
0.2023333 -0.20279551 0.70786113
0.14752489 -0.261967 0.52865273
0.1652465 -0.33315471 0.58167619
0.1464334 -0.3175506 0.50722522
0.2022333 -0.1290196 0.69190258
0.1852648 -0.26111561 0.62597471
0.151759 -0.085410513 0.53791457
0.1983072 -0.068727702 0.67155552
0.18411949 -0.13641261 0.63586873
0.1861179 -0.14826509 0.6292429
0.1825527 -0.32879841 0.64711648
0.1509797 -0.32972541 0.52231908
0.1683953 -0.2112145 0.58399212
0.13595229 -0.33712339 0.4955081
0.14056811 -0.044545099 0.71270549
0.17141271 -0.1077465 0.59888828
0.096084423 -0.04930431 0.54971248
0.1925493 -0.205084 0.65370423
0.1996654 -0.3237409 0.67516279
0.19625729 -0.097730249 0.65513211
0.17894509 -0.198705 0.60870659
0.1900284 -0.28199121 0.65293688
0.1624034 -0.29235491 0.57360607
0.1583214 -0.33000159 0.54765528
0.19737449 -0.2394765 0.65250611
0.1721788 -0.3411622 0.59063798
0.1592464 -0.13865741 0.55906528
0.1784353 -0.057061791 0.62495118
0.19428919 -0.0646694 0.6644491
0.1833003 -0.1626043 0.62671411
0.2017066 -0.052509021 0.68274581
0.19521549 -0.044957221 0.6740073
0.01033551 -0.04887617 0.54888242
0.1461187 -0.04568423 0.63616198
0.1560221 -0.046866279 0.63272792
0.1781026 -0.1790597 0.60696971
0.1646311 -0.1993448 0.58095813
0.1787961 -0.28806999 0.60475492
0.1885547 -0.1948517 0.63915879
0.1787377 -0.34013009 0.59506702
0.1593522 -0.29495811 0.54924297
0.17235731 -0.1002035 0.59717327
0.1717981 -0.1124781 0.60191911
0.19559421 -0.04985759 0.67052108
0.1508863 -0.085264497 0.5194115
0.1496672 -0.2905274 0.51733392
0.2011421 -0.27767041 0.67730403
-0.035386559 -0.049950849 0.65755701
0.0050585871 -0.046377439 0.68959552
0.074774921 -0.048564449 0.60093212
-0.0087704062 -0.05136225 0.7049498
0.1620575 -0.05678064 0.57400411
0.1878778 -0.1442567 0.62793332
0.1288908 -0.137687 0.4938508
0.1879553 -0.054646719 0.65522611
0.1985461 -0.2155541 0.69980079
0.1777986 -0.2459047 0.58598411
0.14583699 -0.24197461 0.50920278
0.1347066 -0.1023166 0.4923639
-0.02926874 -0.048594709 0.59219629
0.2059817 -0.2658183 0.61452878
0.19119319 -0.046671089 0.68859267
0.14647999 -0.056275371 0.5119552
0.2047585 -0.27536201 0.68234187
0.01502782 -0.046876639 0.5758152
0.13577101 -0.040424641 0.7214672
0.19928201 -0.32576719 0.71323258
0.062794447 -0.045820098 0.56282473
0.042312559 -0.046089038 0.52924949
0.078328252 -0.05064502 0.56962621
0.1507889 -0.14239021 0.51387233
0.171362 -0.33579379 0.60679537
0.1598819 -0.33297369 0.53511518
0.13757829 -0.1111358 0.4903287
0.1782973 -0.3058835 0.59107828
0.1706396 -0.28082991 0.58423781
0.2013054 -0.29542509 0.66201848
0.0499711 -0.051975179 0.52977091
0.1678126 -0.1070692 0.60463172
0.1611765 -0.28937581 0.56467348
0.20309719 -0.1197813 0.70143658
0.1801894 -0.073305368 0.61338311
0.17022879 -0.080553003 0.60665762
0.01102841 -0.046426769 0.62133771
0.1474438 -0.119384 0.51472718
0.2064908 -0.20354091 0.68071091
0.1951789 -0.085166417 0.6596207
0.1956083 -0.05998924 0.64797288
0.19198111 -0.1023933 0.65951049
0.2062757 -0.1868286 0.6913017
0.14655849 -0.25051191 0.51826721
0.19527631 -0.19784421 0.66581219
0.19653361 -0.18339659 0.65672058
0.1344002 -0.26546001 0.50577462
0.1991227 -0.30165249 0.66500139
0.1988827 -0.1928115 0.66346318
0.2092811 -0.087775052 0.70042568
0.2053528 -0.1364617 0.68151879
0.1922508 -0.049974021 0.65614069
-0.02666253 -0.041460901 0.64721519
0.18833239 -0.24302889 0.6522699
0.047154959 -0.04452562 0.5423944
0.12688281 -0.048026189 0.56057692
0.068213403 -0.047320191 0.57659358
0.14032979 -0.067111053 0.49693421
0.1597683 -0.047892109 0.5480451
0.15231121 -0.18850841 0.53657287
0.1374369 -0.30545849 0.49167821
0.16923089 -0.1519509 0.56749249
0.1780505 -0.1778079 0.58416963
0.14057951 -0.2341029 0.48882979
0.14049999 -0.1235533 0.5009082
0.1699291 -0.1641037 0.61159241
0.1872202 -0.2341193 0.62161058
0.13593981 -0.1833199 0.4952673
0.1724388 -0.16122749 0.59342909
0.17156491 -0.1374002 0.59406608
0.1772352 -0.177072 0.59166759
0.1711223 -0.2304405 0.5830884
0.14257 -0.19636691 0.5020476
0.1494281 -0.1590928 0.51086217
0.1879676 -0.23664171 0.62346619
0.1598556 -0.25454181 0.52916813
0.149314 -0.1655435 0.52300912
0.1603601 -0.159168 0.54750258
0.1594397 -0.2472249 0.53011203
0.1379649 -0.27779919 0.4960613
0.1580786 -0.14450739 0.5353207
0.16383781 -0.1902305 0.56023002
0.19036201 -0.20363881 0.62137431
0.14636511 -0.1506606 0.51470089
0.1445474 -0.1707523 0.50717109
0.1457341 -0.21123441 0.50112522
0.1725644 -0.1625445 0.57842863
0.1995177 -0.1113081 0.66878802
0.1565396 -0.04383726 0.60836232
0.14782891 -0.25995591 0.51220888
0.1597302 -0.2173398 0.54519272
0.1577291 -0.31331271 0.53900808
0.18523499 -0.24283621 0.61208332
0.15665939 -0.090827487 0.54168618
0.16348059 -0.070406727 0.57097101
0.16718429 -0.3300257 0.54175568
0.1838554 -0.25228539 0.62171787
0.1719632 -0.1470907 0.59500003
0.1769719 -0.1208148 0.5991649
0.1582111 -0.1944132 0.54128128
0.16690519 -0.051996421 0.58953333
0.1544522 -0.2091742 0.531771
0.1761228 -0.0440608 0.64958203
0.201179 -0.26372159 0.69379032
0.1521322 -0.079912931 0.53135508
0.18366919 -0.2448073 0.61087078
0.17860129 -0.04646869 0.7041533
0.15002251 -0.056974351 0.52176148
0.1492852 -0.1843013 0.51361591
0.2022052 -0.061842199 0.67768109
0.1525816 -0.17363369 0.52277559
0.2011783 -0.30235541 0.70344943
0.1604287 -0.062537611 0.55345452
0.1616939 -0.2228204 0.55883151
0.163931 -0.17511261 0.55405068
0.16055509 -0.2276475 0.53129667
0.1946557 -0.090692908 0.65171808
0.1591396 -0.1749666 0.5415554
0.17344379 -0.1916398 0.59122521
0.2028126 -0.33024681 0.65858978
0.13888229 -0.05238026 0.67384237
0.1972653 -0.1724786 0.66426152
0.205689 -0.1105887 0.68985939
0.210502 -0.1017067 0.69712311
0.2059392 -0.096322984 0.6912353
0.167878 -0.2091358 0.56922472
0.180786 -0.063070633 0.62373918
0.19738109 -0.1175333 0.66520989
0.1748933 -0.06712541 0.60701281
0.1647941 -0.2036905 0.56349617
0.17039409 -0.236425 0.56776673
0.13773569 -0.21742859 0.48874059
0.198516 -0.2671563 0.65949458
0.2025867 -0.2912856 0.67741573
0.20644 -0.1623684 0.684793
0.2045972 -0.25752509 0.67612571
0.1667321 -0.1445908 0.56889099
0.2036306 -0.226409 0.67801702
0.2066845 -0.12762959 0.69618219
0.2091179 -0.18951251 0.70160937
0.1611575 -0.060254961 0.56440359
0.002948046 -0.049409721 0.72750533
0.097767889 -0.045039158 0.66479242
0.04273266 -0.04158603 0.62477791
0.1205503 -0.046930332 0.62034929
0.20340639 -0.1204815 0.70358878
0.18846139 -0.1734236 0.62540752
0.20192149 -0.28256431 0.6972962
0.2009621 -0.23602051 0.66642028
0.18229739 -0.1521991 0.62008083
0.2022893 -0.1369431 0.66935152
-0.6406852 -0.3106932 0.27190331
-0.6763916 -0.32556731 0.2776854
0.18574861 -0.20348559 0.61106128
0.1805004 -0.33983329 0.61432588
0.1734861 -0.1887314 0.60940021
0.02413523 -0.03867754 0.60577422
0.1944702 -0.06147093 0.65691692
0.19051491 -0.2020317 0.60923111
0.1947889 -0.202975 0.63675243
0.2067032 -0.33949411 0.6863572
0.19468769 -0.1922648 0.68803418
0.20677879 -0.1193501 0.68269747
0.1779293 -0.177214 0.60154819
0.085051827 -0.04522023 0.62134588
0.020614499 -0.04578951 0.73682523
0.20423441 -0.1172164 0.6753844
0.1988555 -0.26305321 0.70117092
0.205681 -0.12644111 0.6754452
0.18114451 -0.2789028 0.59328598
-0.132011 -0.334124 0.96301341
0.1722485 -0.31649739 0.58627552
0.1927015 -0.069484197 0.65129209
0.19832391 -0.1358337 0.66544819
0.16681901 -0.251425 0.59926999
0.20468371 -0.306005 0.67010778
0.2041641 -0.1889997 0.6740393
0.2032419 -0.077749282 0.67727709
0.20618109 -0.2641198 0.67024982
0.20560341 -0.29087189 0.68865353
0.1968261 -0.2486776 0.64737839
0.212725 -0.25699991 0.66273361
0.1429567 -0.2121601 0.72336668
0.038712561 -0.047156129 0.73622501
0.1547876 -0.04933694 0.716896
0.2022554 -0.33935371 0.70777971
0.1612287 -0.052395839 0.57480758
0.19128101 -0.197457 0.66029263
0.171617 -0.1560505 0.60993189
0.1492175 -0.12912659 0.53695261
0.1892239 -0.2416435 0.65570551
0.1778281 -0.2029857 0.60724783
0.1359804 -0.1202772 0.48848939
0.13649879 -0.068317279 0.49046949
0.1239088 -0.16301849 0.49079949
-0.01127732 -0.31558859 0.53117013
-0.025481461 -0.055203121 0.54262322
0.045438111 -0.056018852 0.51690471
0.09066391 -0.1138794 0.5026598
0.071214616 -0.1321913 0.50375092
-0.01528293 -0.2495741 0.53715062
0.17529111 -0.1834985 0.60416019
-0.01224017 -0.27962399 0.53044951
0.1327558 -0.25261211 0.48547441
0.2017279 -0.2475456 0.70064461
0.046174958 -0.2167948 0.51324069
0.095980883 -0.16329589 0.50098002
0.1258911 -0.074914023 0.49715829
-0.069675267 -0.2325218 0.55468303
0.1046306 -0.04817228 0.54715842
-0.055183139 -0.241569 0.54572451
0.083577327 -0.052424971 0.50583422
0.04670525 -0.092786819 0.51476932
0.082995199 -0.18289649 0.49945381
0.1159736 -0.172518 0.4898178
0.1114708 -0.1838998 0.4911595
0.069831252 -0.33064479 0.50085127
0.1455999 -0.052536681 0.54281712
0.1081504 -0.04880188 0.51479089
0.1136727 -0.05506064 0.49377841
0.083137512 -0.052039351 0.50593489
0.046694931 -0.053837869 0.51737243
0.083052076 -0.1188862 0.5079242
0.071705341 -0.085748427 0.50578183
0.097804368 -0.1480938 0.50015467
0.034507569 -0.1220889 0.52143228
0.01052551 -0.3044422 0.51689738
0.02481034 -0.1299545 0.52091521
-0.0057279021 -0.1878873 0.52968222
0.029089211 -0.2848736 0.51849699
0.02780294 -0.1712617 0.51948822
0.043674231 -0.29309511 0.51559788
0.04560123 -0.26211891 0.51126927
-0.03175946 -0.247316 0.53739113
0.08142931 -0.049203571 0.52349752
-0.00040477511 -0.2587935 0.52528358
0.1097733 -0.050668519 0.51902139
0.0040449351 -0.04883033 0.54008698
0.01543286 -0.1040718 0.52726412
-0.033066619 -0.078034371 0.5354017
0.066633113 -0.27233121 0.50138909
0.044946369 -0.098140053 0.51759058
0.005001903 -0.1496907 0.5290513
0.1218429 -0.1324587 0.49176791
0.019713281 -0.29731879 0.51338792
-0.01905483 -0.1542591 0.53773773
0.091076069 -0.1254746 0.50368422
0.1213398 -0.19684879 0.49214569
-0.020578351 -0.14350151 0.53935361
0.1680695 -0.05064116 0.62365812
0.099335551 -0.04758158 0.5892657
-0.074317344 -0.19622651 0.56405407
0.084764726 -0.064912543 0.51177812
-0.017502321 -0.1502144 0.54703999
0.084525757 -0.15287741 0.49784401
-0.062142879 -0.3342407 0.54914331
0.1024681 -0.21771839 0.49820381
-0.025934961 -0.3141087 0.52985507
0.063569687 -0.1834396 0.51183552
0.064689733 -0.2301773 0.50717878
0.097588241 -0.24813689 0.4977462
-0.072700202 -0.071785837 0.55248582
0.03328849 -0.053993329 0.51883912
-0.064154923 -0.2393427 0.55224848
-0.048314419 -0.27073261 0.53707242
-0.02829841 -0.076675609 0.53494471
0.0057050139 -0.1050309 0.52327311
-0.043112919 -0.15943579 0.53803462
0.070654489 -0.2025459 0.50217187
-0.0086316317 -0.15556151 0.53183812
0.12788279 -0.048610881 0.57679212
0.069608197 -0.04908378 0.50624382
0.083431751 -0.132984 0.50369132
0.063928261 -0.079744831 0.50893641
-0.069610298 -0.3353785 0.55103642
0.0027554929 -0.2374628 0.52386451
0.069202781 -0.093829229 0.50830299
0.1110935 -0.169661 0.4904024
-0.075957723 -0.33764219 0.5439142
0.0051475172 -0.33930579 0.51822692
0.1411072 -0.1936357 0.49333599
0.1060237 -0.29763621 0.49315241
-0.02394451 -0.191653 0.53437102
0.04668327 -0.066878721 0.51729518
0.085660398 -0.04905121 0.58908808
0.1626503 -0.28400949 0.56530261
0.027430059 -0.2175736 0.52250367
0.1114587 -0.1109975 0.49445879
0.084265292 -0.1364264 0.50374663
0.1299143 -0.1253822 0.48555809
-0.044126149 -0.215469 0.53948343
-0.0071006268 -0.078643367 0.53363568
0.05980888 -0.28448439 0.50388908
0.096448474 -0.1917406 0.49916479
0.01523975 -0.2424188 0.51862109
0.02449709 -0.216372 0.52107048
0.015864911 -0.25252089 0.51824367
-0.039110899 -0.1983062 0.54024363
0.1452515 -0.2177913 0.51170862
-0.051014449 -0.28849891 0.53644669
0.12912551 -0.1048457 0.49107781
0.0065051322 -0.050663721 0.58092278
0.01267867 -0.0501782 0.54021102
0.075594284 -0.044799279 0.52032912
-0.0097402781 -0.2779052 0.53190643
0.077442117 -0.2672897 0.50169098
0.01541035 -0.1012221 0.52874911
0.01245897 -0.088152424 0.52872419
0.17073271 -0.14561521 0.59883338
0.01767144 -0.19261231 0.52483147
-0.039804 -0.28606489 0.53493118
0.13220359 -0.2087032 0.49185449
0.067892358 -0.3276566 0.50131512
0.094605841 -0.33220199 0.49325931
0.074798882 -0.071786948 0.50194031
0.1122958 -0.30921951 0.48976451
-0.081968367 -0.25849071 0.54892123
0.054638419 -0.1975324 0.50837171
-0.03395924 -0.18488391 0.54222101
-0.06838876 -0.30138269 0.54627442
0.1868885 -0.079948381 0.65969169
0.1161169 -0.050842091 0.6165452
-0.018701199 -0.098985031 0.53798932
0.00035685301 -0.067824021 0.52650088
-0.06173867 -0.27345651 0.54504639
0.15555669 -0.23107579 0.54418182
-0.01766381 -0.06031869 0.54063708
-0.058217499 -0.17858601 0.54438961
0.04974759 -0.1632646 0.51018691
0.181789 -0.24048869 0.62414521
0.01818287 -0.33065629 0.51541579
0.087724581 -0.25424689 0.49820781
0.083634883 -0.099813238 0.50143838
0.1289812 -0.0671096 0.48397559
0.091230169 -0.2681728 0.50017619
0.18796089 -0.1053911 0.66027439
0.1468969 -0.054206181 0.52979279
0.1699705 -0.1074872 0.59450901
0.1117252 -0.15345681 0.48857409
0.055240911 -0.2277603 0.50850761
0.096137792 -0.2247801 0.49832031
0.118756 -0.1363833 0.49221629
0.0071683968 -0.1848605 0.52627093
0.13685711 -0.18503951 0.49234551
0.080534622 -0.1087672 0.50095612
-0.021738039 -0.24208771 0.52502871
0.1024268 -0.1064244 0.4970991
0.17452291 -0.1823888 0.60181499
-0.048350781 -0.068986028 0.54168081
0.028006811 -0.25725821 0.51522481
0.1416285 -0.26671419 0.51798052
0.02081291 -0.074744783 0.51781148
-0.0080460757 -0.30337739 0.53019518
0.1605383 -0.050049629 0.65475309
0.1272918 -0.046659809 0.59439272
0.080819443 -0.080739602 0.5039196
-0.02817126 -0.05196913 0.68311018
-0.01335305 -0.063182987 0.53615308
0.02191766 -0.1356034 0.52141392
-0.02687088 -0.13569979 0.53363669
-0.00125283 -0.2754699 0.52113628
0.13978221 -0.1524969 0.5054698
0.1533304 -0.050531849 0.69813979
-0.075874187 -0.1887619 0.55748647
-0.004972517 -0.18909431 0.52849519
0.1846097 -0.32737619 0.64038181
-0.01692481 -0.2212231 0.53131127
-0.025562439 -0.26932511 0.52957082
0.1447494 -0.16445699 0.51528049
-0.03116603 -0.1617478 0.53702432
0.096097372 -0.27276441 0.4964515
-0.03029369 -0.061171491 0.53146648
-0.052224308 -0.3001273 0.53888929
-0.01523016 -0.1130229 0.53302658
0.1122215 -0.1456572 0.49003169
0.13240109 -0.04644819 0.71360648
0.1283734 -0.27907559 0.49517399
0.1480428 -0.056312811 0.57284099
0.13078059 -0.31243941 0.48639271
0.1027655 -0.046212509 0.70733231
0.1124749 -0.045028429 0.6305989
0.1111208 -0.051688921 0.4970988
0.098402537 -0.046184141 0.60185611
0.12622 -0.1660642 0.48881599
0.1200915 -0.10716 0.49097309
0.1026062 -0.067891113 0.50550407
0.1366027 -0.24775711 0.48934469
0.1340452 -0.2368723 0.49392381
0.1418526 -0.070846573 0.51275188
0.0928239 -0.04988132 0.5407505
0.13845719 -0.062131088 0.53419721
0.1197541 -0.29148659 0.49307409
0.13057131 -0.23461869 0.4933745
0.1236667 -0.2778295 0.4933708
0.1382052 -0.248059 0.49384949
0.1755008 -0.29085919 0.61593908
0.1560474 -0.33114591 0.54767931
0.1387929 -0.2326138 0.496095
0.1450043 -0.33495921 0.52453238
0.1510019 -0.33964509 0.53018773
0.1848492 -0.3286818 0.6478073
0.1735175 -0.30159819 0.60171711
0.1573974 -0.2770026 0.55179381
0.1645156 -0.29264539 0.57374328
0.17413691 -0.3302677 0.60765988
0.1652327 -0.33151469 0.58035117
0.1576211 -0.29762191 0.55048788
0.2057991 -0.2765801 0.6987589
0.1755113 -0.28917861 0.6060974
0.1970434 -0.32490671 0.67558748
0.1378147 -0.30998209 0.49735761
0.1710902 -0.28380471 0.58743262
0.1380095 -0.31829819 0.50784749
0.19220319 -0.2808015 0.6531018
0.17374919 -0.2908875 0.60272098
0.1598462 -0.28911701 0.56329447
0.1616057 -0.33187929 0.57524443
0.14190079 -0.33431321 0.51949298
0.1453578 -0.2675941 0.52749008
0.1522048 -0.3409701 0.53264821
0.15030511 -0.25377989 0.5292598
0.1289569 -0.34101319 0.49750131
0.1981252 -0.2801294 0.67796052
0.1444542 -0.26275709 0.52826291
0.1541588 -0.33327639 0.55376792
0.2024501 -0.3274312 0.7112416
0.1788976 -0.2965858 0.60937011
0.19628049 -0.29673651 0.67752588
0.2026156 -0.2800732 0.69817859
0.1725301 -0.3091768 0.58936799
0.1944959 -0.2725257 0.66403592
0.1170578 -0.30530781 0.4951109
0.19511209 -0.33742541 0.65810943
0.1883446 -0.31119901 0.67250103
0.15714671 -0.2909984 0.56250107
0.1401076 -0.26072761 0.50100911
0.1756763 -0.34120059 0.61160702
0.1484759 -0.32109621 0.53885299
0.13028771 -0.31031251 0.4969328
0.096886814 -0.28651431 0.49531671
0.1485258 -0.26612851 0.53679472
0.133249 -0.28080511 0.49656889
0.1059189 -0.32575551 0.49216071
0.1838353 -0.32457089 0.64021218
0.1909468 -0.30388269 0.66365469
0.16563091 -0.2863217 0.58372462
0.1944093 -0.31513581 0.67036623
0.17269599 -0.2866376 0.59362382
0.1738614 -0.27907279 0.59971827
0.1415579 -0.25491291 0.51865941
0.1190113 -0.24376801 0.4925063
0.20369039 -0.3357425 0.70703179
0.1949598 -0.27363691 0.67123002
0.1697589 -0.3214415 0.59716243
0.1654913 -0.27179271 0.58598179
0.1901693 -0.29146361 0.65828902
0.13985009 -0.29692009 0.51824927
0.16696671 -0.32110599 0.58540058
0.15188751 -0.29411149 0.54437667
0.15076169 -0.32571891 0.54186922
0.1613065 -0.26111379 0.5658145
0.1920794 -0.3072373 0.65856379
0.1625292 -0.25831839 0.56524819
0.19567239 -0.30008999 0.67043662
0.1291537 -0.3308937 0.49899891
0.1459942 -0.3281022 0.53197378
0.1539022 -0.30767241 0.54400653
0.1351501 -0.28484729 0.49521229
0.20251989 -0.26818001 0.69247538
0.19434249 -0.2464516 0.66206652
0.1655989 -0.29427451 0.57585758
0.183156 -0.26325279 0.62797201
0.1615227 -0.055813491 0.57586747
0.1417205 -0.31375909 0.51345229
0.1952969 -0.057920132 0.68438983
0.2036451 -0.2188978 0.69758558
0.1710908 -0.05591153 0.59740847
0.19141971 -0.0504767 0.67542791
0.1264343 -0.054105818 0.71787471
-0.01106134 -0.059686929 0.70995343
0.1513741 -0.05075172 0.56516248
-0.04081345 -0.053204421 0.65564251
0.1071909 -0.047052089 0.71996939
0.16971029 -0.051729079 0.70206618
0.19861171 -0.1820633 0.68025488
0.20329811 -0.25103199 0.7000891
0.019111481 -0.052871261 0.62416673
0.059860531 -0.0489791 0.61936492
0.1159011 -0.052305192 0.5559926
0.1626443 -0.054085791 0.57749939
0.01387104 -0.054516051 0.64191622
-0.033945858 -0.056509141 0.62773478
-0.0148192 -0.055984139 0.70586997
0.033898558 -0.05476376 0.61388022
0.1930881 -0.2501322 0.65339887
0.14769471 -0.25922379 0.52665079
0.19093101 -0.32389891 0.65169722
0.17292459 -0.29716071 0.60037661
0.15336791 -0.27747309 0.53671223
0.01177865 -0.052697718 0.63297522
-0.038369391 -0.056586891 0.67707682
0.04323661 -0.053636219 0.66157722
0.1528125 -0.1888226 0.5339371
0.006549567 -0.052736308 0.61906362
0.086168677 -0.053711239 0.70817852
0.0860755 -0.05180544 0.7388283
-0.040529732 -0.057403151 0.59170318
0.19317921 -0.199973 0.66250908
0.073268063 -0.054803219 0.72899711
0.1886165 -0.19578721 0.64493358
0.15493231 -0.19997931 0.5579325
0.050118711 -0.053163171 0.68622559
0.1920681 -0.17745911 0.6640355
-0.076090343 -0.063907184 0.56904501
0.036336571 -0.064298481 0.64717251
-0.01454744 -0.05698159 0.63069242
0.01557887 -0.053842749 0.7103281
-0.071041733 -0.054842532 0.559582
0.01994684 -0.054221481 0.58781278
0.15631659 -0.05028668 0.70709407
0.18885741 -0.054334208 0.65287578
0.192588 -0.05798519 0.68209451
0.1085161 -0.047822211 0.72047812
-0.056572821 -0.058606539 0.58355761
0.01553935 -0.052511219 0.59163862
0.1390263 -0.22320379 0.50803739
0.049700022 -0.054150939 0.66563147
0.006828249 -0.047985669 0.61785078
0.086142018 -0.048634529 0.69878137
-0.063992947 -0.051992569 0.5866825
-0.04068619 -0.057277892 0.58534098
0.038335949 -0.051834788 0.73446143
0.1938971 -0.2470106 0.66145808
0.1768053 -0.21088509 0.60913348
0.2040337 -0.27581099 0.68895972
0.1996192 -0.28555989 0.67980659
0.0353981 -0.05061898 0.60560608
0.1416394 -0.05098683 0.7130658
0.00630638 -0.05169794 0.69807988
0.04982451 -0.05655548 0.6892786
0.055266678 -0.052012231 0.67738438
-0.032300111 -0.054021299 0.60103059
-0.01203832 -0.054053489 0.73438722
0.16991261 -0.05616134 0.70422161
-0.0080411434 -0.057236191 0.66506362
-0.042933371 -0.056692421 0.65968943
0.009742409 -0.058413889 0.66009289
0.0025203531 -0.05699959 0.56551927
0.097073227 -0.048246201 0.70230842
0.13742191 -0.2129485 0.49443671
0.13630819 -0.23551381 0.49474469
0.14109109 -0.1965601 0.502909
0.041087572 -0.051840842 0.67563581
-0.046540651 -0.0582546 0.59850961
0.15747739 -0.2175874 0.56103462
0.065889247 -0.053261548 0.73221648
0.1741624 -0.062559374 0.62339652
0.041737288 -0.052341942 0.7388643
0.1035551 -0.053559419 0.7329179
0.081673697 -0.050428689 0.71089888
-0.01851207 -0.051622659 0.72596908
0.097673029 -0.053402189 0.73571241
-0.01394951 -0.05381396 0.73817492
0.2005391 -0.053745031 0.68871611
-0.001098186 -0.056402709 0.75847572
0.1965446 -0.052558001 0.6918
0.02450305 -0.053365469 0.75735551
0.2027273 -0.1297131 0.70329362
-0.06730786 -0.058485929 0.55972338
0.01613733 -0.05855405 0.64293522
-0.02710757 -0.05881783 0.54870641
0.044518109 -0.057558861 0.62963432
0.030439019 -0.057331949 0.63298577
0.1335298 -0.2479316 0.49654821
0.1453499 -0.19882961 0.51373672
0.01307288 -0.050712202 0.57860649
0.1739722 -0.1394641 0.6084559
0.078734159 -0.055594679 0.51695311
0.11051 -0.055544142 0.50662291
0.1976662 -0.1161708 0.68226492
0.1959437 -0.078844488 0.67889458
0.2054839 -0.15200961 0.69944513
0.092606351 -0.056516021 0.51191813
-0.01520926 -0.05570906 0.62395322
0.1165987 -0.055433359 0.51987582
0.16741221 -0.058968481 0.59918439
0.040725801 -0.053529888 0.54837787
0.18509769 -0.054850999 0.65674138
-0.036836479 -0.05705598 0.64046168
0.09098658 -0.051560581 0.50936401
0.1230877 -0.05471513 0.71144319
0.015680401 -0.055012759 0.70901442
0.1530337 -0.052444961 0.71701711
0.0023261609 -0.064474732 0.66815799
0.1903604 -0.2003095 0.65356791
0.15578879 -0.1925602 0.56103402
0.1723256 -0.16699579 0.60817838
0.1620664 -0.062852502 0.57370752
0.086226627 -0.05619609 0.69777668
0.1906292 -0.0585967 0.66972661
0.01262715 -0.051451359 0.64893973
-0.0031806531 -0.05474174 0.7468828
0.069381297 -0.05433616 0.74409062
0.099542297 -0.05533215 0.71280593
0.190529 -0.3256461 0.66295493
0.1907248 -0.1342188 0.65995121
0.14916231 -0.25995001 0.52943403
0.1726478 -0.1338556 0.59651053
0.16620921 -0.1447134 0.58588761
0.1297747 -0.31812739 0.48690721
0.14590859 -0.1735415 0.52546662
-0.02092424 -0.05274621 0.6789993
0.1884886 -0.05393973 0.68721712
0.15316629 -0.16201299 0.54247117
0.003205687 -0.05763853 0.66770703
0.15261421 -0.1670661 0.53410453
0.087342598 -0.050029159 0.65616578
-0.01710376 -0.054367211 0.72127032
0.069696039 -0.05824706 0.74423552
0.1911958 -0.102754 0.66065472
0.1920851 -0.1185739 0.66737282
0.13215031 -0.1930189 0.49147201
0.15591089 -0.12868699 0.56360978
-0.0047443812 -0.058153961 0.72301543
0.1513164 -0.1345927 0.54029602
0.1684811 -0.1212961 0.60134542
0.1855043 -0.053754602 0.66484022
0.1123833 -0.05568463 0.68078518
0.1593765 -0.05822441 0.69869941
0.1850969 -0.055234551 0.6828301
0.1288681 -0.055240542 0.72415078
0.078463607 -0.053382371 0.74383342
0.18230049 -0.2429501 0.62232631
0.16710921 -0.062930383 0.6641764
-0.01202872 -0.061415609 0.66762662
0.18869209 -0.205365 0.65297472
0.1056269 -0.05310094 0.68284291
0.209316 -0.33916399 0.70312887
0.1326891 -0.055875629 0.58474588
0.1309592 -0.055275589 0.71406049
0.077770017 -0.062722594 0.71432012
0.19165561 -0.2496454 0.65218228
0.15929259 -0.071207173 0.57370079
0.1001496 -0.059620861 0.5261215
0.1573773 -0.2221532 0.54411668
0.080970138 -0.05613983 0.56574887
0.202968 -0.1278504 0.70202518
0.1467018 -0.096741199 0.54104429
0.01535684 -0.05590621 0.62453872
0.16968679 -0.067773819 0.59854251
0.083092928 -0.060964879 0.63014108
0.01490837 -0.061892241 0.58422732
0.049018439 -0.054234389 0.63499212
-0.019525019 -0.078454912 0.7573092
0.16555589 -0.048593432 0.66297638
0.1469938 -0.26730999 0.52912521
0.1545552 -0.04993993 0.71451342
0.137979 -0.2271945 0.4935053
0.05822587 -0.0513747 0.62632471
0.1497073 -0.1352381 0.54022408
0.046085451 -0.058921579 0.62585992
0.1337211 -0.1863315 0.49293631
0.021972179 -0.067408197 0.63920301
-0.055589352 -0.062355582 0.57051581
0.1499372 -0.1353571 0.54681128
0.1739002 -0.21947929 0.61144572
0.20035329 -0.087589093 0.70212168
0.1260948 -0.06204671 0.58190298
0.1124953 -0.067268103 0.56744641
0.1494249 -0.1417236 0.53263861
0.1901342 -0.1268851 0.67295301
0.17016371 -0.3223764 0.58868599
0.1378575 -0.070639446 0.49289349
0.1720003 -0.054652441 0.60039461
0.16143081 -0.053363729 0.57496732
0.078439102 -0.05347842 0.58747482
0.1133575 -0.048039708 0.5719763
0.1379468 -0.071144857 0.49517569
0.1308198 -0.1074676 0.4935534
0.14958639 -0.1282986 0.53576189
0.1387807 -0.184277 0.4952482
0.02526547 -0.050911348 0.56561607
0.1035319 -0.0522893 0.55791259
0.13737699 -0.2124403 0.4964278
0.15292449 -0.1904103 0.53453499
0.04631203 -0.054788042 0.51814169
0.13608579 -0.1215594 0.4908753
0.1420633 -0.20991389 0.5029642
0.16413771 -0.047599509 0.58322573
0.02120753 -0.052165929 0.62846351
0.1066142 -0.050657839 0.56113702
0.1366563 -0.2510314 0.4928869
0.030636489 -0.29403311 0.52381271
0.07456255 -0.1321281 0.50365728
0.1614283 -0.119811 0.56588072
0.1598694 -0.2764501 0.55152178
0.044877931 -0.049035791 0.67786449
0.084185511 -0.051127989 0.5958268
-0.01200195 -0.055757951 0.67030978
0.002021149 -0.052271049 0.54353791
0.004221722 -0.054113548 0.64541161
0.122727 -0.04906958 0.58588672
0.10425 -0.050053999 0.59865648
0.046405211 -0.052295029 0.53173977
0.04672882 -0.059120771 0.51790202
0.12527201 -0.072881728 0.49271041
-0.064867258 -0.2393617 0.55873507
0.1166256 -0.0564548 0.4956117
0.090878554 -0.1192265 0.50637847
0.01157899 -0.30974501 0.52436209
0.1456296 -0.1677244 0.51710349
0.073397927 -0.087708041 0.50903261
0.16354591 -0.28771561 0.56763202
0.03606344 -0.1308223 0.52672899
0.1179491 -0.1744888 0.49358839
0.1231838 -0.1663489 0.49505949
0.054564402 -0.052572321 0.69689357
0.17211381 -0.053285059 0.62332988
0.1472847 -0.053346779 0.58683199
0.1901947 -0.2442055 0.65677923
0.081007123 -0.05427362 0.57674527
-0.02346856 -0.05699249 0.54638767
0.1065157 -0.053671211 0.52415133
0.099372514 -0.05103993 0.51856792
0.095089093 -0.051764909 0.54168731
-0.053367089 -0.2440263 0.54880792
-0.060155779 -0.27640891 0.54972148
-0.01366927 -0.25308049 0.5378437
-0.01124962 -0.3198168 0.5348264
0.1376023 -0.1264583 0.49455899
-0.003253035 -0.1897366 0.53302252
0.01632994 -0.1086996 0.53265828
0.068263747 -0.1381149 0.505656
-0.068167523 -0.1921951 0.56208771
0.096980751 -0.14175799 0.4990516
0.047642749 -0.09098722 0.51714683
0.1232348 -0.076769501 0.4861899
0.026766369 -0.150463 0.52031142
0.029187979 -0.2198008 0.52590108
0.027897369 -0.1276051 0.52295762
-0.007045574 -0.28002739 0.53496403
0.073870666 -0.27076519 0.51029009
0.067751661 -0.273516 0.50499767
0.067466207 -0.23025011 0.50771642
-0.01840134 -0.1459036 0.54298449
0.04492186 -0.29473051 0.5163182
0.064996697 -0.051092681 0.61415827
0.086028703 -0.05835766 0.51043081
0.1046208 -0.15835349 0.49882439
0.020665631 -0.30095229 0.52126843
0.064878441 -0.1826849 0.51021892
0.1044434 -0.2190803 0.49816179
0.04800038 -0.2643801 0.5151872
-0.05615253 -0.21928141 0.55439198
-0.065488473 -0.1161137 0.55444688
0.093154296 -0.1284295 0.50630927
-0.051319629 -0.1403705 0.54716033
-0.078427657 -0.24951559 0.55651122
0.1121086 -0.31206131 0.49213049
0.1178473 -0.052012771 0.61635739
0.1363145 -0.05178003 0.58315289
0.007007197 -0.054179039 0.58466947
-0.075030044 -0.076577127 0.56077611
0.084883228 -0.055482332 0.50829452
0.006530989 -0.1527448 0.53351289
-0.02892844 -0.079925403 0.53738099
0.047042191 -0.096839979 0.51292372
-0.01431608 -0.1482693 0.54324758
0.087014109 -0.15357509 0.49788621
0.0039340998 -0.1757489 0.53093302
0.1321568 -0.31060821 0.4863798
-0.076058373 -0.088703841 0.56086808
0.069451988 -0.3285279 0.50166941
-0.04888032 -0.0542721 0.61135888
-0.069726303 -0.100276 0.55686218
0.035031959 -0.05534859 0.52169943
-0.02739976 -0.07913065 0.53983301
-0.0079060048 -0.1581258 0.53603888
0.084331073 -0.26804769 0.4984785
-0.03082158 -0.2500113 0.54168618
-0.036010072 -0.0496681 0.55908531
-0.01741345 -0.061233539 0.54258323
-0.062535539 -0.24190409 0.55517048
-0.046470929 -0.27159759 0.54029888
-0.048819851 -0.05411822 0.54699588
-0.01934929 -0.1015997 0.54323071
-0.01302718 -0.26289389 0.54548562
-0.074400008 -0.19027551 0.55990928
-0.075611278 -0.2036438 0.56285727
-0.067520507 -0.33706081 0.55314791
-0.0036232921 -0.092484653 0.54555649
-0.0415649 -0.1620083 0.54172099
0.025640249 -0.054152131 0.52257657
-0.075944997 -0.17269181 0.56627458
0.08558996 -0.1849975 0.50008398
0.1138681 -0.1836794 0.49047831
0.1140157 -0.1121195 0.49375921
0.03836995 -0.1243788 0.52240872
0.13243499 -0.055490341 0.49671239
0.132295 -0.04895306 0.64073819
-0.073292658 -0.05863452 0.5581252
0.068670049 -0.080658168 0.50798422
0.09539777 -0.1692089 0.50430298
0.07200025 -0.050469682 0.51011902
0.1135607 -0.053158689 0.53497541
0.080094308 -0.05046612 0.66891742
0.009685412 -0.05528402 0.62672728
0.021135399 -0.054440249 0.70156622
0.081737027 -0.083980411 0.50744343
0.00248909 -0.069117583 0.52956098
-0.004723981 -0.1924448 0.53408778
-0.0072211181 -0.082554311 0.53893352
-0.04384841 -0.2797288 0.54221541
-0.043744881 -0.2193688 0.54585922
-0.018180359 -0.2278405 0.53999197
-0.026640311 -0.08987391 0.54060799
-0.037125409 -0.28515169 0.53645211
0.1107662 -0.062431309 0.50205952
-0.0095690936 -0.1461322 0.55785137
0.045272838 -0.063374549 0.52213061
0.095923468 -0.1180702 0.50496638
-0.01024599 -0.064568333 0.53650862
0.1111989 -0.05429722 0.50167859
0.071021318 -0.095863253 0.51009268
0.1267807 -0.169138 0.49272621
-0.080151454 -0.29370359 0.55240202
-0.065236516 -0.082225591 0.55792612
0.1135579 -0.065963998 0.49445099
-0.081882879 -0.2948291 0.56061208
0.1135915 -0.1571672 0.49299029
0.14369661 -0.109256 0.52012771
0.106933 -0.30035779 0.49620751
0.1192959 -0.1394773 0.49475339
0.095974401 -0.3310723 0.49364749
0.1010883 -0.26846331 0.49981001
0.084250972 -0.1030035 0.50459492
0.048172548 -0.069924153 0.51993048
0.1374806 -0.30621991 0.49343261
0.129435 -0.051776439 0.58051801
0.032677218 -0.05215776 0.54392451
0.074151874 -0.052353431 0.60633379
0.12665591 -0.049717069 0.59501582
0.1618855 -0.05261052 0.6661157
0.067717388 -0.053589672 0.71933812
0.1558909 -0.0477194 0.65024298
-0.0070372671 -0.05605245 0.73474282
0.1311408 -0.054977421 0.63832158
0.1010544 -0.047342028 0.53123748
0.078938991 -0.2689015 0.50366348
0.017765939 -0.1031897 0.5291338
-0.078095213 -0.1223226 0.56622541
-0.02331768 -0.074614324 0.54593903
0.001241967 -0.25924391 0.52829468
0.105498 -0.154774 0.4975971
0.0087863356 -0.3130461 0.52237099
0.1302584 -0.28161949 0.49604991
-0.04096676 -0.04499197 0.56869078
-0.062060218 -0.1866136 0.55701661
-0.038982969 -0.2016717 0.54465592
-0.018381219 -0.1579082 0.54200548
0.02272989 -0.1369632 0.52532703
0.079637632 -0.046437159 0.60889202
0.037058219 -0.19544721 0.5215317
0.1782842 -0.055100288 0.62088633
0.1023416 -0.07073167 0.50663787
0.088865489 -0.25789759 0.50198901
0.069608442 -0.32859191 0.50356013
0.1326693 -0.1125027 0.4887591
0.0600654 -0.28843701 0.5085091
0.081628799 -0.29239681 0.5037955
0.1206536 -0.052762099 0.51916409
-0.072475433 -0.3375743 0.54300278
-0.067690253 -0.2357787 0.55502778
0.1001559 -0.05405283 0.51297683
0.1417273 -0.19744539 0.49769139
0.1599979 -0.058404941 0.57490963
0.1654682 -0.28279409 0.56058371
0.18672781 -0.330917 0.65500218
0.1321127 -0.05466415 0.5630368
0.1952785 -0.2421679 0.66169852
0.1329691 -0.25093991 0.48730159
0.1866425 -0.053222239 0.65695632
0.1938621 -0.2058515 0.65513408
0.1776651 -0.19848441 0.60747999
0.1814658 -0.2428993 0.62367249
0.18009549 -0.2874887 0.61406863
0.1781535 -0.2962282 0.59859109
0.092392437 -0.049341351 0.50779998
0.14110669 -0.2095497 0.50379223
0.1850428 -0.31818551 0.62985623
0.1749038 -0.1822727 0.60575032
0.1613109 -0.054420859 0.57729173
0.1458787 -0.2138682 0.50984728
0.1733336 -0.1618306 0.60830998
0.1883814 -0.065316841 0.64778602
0.1374356 -0.2497098 0.4923746
0.1692562 -0.05463228 0.59933507
0.1357197 -0.1211487 0.49121591
0.1882128 -0.079840392 0.65543622
0.1914008 -0.1945239 0.65092027
0.16932181 -0.1068691 0.60109782
0.18191271 -0.1792997 0.62391442
0.1661019 -0.062338259 0.58051127
0.18311881 -0.23851401 0.62137097
0.2011023 -0.2504276 0.70053041
0.164951 -0.29340899 0.57798451
0.19769029 -0.28931159 0.70672739
0.20164511 -0.32671899 0.67527819
0.1656449 -0.332358 0.58043063
0.1936004 -0.2815598 0.65302563
0.1068169 -0.050752219 0.55790722
-0.003064513 -0.1886472 0.53127432
0.13825101 -0.1268598 0.49361601
0.02027458 -0.15580679 0.52409112
0.19534691 -0.1307731 0.65416849
0.2113329 -0.2306163 0.70150638
0.1480349 -0.088883519 0.53896397
0.1479492 -0.1543172 0.53633487
0.02801007 -0.156653 0.52185082
0.1591306 -0.27687481 0.55283302
0.15729959 -0.33434379 0.55111712
0.1546299 -0.33665609 0.5286724
0.20019799 -0.1809788 0.70329952
0.1636699 -0.1087757 0.58195353
0.17620181 -0.054349989 0.62254918
0.1683235 -0.183339 0.5919767
0.1934405 -0.2002909 0.66928238
0.1593885 -0.29580849 0.54985547
0.1716509 -0.31092781 0.58959949
0.1695279 -0.2860589 0.58801168
-0.04424578 -0.3239961 0.53797472
0.1341286 -0.1358515 0.4921827
0.1300721 -0.28315851 0.49601951
0.18153749 -0.25463691 0.62299258
0.1842403 -0.14659441 0.6301924
0.13671219 -0.3065868 0.49382311
0.064369529 -0.049116131 0.6782403
0.1922885 -0.30525231 0.66347551
0.1491943 -0.099420428 0.54246002
0.17186581 -0.079512604 0.61226928
0.17281491 -0.069717713 0.60504669
0.1782023 -0.2074064 0.61102903
0.081998713 -0.04771987 0.51558161
0.1429064 -0.063129567 0.53779203
0.1983591 -0.05112442 0.67761058
0.18566839 -0.057011899 0.6561541
0.19839109 -0.215625 0.69713271
0.1889578 -0.2465276 0.6524033
0.2003728 -0.28140599 0.68969828
0.1834904 -0.33125281 0.65007871
0.1621518 -0.2014879 0.5828622
0.039890349 -0.048056658 0.58523363
0.1637568 -0.064873546 0.57248199
0.17394289 -0.17991731 0.60523027
-0.051820278 -0.2149425 0.54782748
0.1963468 -0.1022065 0.65772241
0.1679325 -0.1222337 0.5818789
0.1007205 -0.094127148 0.50107539
0.18402921 -0.097760171 0.65383792
0.13169821 -0.34052801 0.4972015
0.1920633 -0.070239842 0.66737449
0.104066 -0.053140461 0.65585297
0.2007762 -0.1245855 0.70270443
0.14816681 -0.040855501 0.60400653
0.15770669 -0.05315733 0.56427699
0.18661571 -0.047458291 0.66223419
0.1983491 -0.093937993 0.68389899
0.2018723 -0.24891829 0.70008242
0.2018851 -0.17758439 0.68027103
0.1387019 -0.15162151 0.51424581
0.2039558 -0.33949599 0.67393857
0.15884151 -0.29933861 0.579189
0.1503894 -0.1557481 0.53912342
0.18848249 -0.1918139 0.65849161
0.1771519 -0.2138748 0.62328172
0.1830823 -0.1380399 0.63265008
0.045761589 -0.053219829 0.53199822
0.1659316 -0.1797329 0.56900227
0.17136879 -0.1438203 0.60329401
-0.081680663 -0.2783055 0.5391776
0.19593599 -0.1949501 0.66065103
0.132911 -0.34069449 0.4946883
0.15613849 -0.087140381 0.55674642
0.1866497 -0.1353924 0.6612702
0.19281539 -0.119947 0.67077619
0.1791939 -0.28718051 0.60177398
0.1776164 -0.059175249 0.62193942
0.1859071 -0.20951261 0.6354506
0.1640099 -0.1038723 0.58978409
0.1489749 -0.05512559 0.53624338
0.2019033 -0.1091031 0.69986528
0.20044909 -0.19200841 0.68855619
0.14739691 -0.084802963 0.52858323
0.160763 -0.083246529 0.56776458
0.1580893 -0.052689251 0.66804987
0.1595661 -0.051969022 0.59948868
0.14974301 -0.25849041 0.52602822
0.1500538 -0.25574279 0.52994013
0.1659319 -0.05441526 0.58849782
0.16182689 -0.047953218 0.59009558
0.1050711 -0.05050014 0.52796328
0.052402198 -0.05172671 0.52957308
0.2009856 -0.1758482 0.70033962
0.1970382 -0.051158641 0.68081182
0.2017241 -0.158042 0.70371842
0.2017858 -0.2623513 0.70029968
0.1949717 -0.128453 0.69013268
0.1413113 -0.05220592 0.64944631
0.2033274 -0.099292427 0.70527321
0.1929841 -0.047988821 0.69760162
0.197274 -0.097422667 0.70658588
0.1459509 -0.053281929 0.56546718
0.14059091 -0.21907941 0.72998083
0.19889601 -0.20161641 0.70731592
0.197649 -0.1874194 0.70754898
0.1835663 -0.2358095 0.71429569
0.076864421 -0.04871637 0.74347228
0.093986467 -0.053367581 0.7407195
0.1650628 -0.063589483 0.71724772
0.044657528 -0.17569891 0.75532448
0.1153036 -0.1097089 0.73612028
0.1053898 -0.1495032 0.73734379
0.046316192 -0.2267234 0.75154018
0.0136878 -0.17759261 0.76874697
0.1806035 -0.1186985 0.71412009
0.18503051 -0.17994329 0.70418161
0.181668 -0.064356193 0.71523207
0.086768948 -0.29032049 0.74680948
0.168109 -0.076313779 0.71895951
0.016739029 -0.20390449 0.76216519
0.1860639 -0.19919319 0.71015602
0.19016451 -0.2266081 0.7107805
0.071074411 -0.1126972 0.74656862
0.20280141 -0.1130783 0.7043547
0.2016578 -0.06378448 0.70166647
0.1717995 -0.047286481 0.6276381
0.1985165 -0.1281278 0.65890229
0.1798225 -0.1533031 0.6255185
0.1663086 -0.2928175 0.56697142
0.1922812 -0.060819771 0.71052039
0.20136879 -0.1340941 0.70097768
0.1913961 -0.25482479 0.71026891
0.1916033 -0.1302111 0.71077597
0.054122869 -0.31543279 0.76288778
0.2003964 -0.2315594 0.70553583
-0.001264513 -0.33948949 0.77097309
0.1593632 -0.053817671 0.715303
0.067360282 -0.067196883 0.74914372
0.06001306 -0.085678518 0.75014251
0.1120335 -0.19056471 0.73520368
0.1466895 -0.287976 0.72887123
0.1411888 -0.2217789 0.72642559
0.08942765 -0.25107121 0.74282062
0.043710891 -0.2339682 0.75887948
0.02262626 -0.26469341 0.76572698
0.1275533 -0.33589369 0.73309219
0.1693697 -0.1449071 0.7179957
0.1598046 -0.28180221 0.71733671
0.077428043 -0.2574923 0.75048482
0.097543418 -0.1898127 0.74121392
0.099089801 -0.20837291 0.73631018
0.080416679 -0.32175511 0.74887711
0.078964889 -0.227724 0.75057942
-0.02001393 -0.050545361 0.6374318
-0.051730629 -0.050584938 0.60168493
0.19963939 -0.28099051 0.67807448
0.1846021 -0.31214389 0.71454948
0.15927909 -0.047829449 0.64584649
0.15659989 -0.14638799 0.57895082
0.033303019 -0.26897299 0.75965869
0.1517216 -0.1170219 0.51602018
0.154029 -0.31502619 0.53778541
0.15654939 -0.2490465 0.72102082
0.1438968 -0.1325932 0.72610772
0.097909808 -0.116051 0.7376523
0.15421671 -0.079408877 0.71909708
0.104608 -0.1039202 0.73673302
0.1501182 -0.086051144 0.72288942
0.049982131 -0.063411564 0.75401872
0.061720669 -0.1063249 0.75148618
0.024047321 -0.1374487 0.76007158
0.0084120631 -0.079793043 0.76251072
0.1500572 -0.14753801 0.72335583
0.01607281 -0.1747711 0.76959169
0.1518866 -0.32422981 0.7270692
0.1184441 -0.2215853 0.73372138
0.05240142 -0.20411541 0.75610417
0.037031289 -0.2264514 0.76282758
0.00288415 -0.229937 0.76914322
0.1654015 -0.33698159 0.72238368
0.1016092 -0.050245229 0.66731977
0.2015361 -0.31726411 0.70850742
0.18948489 -0.2638129 0.71156472
0.20531221 -0.3259432 0.70866889
0.19373921 -0.27218121 0.71292663
0.17777909 -0.05157676 0.68407369
0.1064517 -0.1236549 0.73687011
0.1310596 -0.04798412 0.69801009
0.20804331 -0.056083139 0.6988107
0.084880292 -0.046224859 0.65311009
0.15880729 -0.14566991 0.55974561
0.073670633 -0.088228643 0.74707842
-0.0081561208 -0.087295741 0.77064639
0.1401736 -0.086008787 0.72365463
0.097046264 -0.048009779 0.73202521
0.054743528 -0.27360639 0.75049901
0.101298 -0.17848539 0.73680383
0.1095964 -0.27569559 0.73659629
0.098708421 -0.33776179 0.73868787
0.1078913 -0.30996221 0.73798847
0.04304767 -0.2179525 0.75810832
0.03145868 -0.20547789 0.76018608
0.065063544 -0.2189562 0.75246739
0.02445966 -0.24182899 0.76746118
0.05294114 -0.27561691 0.75906008
0.081808031 -0.2335249 0.74839342
0.0076593161 -0.1639518 0.766958
0.17952579 -0.27943999 0.71765321
0.1572043 -0.088453412 0.72019768
0.1967919 -0.2549077 0.69329172
0.1571954 -0.063602507 0.71727782
0.1984062 -0.096335322 0.71021479
0.14518251 -0.063260138 0.7207883
0.086694963 -0.063019417 0.74108839
0.076573908 -0.06659466 0.74800038
0.097093999 -0.082146257 0.73710042
0.096289583 -0.2205673 0.74192041
0.090162396 -0.20492969 0.74142289
0.0081616044 -0.137715 0.7676146
0.128123 -0.064967453 0.55831587
0.1812759 -0.050188899 0.66200107
