# .PCD v0.7 - Point Cloud Data file format
VERSION 0.7
FIELDS x y z normal_x normal_y normal_z curvature
SIZE 4 4 4 4 4 4 4
TYPE F F F F F F F
COUNT 1 1 1 1 1 1 1
WIDTH 585
HEIGHT 1
VIEWPOINT 0 0 0 1 0 0 0
POINTS 585
DATA ascii
0.12543607 -0.44121316 0.63539994 0.33472711 -0.87896693 0.3396686 0.073535077
0.13426512 -0.44028789 0.63477272 0.43351185 -0.78188854 0.4480153 0.088165529
0.14206246 -0.43939069 0.63233703 0.53530228 -0.66099268 0.52587074 0.082323998
0.15455414 -0.44162068 0.62015176 0.47114578 -0.7394281 0.48090291 0.080259942
0.15817565 -0.43980703 0.61720759 0.51830542 -0.65955275 0.54438007 0.087959439
0.005837725 -0.44017193 0.64258695 -0.54066837 -0.67335528 0.50425231 0.070381731
0.015001148 -0.44374731 0.64531851 -0.43422705 -0.7981109 0.41769093 0.069401249
0.025266562 -0.44430912 0.64537859 -0.41321608 -0.80970776 0.41668418 0.078286327
0.047473952 -0.4435522 0.64756256 -0.18506162 -0.90808797 0.37567064 0.084326148
0.058342803 -0.44451374 0.64656562 -0.087914497 -0.93500072 0.34357649 0.078267075
0.082470514 -0.4448165 0.64435434 0.057480223 -0.95056361 0.30516359 0.072553813
0.095254414 -0.44340143 0.64056873 0.16232403 -0.93784988 0.3067385 0.073275007
0.10473288 -0.44216475 0.6453262 0.21589443 -0.89516562 0.38995907 0.080868214
0.11607435 -0.4406063 0.64538556 0.30182534 -0.85896754 0.4136135 0.079357311
0.12303381 -0.44012699 0.64393163 0.32761729 -0.87598163 0.35400999 0.074864715
0.13264304 -0.43825051 0.64054418 0.4927851 -0.72779799 0.47694126 0.089871459
0.016325021 -0.44369081 0.6535446 -0.51536363 -0.65862751 0.54827917 0.067856692
0.02565836 -0.44275561 0.65458435 -0.43399388 -0.74368286 0.50851262 0.081841797
0.034121662 -0.44142428 0.65759104 -0.3931765 -0.72419173 0.56653214 0.094415106
0.046364784 -0.44191566 0.65662944 -0.25731507 -0.83411926 0.48788723 0.10447808
0.05725307 -0.44383547 0.65105641 -0.089850061 -0.91694403 0.38876796 0.087305784
0.075269803 -0.44387558 0.65517974 0.029506704 -0.89818913 0.43861777 0.10472747
0.092653565 -0.44245914 0.65497917 0.1949134 -0.82963341 0.52317995 0.11083156
0.10567506 -0.44091085 0.65614992 0.30619642 -0.79009402 0.5310322 0.10420635
0.11216548 -0.44023231 0.65325671 0.35147586 -0.75802428 0.54942149 0.097930759
0.1182101 -0.44169214 0.6489799 0.30649889 -0.85599148 0.4163377 0.082015753
0.12892579 -0.4373557 0.64724964 0.46775478 -0.75133973 0.46550402 0.089556582
0.019752791 -0.44138807 0.66228658 -0.51939017 -0.62143266 0.58656228 0.081290133
0.025367821 -0.44123808 0.66340864 -0.50534105 -0.59253323 0.62732357 0.088862911
0.033901405 -0.4403128 0.66408777 -0.3830305 -0.69420421 0.60939974 0.099223614
0.044750016 -0.44031706 0.66703999 -0.29077774 -0.75203198 0.59152019 0.10737916
0.053988636 -0.44109789 0.66615641 -0.14952372 -0.812832 0.56298023 0.10997306
0.067240551 -0.44249409 0.66572946 -0.004509063 -0.8037079 0.59500688 0.12575999
0.077602953 -0.44117376 0.66698974 0.067960039 -0.76664764 0.63846129 0.13032709
0.085284658 -0.44179249 0.6629228 0.153776 -0.7882545 0.59582525 0.12585698
0.091733001 -0.44083294 0.66821784 0.22736076 -0.7161532 0.65987241 0.12713642
0.10347426 -0.44028243 0.66336161 0.32377362 -0.70619434 0.62965089 0.11200989
0.11199666 -0.4381783 0.66163552 0.3765879 -0.69033414 0.61775434 0.10605787
0.035894133 -0.4353472 0.66943365 -0.44007075 -0.59589422 0.67174983 0.10351782
0.03960114 -0.438362 0.66863424 -0.37584418 -0.68043333 0.62908804 0.10833617
0.046542704 -0.43871418 0.67297846 -0.29911655 -0.66517586 0.68415672 0.11424708
0.056858655 -0.44063461 0.67238832 -0.10795977 -0.75457591 0.64727122 0.12545949
0.064484514 -0.440115 0.67496061 -0.031940319 -0.69535911 0.71795237 0.13292965
0.07929682 -0.44026989 0.67852873 0.098524839 -0.64626253 0.75672829 0.13209316
0.085239783 -0.43984824 0.67811602 0.16246933 -0.60621446 0.77852929 0.13515401
0.093440004 -0.43987748 0.67423064 0.24056104 -0.66110033 0.71068764 0.12574348
0.10270778 -0.43844905 0.67269051 0.33589122 -0.59269845 0.73204201 0.1196107
0.046165179 -0.43852031 0.67607915 -0.28172055 -0.64041907 0.71449071 0.11513727
0.049901206 -0.43685287 0.67838782 -0.19517167 -0.63051546 0.75123775 0.12575209
0.056733727 -0.43731654 0.68114507 -0.12873794 -0.62721401 0.76813352 0.13117225
0.067526773 -0.43803671 0.68450534 -0.029776568 -0.63189924 0.77447832 0.13394842
0.076760575 -0.44014168 0.68563741 0.059935417 -0.59250504 0.803334 0.13571826
0.084741324 -0.43994147 0.68308508 0.16075923 -0.55872631 0.8136223 0.13376381
0.094095506 -0.43980554 0.68011761 0.23923951 -0.58311492 0.77636421 0.12985358
0.10088597 -0.43808627 0.68182683 0.33617958 -0.50399965 0.79559255 0.12513837
0.10988937 -0.43536946 0.68132848 0.43573934 -0.39808977 0.80725199 0.10307422
0.052311964 -0.44018549 0.68009394 -0.1718557 -0.68579924 0.70720929 0.12260512
0.059556693 -0.43899548 0.68252265 -0.10569009 -0.64679474 0.75530535 0.13089143
0.067622632 -0.43578935 0.68681681 -0.016078133 -0.54814237 0.83623052 0.13223471
0.073974453 -0.43790591 0.6926201 0.035986856 -0.52474415 0.85049897 0.13269798
0.083753176 -0.44013366 0.69092858 0.11016744 -0.53935683 0.83483976 0.13237132
0.10358436 -0.43308797 0.69255221 0.40013105 -0.31570154 0.86036485 0.10568102
0.062612392 -0.4387573 0.68580663 -0.078503139 -0.60723001 0.79063833 0.12933339
0.067685679 -0.43556502 0.68759179 -0.025070939 -0.54407948 0.83865899 0.13349076
0.089221247 -0.43523943 0.70202851 0.18837909 -0.28182307 0.94079167 0.11326827
0.10368242 -0.43428767 0.71013433 0.30640355 -0.23841514 0.92156118 0.10618971
0.16066465 -0.44230044 0.43749043 0.67728645 -0.40301418 -0.61551809 0.072369121
0.078471094 -0.34702179 0.38533348 -0.039185926 -0.020742111 -0.99901658 0.065436855
0.015666658 -0.18413089 0.43657431 -0.60461658 0.41387409 -0.68054903 0.062590115
0.075728454 -0.20142457 0.38886797 0.018787654 0.21829423 -0.97570217 0.056009516
0.15816575 -0.14440723 0.58568376 0.36882669 0.84713197 0.38253665 0.055965316
0.048294682 -0.15454805 0.41621661 -0.20940635 0.73214686 -0.64815897 0.082482494
-0.036324751 -0.15355395 0.49198049 -0.46213311 0.81763577 -0.34337255 0.064166427
-0.042613637 -0.15041313 0.5083257 -0.42188692 0.87262821 -0.24603161 0.064459741
-0.072216563 -0.19205651 0.5177511 -0.95681179 0.2035677 -0.20753643 0.083647795
0.03476375 -0.18892063 0.41853857 -0.49553296 0.36718136 -0.78716254 0.058686819
0.0079377191 -0.20492814 0.4437696 -0.66272289 0.20070937 -0.72146666 0.02702667
0.16027106 -0.4569262 0.44079313 0.59996909 -0.60653812 -0.52167857 0.089885235
0.039725423 -0.16977704 0.41798976 -0.39415634 0.52781093 -0.75236714 0.079240471
0.19540955 -0.14832376 0.55569798 0.5843572 0.79821837 0.14619876 0.091157041
0.083502159 -0.43307716 0.39120507 0.12177351 -0.53386784 -0.83675343 0.1364115
0.18329504 -0.43704829 0.49101382 0.62438065 -0.61120456 -0.48639253 0.071785867
0.19009113 -0.14873715 0.56233793 0.51005358 0.83555186 0.20420222 0.081998564
0.0073663178 -0.15582943 0.44950345 -0.47770646 0.6986407 -0.53263265 0.06924247
0.14344281 -0.14327705 0.53183043 0.14337845 0.98962849 -0.0088348687 0.014195455
0.061404042 -0.14576057 0.53492111 -0.024609352 0.99969715 -0.00010089207 0.00027794746
0.093691356 -0.1455667 0.48320302 0.061612066 0.99201024 -0.11008893 0.015908938
0.12442639 -0.15430672 0.63663661 0.45997041 0.73967695 0.49122834 0.073258668
0.08290305 -0.14546447 0.44670916 0.031412013 0.93882555 -0.34295759 0.05242607
0.063839406 -0.14557749 0.52393728 -0.019906279 0.99978924 -0.0050133448 0.00020623689
0.014723171 -0.15165326 0.44438216 -0.43794969 0.7436949 -0.50509202 0.070978038
0.033126328 -0.15267926 0.42960766 -0.3843725 0.7313841 -0.56332505 0.081772447
0.019505255 -0.15286013 0.44250226 -0.42042986 0.74447072 -0.51865417 0.078810595
0.0053225923 -0.14554784 0.51473653 -0.15257654 0.98105007 -0.11942071 0.032485962
0.047285222 -0.15817055 0.41671184 -0.23941189 0.70165533 -0.67109001 0.085119747
-0.0081429258 -0.1978763 0.45766434 -0.66462433 0.28524616 -0.69058603 0.047058333
-0.027574591 -0.14961214 0.49647465 -0.40470499 0.87028211 -0.28075445 0.054752514
-0.048029136 -0.17434201 0.49325174 -0.71140736 0.46809483 -0.52420098 0.083737962
-0.0686066 -0.3109248 0.51002014 -0.92837095 0.069299579 -0.36513686 0.039486624
-0.070637204 -0.43154234 0.50912428 -0.77770418 -0.53319603 -0.33298382 0.10379694
-0.073024474 -0.33546537 0.51537585 -0.95956236 0.047296137 -0.27749431 0.062069133
-0.042847872 -0.33322141 0.4837569 -0.73054481 0.062598929 -0.67998946 0.011993993
0.091035873 -0.14569615 0.44858018 0.10497682 0.93277478 -0.34483498 0.051333074
0.073776871 -0.15085776 0.40827423 0.030754803 0.71564484 -0.69778693 0.077184007
0.16935934 -0.14872421 0.48729733 0.36667213 0.86436802 -0.34412128 0.050689276
0.048420954 -0.15320343 0.41796964 -0.193472 0.76293141 -0.6168502 0.083162561
0.035727091 -0.15004437 0.43105352 -0.33557692 0.76992029 -0.54278058 0.081845604
0.038059928 -0.36261526 0.41149366 -0.48602098 0.027053382 -0.8735283 0.027121123
0.010691457 -0.3566635 0.43521085 -0.64320856 0.025877966 -0.76525354 0.00051671185
0.02883305 -0.32080615 0.42260358 -0.58012158 0.027657935 -0.81406015 0.0078241145
0.049058411 -0.44052464 0.41104513 -0.34271353 -0.65601581 -0.67245126 0.097728193
0.009026085 -0.3902033 0.43450281 -0.63196957 -0.13871235 -0.76247841 0.024987228
0.011452277 -0.35813007 0.4344739 -0.64188945 0.025194691 -0.76638317 0.00054610352
0.026389712 -0.37218726 0.42117205 -0.59232813 -0.030082326 -0.80513501 0.0077098301
0.052054841 -0.4283033 0.40186569 -0.38382313 -0.47971305 -0.78902167 0.094327904
0.082388207 -0.3059991 0.38525188 0.10067559 -0.0015334489 -0.99491817 0.058758285
0.059706055 -0.39437181 0.3941592 -0.29072371 -0.13853881 -0.94672418 0.071951017
0.052360117 -0.346423 0.40146652 -0.3861903 0.026688887 -0.92203289 0.046020482
0.07929901 -0.35144997 0.39062914 0.000464688 -0.026953854 -0.99963659 0.06797561
0.065224275 -0.40782744 0.39087853 -0.16965318 -0.2130632 -0.96219635 0.092182331
0.050489865 -0.36453909 0.40230024 -0.41834712 0.032265149 -0.90771401 0.030359872
0.076266624 -0.29449248 0.38593751 0.11485548 -0.014663042 -0.99327403 0.058626875
0.048328325 -0.36563855 0.4042803 -0.44777736 0.026785942 -0.89374381 0.027522167
0.019035345 -0.32889023 0.43006006 -0.62418824 0.045632042 -0.77994025 0.001480624
0.05354524 -0.3218751 0.40253428 -0.32690936 0.0037540288 -0.94504821 0.052160591
0.056858797 -0.39707354 0.39590091 -0.33674929 -0.15349174 -0.92899954 0.067422993
-0.030013638 -0.14844257 0.49323854 -0.41675881 0.85925364 -0.2966398 0.054677278
-0.073371924 -0.28518784 0.52068383 -0.94705307 0.047208026 -0.31758747 0.039173461
-0.074635133 -0.32917568 0.51799625 -0.97407407 0.039213985 -0.22280478 0.056998599
-0.02601891 -0.28427643 0.47006172 -0.68569803 0.037607111 -0.72691399 0.0010762381
-0.075614609 -0.30394372 0.52551156 -0.98803431 0.010133931 -0.15390056 0.059360661
-0.019078683 -0.24696369 0.46728244 -0.66917443 0.019711507 -0.74284393 0.00030617588
-0.0042903638 -0.23297906 0.45510316 -0.67268223 0.022971461 -0.73957479 0.00029674679
-0.0099732941 -0.19889928 0.45937115 -0.66580987 0.27726543 -0.69269121 0.046406221
-0.039504923 -0.2490347 0.48495638 -0.77490652 0.028754318 -0.63142151 0.015655419
-0.066059098 -0.23466974 0.51191556 -0.92858809 0.011364525 -0.37093815 0.045202054
-0.064071253 -0.23170729 0.50886685 -0.91487432 0.0078834798 -0.40366173 0.043785363
-0.057345044 -0.2578308 0.50048923 -0.86356944 0.042608082 -0.50242645 0.034444299
-0.063411072 -0.36688244 0.50018048 -0.82581806 0.041284416 -0.56242347 0.032728475
-0.014408562 -0.39720532 0.45507163 -0.63325179 -0.22601996 -0.74020749 0.04676497
-0.072236128 -0.37106335 0.51031095 -0.89138955 0.044400547 -0.451058 0.034470353
-0.054509446 -0.37990883 0.49070063 -0.75860417 -0.055291023 -0.64920145 0.026272714
-0.053177722 -0.4125874 0.48777944 -0.73040974 -0.30424237 -0.61150473 0.063102283
-0.03172848 -0.41306472 0.47069818 -0.6333279 -0.29840773 -0.71403688 0.06026401
-0.03537843 -0.34604487 0.47557947 -0.69367212 0.049034953 -0.71861994 0.0032698356
-0.0071659461 -0.39021665 0.44934875 -0.6416204 -0.15122934 -0.75196606 0.026623011
-0.0085135354 -0.42180955 0.45144895 -0.60801083 -0.38171408 -0.69614452 0.067447864
-0.064359501 -0.39328316 0.49931049 -0.81625712 -0.17119908 -0.55173838 0.052805874
-0.061574638 -0.38803366 0.49695364 -0.78676641 -0.10782057 -0.60776091 0.038639773
-0.045982905 -0.41032737 0.4833369 -0.70569986 -0.29552317 -0.64393616 0.060983036
-0.075552285 -0.39688975 0.51370269 -0.91507691 -0.18811053 -0.3567194 0.070745759
-0.017951168 -0.43198076 0.46059629 -0.57010585 -0.50624633 -0.64706564 0.074782416
-0.0096726092 -0.34471902 0.45396486 -0.65584528 0.038090266 -0.75393373 0.00011611036
-0.0010562174 -0.37604833 0.44414273 -0.64696628 -0.05438244 -0.76057684 0.0064179217
0.0049640392 -0.42747051 0.44133675 -0.57144725 -0.4279559 -0.70021552 0.0658959
-0.016588651 -0.40899557 0.45707837 -0.62095004 -0.27612123 -0.73360622 0.058020391
-0.045778587 -0.39969271 0.48159769 -0.70989442 -0.19481209 -0.67682958 0.044716693
0.0062251478 -0.15318613 0.45221525 -0.44032216 0.74647009 -0.49889761 0.066877082
0.0030514135 -0.43019176 0.44204977 -0.57540452 -0.44821364 -0.68411559 0.065887406
-0.021412805 -0.20135251 0.46906367 -0.66390347 0.24948491 -0.70497483 0.043236572
-0.025630316 -0.17395538 0.47491404 -0.62000245 0.44435048 -0.64664489 0.073920876
-0.039592694 -0.2397951 0.48634213 -0.77774256 -0.0017103299 -0.62858063 0.016814277
0.044016469 -0.17696573 0.41476363 -0.37820542 0.49904564 -0.77968836 0.079684108
-0.012463233 -0.36785543 0.45472503 -0.65236998 -0.03549549 -0.75706899 0.004218318
-0.071604982 -0.37952533 0.50859416 -0.88985109 -0.040965524 -0.45440817 0.043798044
-0.017079858 -0.16024493 0.46783373 -0.56770992 0.58582938 -0.57836777 0.072444715
0.075113319 -0.26233074 0.38754299 0.21982092 0.068386659 -0.9731403 0.070071317
0.047557555 -0.2110554 0.40654591 -0.39128426 0.13383301 -0.91048628 0.049389821
-0.043755136 -0.18138659 0.48761195 -0.70766377 0.38197923 -0.59439373 0.066588968
-0.032661993 -0.38811925 0.47083959 -0.68007296 -0.11598674 -0.72391152 0.021929039
-0.062734 -0.20477428 0.50501114 -0.89608121 0.1271728 -0.42528287 0.056799099
-0.060060285 -0.25222582 0.50492501 -0.87144291 0.031925086 -0.4894568 0.035332292
0.032791268 -0.19114843 0.41984156 -0.51373035 0.33634403 -0.78927422 0.054250635
-0.040310267 -0.16528371 0.48869184 -0.62422752 0.58395135 -0.51898062 0.073022336
-0.028049352 -0.41974503 0.46847823 -0.61825573 -0.35062146 -0.70343763 0.067081615
0.053195406 -0.25886056 0.3991189 -0.30024785 0.045621496 -0.95276964 0.063555814
-0.03612702 -0.2284864 0.48173612 -0.74535847 0.024417713 -0.66621661 0.0098875193
-0.040784847 -0.38277289 0.47826228 -0.69943398 -0.085925877 -0.70951313 0.018061327
0.034454316 -0.18031949 0.42085084 -0.47027934 0.43799937 -0.76615518 0.066891357
0.073734827 -0.38730985 0.38968173 -0.06889648 -0.086234339 -0.99388981 0.066597916
0.081444003 -0.4304111 0.38979381 0.10213278 -0.45051399 -0.88690811 0.13227825
0.0059016705 -0.28660661 0.44364116 -0.66640788 0.029135691 -0.74501789 0.00025545797
0.0055701188 -0.22130077 0.44546556 -0.66824138 0.085760586 -0.73898488 0.0038781399
-0.00054786762 -0.22316797 0.45220548 -0.67151797 0.07231459 -0.73745108 0.0030710045
0.06485907 -0.20379454 0.3953324 -0.18768527 0.202006 -0.96123242 0.059146058
0.076869801 -0.26433948 0.38781908 0.23703271 0.057877235 -0.96977609 0.066207461
0.042355217 -0.20894785 0.41055205 -0.45120171 0.15667529 -0.87856126 0.042462964
0.0034189664 -0.35215029 0.44157809 -0.64962047 0.026144421 -0.75980896 0.00023719692
0.066114321 -0.20744848 0.39617771 -0.14257103 0.1776523 -0.97371107 0.061557304
0.070898168 -0.39852101 0.38938284 -0.093471311 -0.15466656 -0.98353511 0.085290045
0.045897562 -0.37491935 0.40439069 -0.46062779 -0.010013044 -0.887537 0.028503124
0.031170473 -0.22720701 0.42050856 -0.56997967 0.050246403 -0.82012105 0.015493808
0.014632408 -0.39515534 0.42912361 -0.62573278 -0.15330525 -0.76482415 0.02609916
0.10874046 -0.14426841 0.56685454 0.031449575 0.99720907 0.067712873 0.007197605
-0.001763913 -0.38901556 0.44401515 -0.64407647 -0.13892427 -0.75224036 0.02630125
-0.027411409 -0.28309688 0.47145045 -0.68590015 0.037874937 -0.72670931 0.0010970025
-0.056127775 -0.15708749 0.50543356 -0.63279206 0.69105488 -0.34930965 0.091891222
-0.044248734 -0.36480063 0.48192537 -0.72645938 -0.0026639742 -0.6872043 0.012976276
-0.018182553 -0.20073727 0.46681538 -0.65698659 0.27200207 -0.70312405 0.048303291
0.067078635 -0.15430516 0.39842311 -0.028626172 0.64503431 -0.76361728 0.079753138
0.06974066 -0.15704699 0.39980286 -0.0084541691 0.6198585 -0.78466809 0.084773697
0.041479208 -0.38471329 0.40730953 -0.48350865 -0.085115656 -0.87119156 0.036300417
0.045542747 -0.35174069 0.40611863 -0.45873797 0.026545202 -0.88817501 0.034919105
0.1412717 -0.14954707 0.44898364 0.41154706 0.74348038 -0.52712995 0.068346485
0.20189594 -0.41826066 0.50541896 0.80562323 -0.34695047 -0.4802047 0.066271409
0.19489166 -0.15124746 0.51044786 0.61992037 0.74460346 -0.24751657 0.096534327
0.19987947 -0.28455687 0.50653821 0.86243218 -0.0044073169 -0.50615352 0.024633542
0.1485275 -0.38523769 0.44577485 0.73007977 -0.12840599 -0.67118955 0.02852924
0.064048186 -0.14613418 0.45056435 -0.034837298 0.95330399 -0.29999617 0.043483175
0.16992949 -0.29597926 0.47092843 0.75252533 0.035361931 -0.65761316 0.00029658247
0.11706635 -0.24797203 0.41426083 0.65108001 0.036690645 -0.75812179 0.017121615
0.081210122 -0.43617317 0.39307892 0.066673212 -0.60133284 -0.79621196 0.13340437
0.13503322 -0.29148111 0.43187299 0.71512043 0.0273793 -0.69846493 0.0019285972
0.10567018 -0.43045446 0.40481091 0.43124071 -0.49258125 -0.75590682 0.095653169
0.16658688 -0.43145463 0.47203544 0.55334324 -0.62530035 -0.55028242 0.081198826
0.11569368 -0.29078999 0.41123533 0.64278108 0.025733439 -0.76561761 0.015321371
0.14890295 -0.42286292 0.45001563 0.58253539 -0.58882707 -0.56029916 0.08825241
0.10343958 -0.2068619 0.40186593 0.42515686 0.21064574 -0.88026702 0.056446865
0.13715015 -0.15135528 0.44577223 0.4214834 0.72500157 -0.54472417 0.066771865
0.21444733 -0.42441449 0.52536869 0.85246426 -0.47456995 -0.21928973 0.10190523
0.12568219 -0.4311294 0.42659459 0.53923345 -0.5968653 -0.59412044 0.087307155
0.20994332 -0.33796835 0.51758593 0.91444039 0.017708285 -0.40433306 0.031103587
0.16857418 -0.25242555 0.47358623 0.74373043 0.018451 -0.66822493 0.00055238162
0.1278747 -0.39750814 0.42557529 0.63087612 -0.22182797 -0.74349695 0.049508266
0.13212886 -0.37652609 0.42685097 0.67852461 -0.070975803 -0.73114067 0.013233097
0.13348581 -0.23934375 0.43437997 0.71880901 0.021897899 -0.6948626 0.002186165
0.11499669 -0.17882441 0.41622034 0.52158087 0.41321966 -0.7464602 0.060232218
0.17099984 -0.14928357 0.48594394 0.39025354 0.84351289 -0.36903688 0.050144028
0.20662653 -0.29440373 0.51521641 0.89182591 0.011165306 -0.45224106 0.029802876
0.096898809 -0.24418497 0.39515954 0.47839779 0.080703661 -0.8744269 0.053658795
0.2028601 -0.37665239 0.50533277 0.85874075 -0.027808864 -0.51165527 0.024591664
0.16676788 -0.39318988 0.46878758 0.74453568 -0.21643674 -0.63152337 0.045663647
0.20488013 -0.22247659 0.51183623 0.87652427 0.016830191 -0.48106343 0.028427202
0.19637699 -0.15219171 0.51019388 0.64168268 0.72041011 -0.26315898 0.096453145
0.16304243 -0.23457681 0.46965191 0.73851526 0.025519267 -0.67375362 0.00044714741
0.15501195 -0.27786514 0.45578676 0.74621159 0.03798613 -0.66462421 0.0001601721
0.15526791 -0.43765071 0.45769188 0.52133119 -0.68127578 -0.51388437 0.092191815
0.17853765 -0.30514091 0.4802523 0.76330048 0.035734337 -0.6450547 0.00078666542
0.1650461 -0.39076087 0.4661518 0.74402738 -0.21213028 -0.63358033 0.046909966
0.21240592 -0.15580575 0.53419554 0.77652133 0.62521338 -0.0782483 0.11434001
0.13689157 -0.2546466 0.43723288 0.72500896 0.023143865 -0.68835044 0.0016183853
0.1999096 -0.22639944 0.50674093 0.85447913 0.0042845495 -0.51946795 0.02209653
0.14467591 -0.26706707 0.44549623 0.74106759 0.032908797 -0.67062342 0.00029342843
0.029467303 -0.14456871 0.48375142 -0.17027172 0.9665696 -0.19170523 0.038586598
0.15527505 -0.22952293 0.46090147 0.73856914 0.029934496 -0.67351288 0.00046962441
0.15718679 -0.14654146 0.4897213 0.28515854 0.91451645 -0.28695694 0.04698788
0.13911076 -0.14385709 0.506437 0.13963789 0.97772509 -0.1566999 0.033545826
0.22122307 -0.27137867 0.54633296 0.99888635 0.033671491 -0.033049274 0.069411822
0.17357573 -0.15077595 0.48585626 0.42273307 0.81584877 -0.39457256 0.055026967
0.22261967 -0.34320533 0.54607177 0.99813581 0.021118041 -0.057262488 0.0562841
0.16653521 -0.24463816 0.47262534 0.74016678 0.021338228 -0.67208469 0.00040045017
0.087520167 -0.16302077 0.40011463 0.19845073 0.5839628 -0.78714979 0.07176698
0.16717742 -0.14755088 0.49087948 0.33330607 0.89221507 -0.3047283 0.051131111
0.22518291 -0.24255604 0.54256433 0.99754786 0.022556877 0.066252992 0.062676571
0.085827008 -0.37324914 0.39285457 0.1390249 -0.022236258 -0.99003923 0.057574563
0.11187322 -0.358183 0.40582877 0.43501836 -0.036602676 -0.89967734 0.050928593
0.15509006 -0.14983828 0.46601236 0.42414925 0.73791337 -0.52495825 0.063169912
0.059507009 -0.14642312 0.44061103 -0.071606569 0.90560424 -0.41803533 0.06584809
-0.039302662 -0.15237318 0.56164408 -0.44180098 0.85434049 0.27370462 0.074799664
0.087335765 -0.29752016 0.38843548 0.24018666 -0.0019239887 -0.97072482 0.056994222
0.10435706 -0.27608511 0.40059528 0.59476519 0.028688217 -0.8033874 0.024240261
0.18194403 -0.25037169 0.48578924 0.76832378 0.020059314 -0.63974696 0.0019159535
0.20235054 -0.29870534 0.50933504 0.88194889 0.038294155 -0.469787 0.026940301
0.10243319 -0.15732601 0.41814244 0.30038396 0.67041111 -0.67846763 0.077474341
0.015008496 -0.14513993 0.50915301 -0.15643132 0.98013544 -0.12191673 0.033353038
0.083348893 -0.4067477 0.38906968 0.092002802 -0.23022771 -0.96877795 0.10201045
0.19001403 -0.14702861 0.51893318 0.52756393 0.84070635 -0.12202157 0.090739124
0.0081786746 -0.14845406 0.58078194 -0.28339896 0.92506582 0.25286052 0.052328691
-0.06906528 -0.15841401 0.52413779 -0.75592995 0.6457842 -0.10738996 0.10980473
0.12592259 -0.20421144 0.4251951 0.67598438 0.21335974 -0.70535302 0.026589619
0.034660336 -0.15021363 0.63841164 -0.3769848 0.82081896 0.42911375 0.061480299
0.18833406 -0.14620323 0.5223937 0.48944315 0.87023962 -0.055932276 0.085357614
0.1528244 -0.30743712 0.45252541 0.74566734 0.031028554 -0.66559553 0.00013784373
0.21669267 -0.15638149 0.54216498 0.79174429 0.60995692 0.033066999 0.10800364
0.21292783 -0.26718923 0.52030551 0.92799807 0.0076145669 -0.37250724 0.051076267
0.16039866 -0.43841207 0.46269792 0.52439731 -0.67399341 -0.52032709 0.085814692
0.10023647 -0.18577315 0.39909062 0.36961988 0.37749547 -0.84904552 0.065340288
0.12189628 -0.14770287 0.44575432 0.37853533 0.78984302 -0.4825547 0.064637125
0.21618608 -0.27732253 0.53088403 0.95641774 0.030287173 -0.29042673 0.060421649
0.12366724 -0.26045063 0.42129123 0.6728332 0.029669611 -0.73919904 0.011492309
0.19200028 -0.14846899 0.57124889 0.57286942 0.72122157 0.38943559 0.082188539
0.085797548 -0.1511426 0.66679472 0.19234282 0.69994444 0.68780965 0.078463122
0.12467659 -0.14733054 0.63168579 0.42983153 0.773561 0.46566963 0.076061182
0.22044195 -0.28056347 0.54190266 0.99164122 0.033951245 -0.12447917 0.064991347
-0.035163637 -0.14870247 0.54531032 -0.37680638 0.91786128 0.12469044 0.069272362
0.074612424 -0.34401682 0.38931653 -0.13322815 -0.016372154 -0.99095017 0.063578136
0.07465978 -0.21580182 0.38856727 0.11323027 0.15794228 -0.98093474 0.053453729
0.030362431 -0.14743187 0.62087816 -0.33709919 0.89302874 0.29810032 0.04288514
0.22088671 -0.19426602 0.54789001 0.95840955 0.20509741 0.19845916 0.076935433
0.22497174 -0.37274706 0.54603523 0.99441957 -0.058769956 0.087612018 0.050415229
0.15970555 -0.25425929 0.46295956 0.74426383 0.028609974 -0.66727269 0.0002193223
0.11310116 -0.1467929 0.44938058 0.31274715 0.85555625 -0.41256842 0.062479194
0.20764206 -0.16777824 0.52148914 0.80833542 0.55674648 -0.1913823 0.10753471
0.216667 -0.38445961 0.53183424 0.98184466 -0.12753615 -0.14041217 0.0749598
0.11615308 -0.37788099 0.41209292 0.54675472 -0.063584827 -0.83487499 0.03863382
0.14187446 -0.15047774 0.618366 0.4647474 0.71836829 0.51764548 0.074332066
0.092302382 -0.35834703 0.39016965 0.18210717 -0.025640259 -0.98294437 0.060881458
0.10039381 -0.43722305 0.68293417 0.34205693 -0.47933754 0.80822802 0.12726168
0.099825159 -0.14978607 0.4345988 0.27885213 0.77797538 -0.56302381 0.078082055
0.096634179 -0.27611834 0.39415249 0.5213421 0.029515369 -0.8528372 0.036355495
0.096671648 -0.41309696 0.39547315 0.35974154 -0.30469376 -0.88190007 0.099023491
0.17947836 -0.294094 0.48176134 0.77122867 0.037709367 -0.63544035 0.0016839398
0.078916341 -0.1457137 0.65170163 0.034859445 0.8730371 0.48640618 0.074582405
0.15915632 -0.28490329 0.61651659 0.66330987 0.035425287 0.74750584 0.00029766301
0.22260068 -0.30239195 0.54975718 0.99786568 0.034801081 0.055253562 0.053243734
0.15075888 -0.24083753 0.62161773 0.65445411 0.036217254 0.75523382 0.00021596158
0.15709668 -0.20449416 0.61616147 0.65044314 0.17809694 0.73838007 0.022923503
0.14310889 -0.35380629 0.63420564 0.65245163 0.012031951 0.75773489 0.00039561349
0.22350276 -0.25591674 0.54554075 0.99927312 0.035639949 -0.013522688 0.065404609
0.19173473 -0.17309763 0.58470029 0.70171607 0.42448047 0.57219839 0.06637989
0.081360944 -0.37926626 0.3882924 0.019707629 -0.056874078 -0.99818683 0.053278383
0.10371214 -0.26191571 0.4005591 0.57834202 0.054586813 -0.8139661 0.033879768
0.14616542 -0.24271783 0.44941923 0.74243486 0.029720156 -0.66925859 0.00022933735
0.22044972 -0.16008249 0.54872572 0.82847774 0.53803128 0.15539336 0.10838402
0.098133221 -0.39571527 0.39773065 0.31207311 -0.18183404 -0.93249488 0.08896514
0.21138389 -0.39363852 0.51861185 0.91361737 -0.13481438 -0.38357311 0.064025059
0.11863913 -0.18780585 0.64789379 0.59929454 0.28417841 0.74839073 0.03971754
0.13417004 -0.14328575 0.5161525 0.083304562 0.99461663 -0.061629552 0.0082101505
-0.022688119 -0.14933355 0.57441229 -0.34895691 0.8756696 0.33381385 0.061641742
0.20860636 -0.29353449 0.51921767 0.90042466 0.021850482 -0.43446293 0.033654444
0.084921785 -0.27518699 0.39053717 0.26958567 0.043565199 -0.96199042 0.061085586
0.095367126 -0.31708914 0.39408287 0.31350407 -0.034526568 -0.94895899 0.054955438
0.22596467 -0.39340395 0.55091721 0.98017329 -0.14172661 0.13846967 0.069083005
0.22551624 -0.23332769 0.53904659 0.99572957 0.0040746722 0.092228219 0.052968796
0.10256387 -0.33273336 0.66709316 0.45209447 -0.023635156 0.89165682 0.030328803
0.10678066 -0.35889152 0.40134421 0.39050081 -0.035759307 -0.91990781 0.049511425
0.21917015 -0.3873378 0.54032183 0.98766029 -0.15483648 0.023510363 0.070322193
0.1530003 -0.1429479 0.54320151 0.23348658 0.97094852 0.052372888 0.031210573
0.22335339 -0.20742194 0.54710603 0.9645564 0.1231467 0.23337942 0.052572183
0.10506001 -0.41622818 0.66988641 0.41883415 -0.35001278 0.83789551 0.10977136
0.10438985 -0.26976031 0.66315037 0.53690076 0.043360766 0.84253031 0.025101084
0.20055568 -0.41011956 0.50219768 0.81782532 -0.24124405 -0.52245867 0.051411431
0.11041875 -0.14351785 0.56011432 0.025489461 0.99853343 0.047762651 0.0055161878
0.22200522 -0.36027983 0.5412569 0.99679428 0.021594537 -0.07703694 0.050968256
0.18607293 -0.23445243 0.49104983 0.77994901 0.023985131 -0.62538332 0.0032566146
0.18820556 -0.30846018 0.49115899 0.81474215 0.045155406 -0.57806259 0.0054085953
0.077583939 -0.22741917 0.38795793 0.1994057 0.1296653 -0.97130024 0.057924896
0.15056536 -0.37128231 0.44747275 0.74009895 -0.053130273 -0.67039597 0.008085873
0.094470106 -0.27777281 0.67188549 0.44117481 -0.0059265075 0.89740157 0.041069902
0.21605487 -0.18691045 0.53248972 0.95850927 0.2806516 -0.049947079 0.093381934
0.21646725 -0.21154493 0.530101 0.99341357 0.11432181 0.0077545792 0.057056028
0.11658653 -0.16409305 0.64659017 0.46435153 0.60850167 0.64350855 0.065879047
0.1890846 -0.15902765 0.57916522 0.64070147 0.58987087 0.49148151 0.074396744
0.12440167 -0.20948395 0.6448012 0.63911682 0.11771531 0.76004785 0.0086897369
0.12620354 -0.18879823 0.64162862 0.62614381 0.29925936 0.71999156 0.043374188
0.012541785 -0.14598423 0.52420145 -0.13158944 0.99073762 -0.033515926 0.013993077
0.18378134 -0.24195533 0.59371513 0.72926736 0.011946166 0.68412465 0.0056516239
0.1503118 -0.24541299 0.62271374 0.65418231 0.035596937 0.75549871 0.00023045909
0.092931315 -0.29555872 0.67437565 0.43346253 -0.0056728437 0.90115368 0.034331765
0.21454369 -0.27093059 0.56320071 0.9274174 0.024866441 0.37320068 0.054542739
0.21576598 -0.32705942 0.56574804 0.95739573 0.052250057 0.28401306 0.057379626
0.18605162 -0.43852383 0.58427417 0.60572457 -0.65985143 0.44462767 0.083285071
0.22230324 -0.29028031 0.55230325 0.99143606 0.020165453 0.1290265 0.058631916
0.22211449 -0.22339223 0.53930336 0.99429542 0.028330466 0.10283017 0.047883786
0.12071688 -0.16564934 0.64326954 0.49337071 0.60211992 0.62772357 0.0681004
0.17260809 -0.33970535 0.60859174 0.68138599 0.019403057 0.73166704 0.0011688838
0.17656815 -0.14558138 0.52958882 0.36812848 0.92972785 0.0093550198 0.066653892
0.21882036 -0.15587518 0.54471385 0.79419625 0.60516465 0.055027273 0.10531624
0.087040529 -0.14298935 0.59238309 0.05058188 0.9927091 0.1094074 0.019100504
0.032307714 -0.14908545 0.64118576 -0.39310542 0.80340195 0.44722858 0.059955105
0.068636678 -0.37542304 0.6857996 -0.0061177467 0.020994985 0.99976093 0.044132933
-0.009378003 -0.15052292 0.60352123 -0.43988168 0.78940737 0.42818218 0.061296359
0.049549438 -0.23966755 0.6777032 -0.45430797 -0.093572564 0.88591665 0.045492478
0.07310196 -0.14408083 0.58411062 0.0027203909 0.99767035 0.068164296 0.0058741565
0.00035920116 -0.15572123 0.61489677 -0.45854408 0.75633353 0.46658015 0.065404288
0.0071803797 -0.16970496 0.62978315 -0.62061316 0.51382184 0.59230602 0.060250327
0.044624358 -0.4038429 0.67913872 -0.38637999 -0.21845441 0.89609605 0.080088742
-0.014831627 -0.27749628 0.61670858 -0.74141973 0.033271138 0.6702162 0.00021929007
0.0046696779 -0.23017195 0.63439626 -0.72227985 0.061432712 0.68886709 0.0014755087
0.0070226677 -0.34014717 0.64216143 -0.70402318 0.014698591 0.71002489 0.0025411537
0.024438374 -0.19702265 0.6542595 -0.63908631 0.27070826 0.71992069 0.036577504
0.051723097 -0.20020418 0.68179792 -0.39076862 0.20425192 0.89754164 0.07607241
-0.071194775 -0.2251431 0.55341905 -0.95600528 -0.0021968754 0.29334137 0.060156599
0.044849306 -0.25771049 0.67365432 -0.42262542 -0.069428213 0.90364128 0.050773278
0.0034475443 -0.20160712 0.63106138 -0.70380414 0.24560994 0.66658491 0.029231729
-0.073705316 -0.25625539 0.5458827 -0.98859674 0.058584034 0.13872439 0.063237943
-0.065362267 -0.31085572 0.55997068 -0.90647888 -0.040379219 0.42031598 0.033130344
-0.024094859 -0.17837216 0.59921747 -0.60083932 0.49829626 0.6250543 0.062410228
-0.073348559 -0.24094811 0.53090733 -0.99467802 0.040373925 -0.094792873 0.060047239
-0.03968595 -0.32360232 0.58898443 -0.79348236 0.0098032486 0.60851431 0.0041133245
0.13168365 -0.14337118 0.56203812 0.12148801 0.98769867 0.098447591 0.017995322
0.05488202 -0.32694718 0.68386585 -0.10945113 0.02514651 0.99367404 0.054057211
0.062910765 -0.14607431 0.44660893 -0.050924573 0.93524396 -0.35032216 0.053572319
0.042103335 -0.31999877 0.67481774 -0.28393203 0.012198815 0.95876676 0.053808406
-0.0028048102 -0.3650544 0.63096106 -0.72748369 -0.019541385 0.68584663 0.00099323108
0.017960448 -0.34778798 0.65288889 -0.60201776 0.024348907 0.79811144 0.015927475
0.013336468 -0.24462695 0.64449489 -0.67652076 0.030287202 0.73580045 0.0060320725
-0.076127127 -0.37445283 0.53390974 -0.99913794 -0.017618161 -0.03758958 0.055228181
-0.046523601 -0.34707081 0.58384824 -0.83400649 0.00054999738 0.5517543 0.0082874605
-0.0027464391 -0.15176792 0.46150443 -0.43787512 0.75787622 -0.48362073 0.072057962
0.032654781 -0.14690574 0.54709017 -0.067259736 0.99703324 0.037427288 0.0025222227
-0.031408101 -0.15448229 0.58305621 -0.41090548 0.81200272 0.41449764 0.064002357
-0.065746851 -0.16684957 0.55380797 -0.82238442 0.48729533 0.29364461 0.094284244
0.034093868 -0.19929107 0.66564077 -0.59140134 0.22036704 0.77568209 0.036975719
0.030070169 -0.24914251 0.66168135 -0.54892141 -0.04904785 0.83443373 0.034664597
0.03422993 -0.39653936 0.67025316 -0.5141573 -0.1613829 0.84237629 0.057094332
0.027170613 -0.34631822 0.66313684 -0.52208537 0.062101729 0.85062933 0.032441631
-0.033974692 -0.30137008 0.59392458 -0.7690956 0.017613897 0.63889104 0.001723164
0.010776185 -0.16224208 0.63109285 -0.56286311 0.62376779 0.54230893 0.064342603
-0.023057019 -0.42032227 0.60730946 -0.61184758 -0.52600867 0.5907262 0.09976574
0.025927698 -0.21949105 0.65721494 -0.64795095 0.065461829 0.75886381 0.014579104
0.025822476 -0.42485651 0.65764463 -0.58598304 -0.45022649 0.67373592 0.086284034
-0.070054173 -0.17662346 0.54811049 -0.8822692 0.41456258 0.22302231 0.093987986
-0.064198181 -0.16076355 0.55176657 -0.71703863 0.64847296 0.2556136 0.09952379
-0.072772019 -0.17278305 0.53572261 -0.89892095 0.42413899 0.10975969 0.10956522
-0.07028719 -0.15383585 0.53474468 -0.69658816 0.71437615 0.066571601 0.10699217
-0.022836804 -0.14895345 0.56959164 -0.34185329 0.88753337 0.30890262 0.059304282
-0.0049051247 -0.24375613 0.62517917 -0.73191035 0.041237798 0.68015188 0.00061478885
-0.027045721 -0.41644615 0.60388857 -0.64945382 -0.46250024 0.60357535 0.099132016
-0.0076766708 -0.25695699 0.62203062 -0.73530978 0.036856744 0.67672819 0.00046276412
0.047676209 -0.36924735 0.68032348 -0.33261493 0.040805887 0.9421795 0.039446577
-0.013713484 -0.17600422 0.61054271 -0.62218499 0.48067287 0.6179316 0.056523837
0.036357008 -0.39652482 0.67347264 -0.4883298 -0.15422088 0.85892373 0.06036089
-0.027630473 -0.19713029 0.59719425 -0.670555 0.30940458 0.67425871 0.04079752
-0.073131196 -0.2465018 0.5370391 -0.99600619 0.077889644 -0.043644551 0.062039115
0.0010243056 -0.26753208 0.6346541 -0.72105074 0.032088351 0.69213879 0.00084039761
0.030282674 -0.31497982 0.66507339 -0.47992465 0.0084338104 0.87726915 0.03965662
0.016884753 -0.21503085 0.64603031 -0.67883253 0.11403219 0.72538471 0.0128623
-0.073855326 -0.16172436 0.54165918 -0.85092795 0.48321229 0.20597951 0.10156608
0.069629304 -0.14566197 0.46033576 -0.021588011 0.97516721 -0.22041531 0.03115344
-0.0730583 -0.16180199 0.53725046 -0.83211243 0.53833205 0.1333697 0.10661789
-0.072882243 -0.16381326 0.54502159 -0.85089457 0.48016679 0.21311562 0.10113186
0.031751394 -0.15610798 0.65451944 -0.48558652 0.63200796 0.60396326 0.061006002
-0.059632994 -0.33708701 0.56699663 -0.91250283 -0.017434206 0.40869874 0.030931991
-0.031276751 -0.29657075 0.59541684 -0.76244962 0.021290503 0.64669728 0.0010776873
0.13879606 -0.14308889 0.57472187 0.23442532 0.94371915 0.2333217 0.044016011
-0.014973858 -0.3307085 0.61818135 -0.74510384 0.015219037 0.66677475 0.00028706761
0.043042678 -0.33304027 0.67657423 -0.30417228 0.030082572 0.95214188 0.054160494
0.029133648 -0.35152018 0.6650489 -0.49763232 0.072725892 0.86433387 0.034466386
-0.065368891 -0.25567546 0.55984873 -0.9229207 0.044783682 0.38237646 0.042029947
-0.053901911 -0.15536529 0.55737132 -0.62787706 0.72371393 0.28637096 0.091466211
-0.021361344 -0.26792625 0.60575229 -0.74471223 0.034957502 0.66646951 0.00019558001
-0.0697769 -0.18035373 0.54780036 -0.89142007 0.38527459 0.23860802 0.091522068
-0.024235532 -0.39675099 0.60686719 -0.71592611 -0.24678294 0.65310633 0.058610313
0.019034499 -0.31827503 0.6548782 -0.57762605 0.048577514 0.8148548 0.019815505
0.079462722 -0.14600587 0.43782851 0.01979761 0.892515 -0.45058295 0.067318045
-0.071936563 -0.22468081 0.55051398 -0.98159844 0.0088798702 0.19075002 0.067303941
-0.035802338 -0.18677488 0.58657271 -0.66653758 0.40513217 0.62577599 0.060805067
-0.011438854 -0.14875574 0.56520897 -0.26840553 0.92764568 0.25967684 0.046373904
-0.043459412 -0.21910562 0.58040196 -0.79540592 0.096602745 0.59832877 0.017235024
-0.021272248 -0.39494368 0.61048526 -0.70141506 -0.21538223 0.67943174 0.048832282
-0.074964419 -0.29429707 0.53594124 -0.99530208 -0.051616352 0.081911497 0.045266867
0.0056311996 -0.37516952 0.64033037 -0.7034725 -0.063263059 0.70790124 0.0081961295
-0.00033268644 -0.18750884 0.62661886 -0.68007082 0.34389475 0.64748752 0.045418546
-0.0051087057 -0.41365314 0.62741667 -0.67517412 -0.38744015 0.62771821 0.073583938
-0.015636824 -0.26393181 0.61407715 -0.74211967 0.036244269 0.66928673 0.00017521399
0.017326314 -0.23813 0.64811093 -0.65658087 0.024575289 0.75385511 0.010543671
0.049333382 -0.34117994 0.68169612 -0.23625252 0.034018323 0.9710961 0.058591727
0.016447414 -0.31369799 0.65209299 -0.61364001 0.048305999 0.78810686 0.014180958
-0.0035178007 -0.34232241 0.63042027 -0.72266465 0.011724756 0.69109935 0.00075653684
0.10349526 -0.42386922 0.67726016 0.39596975 -0.37604976 0.83773172 0.11481647
0.045971815 -0.37520549 0.67920929 -0.350952 0.018753368 0.93620563 0.041712392
-0.045819495 -0.40556267 0.57937688 -0.77488315 -0.29549631 0.55878264 0.068185173
0.050633781 -0.32512829 0.68185973 -0.19829847 0.028796781 0.97971857 0.058750566
-0.034891888 -0.208869 0.58948523 -0.74689227 0.17383873 0.64181924 0.020542337
-0.024841681 -0.41087973 0.60681874 -0.66783017 -0.36532795 0.6484893 0.089354761
0.031657454 -0.31262702 0.66620946 -0.47514981 0.0025976996 0.87990111 0.039340243
-0.019040769 -0.15673465 0.59492451 -0.4619728 0.76227808 0.45333576 0.063871123
-0.015088024 -0.15097444 0.47557485 -0.46044019 0.7586695 -0.46088544 0.077899031
0.004865265 -0.20910434 0.63324344 -0.71480966 0.17051652 0.67821187 0.013614146
-0.0045408867 -0.39154831 0.63141274 -0.72026265 -0.1759423 0.6710186 0.032644384
-0.060263626 -0.33315185 0.56683064 -0.91114622 -0.029817704 0.41100299 0.031404205
0.19308512 -0.14621606 0.53333181 0.5171448 0.85562217 0.021722287 0.08690431
-0.00044803761 -0.17123798 0.62237912 -0.61871427 0.51397949 0.59415293 0.06219025
-0.070000075 -0.32229078 0.54075092 -0.99972749 0.019352501 -0.013049494 0.057705157
-0.068609558 -0.26095358 0.55423051 -0.95112777 0.068734974 0.30105054 0.053163059
-0.063691959 -0.29338551 0.56077522 -0.90314728 -0.036413472 0.42778379 0.031479884
-0.039094254 -0.19933575 0.58408022 -0.73983675 0.23727447 0.62955737 0.035453022
0.032868158 -0.35328862 0.66890895 -0.44855168 0.065224826 0.89137369 0.040501844
-0.0034466253 -0.15736365 0.61111838 -0.49765101 0.7221905 0.48040017 0.06586162
0.064194255 -0.14473677 0.57489794 -0.05220902 0.9982909 0.026257591 0.0018212111
0.028504435 -0.24561025 0.66008127 -0.57032353 -0.049407437 0.81993288 0.030082989
-0.0047903648 -0.34019342 0.62894535 -0.72319573 0.011143004 0.69055325 0.00078649604
-0.062871814 -0.37435549 0.5587371 -0.94443071 -0.021759115 0.32798967 0.036205787
0.12942177 -0.1440355 0.59511828 0.26931936 0.91104221 0.31220073 0.061495651
0.11216049 -0.14785524 0.64085501 0.34655672 0.80989712 0.4732495 0.073035784
0.10520822 -0.43213579 0.69398969 0.42338592 -0.29001972 0.85827321 0.099841505
-0.03474411 -0.41134849 0.59602457 -0.63973135 -0.44995761 0.62312275 0.1007508
0.028368754 -0.22486521 0.65998864 -0.63494658 0.02477484 0.77215874 0.01471772
0.018001216 -0.22637942 0.64804006 -0.66299379 0.041360747 0.74748135 0.010740392
0.017045036 -0.36769646 0.65220326 -0.63460916 -0.0064372555 0.77280641 0.011092557
0.098396979 -0.14462513 0.5287562 -0.0086573455 0.9998588 -0.014404166 0.00029093056
0.016882256 -0.18237223 0.64346105 -0.64288449 0.3832621 0.66318148 0.039584402
0.13028732 -0.14572297 0.47346655 0.24416873 0.88973522 -0.38568497 0.062334377
0.014996391 -0.14639927 0.45757622 -0.35355148 0.85301727 -0.38387871 0.067806371
-0.054801155 -0.24055339 0.56827688 -0.86844581 0.01526302 0.49554911 0.026489438
-0.022171272 -0.16454531 0.59610087 -0.52455318 0.67276031 0.52176392 0.061501499
-0.017070765 -0.25982821 0.61070096 -0.74215031 0.036928836 0.66921526 0.00016131494
-0.022646399 -0.27608356 0.60405678 -0.74680531 0.033262312 0.66421044 0.00019951415
-0.071642153 -0.17081729 0.54439712 -0.87315041 0.4398587 0.21007799 0.099850081
-0.015490432 -0.31250808 0.61748534 -0.74440616 0.019111715 0.66745347 0.00026923325
0.036065165 -0.14675923 0.62161297 -0.30380675 0.90596622 0.2948333 0.043059003
0.060680028 -0.1510278 0.66766888 -0.055083662 0.75754374 0.65045625 0.088261694
0.15035678 -0.14482315 0.5070197 0.20121768 0.95999837 -0.19471657 0.041812532
0.20530398 -0.15131095 0.52849138 0.71538919 0.69136775 -0.10113841 0.11088266
0.16678181 -0.14446688 0.52006131 0.28844467 0.9561103 -0.051505718 0.047676519
0.047743175 -0.14891556 0.6557402 -0.29041332 0.80245823 0.52126855 0.074915253
-0.062249955 -0.2000252 0.56233758 -0.87449211 0.24225527 0.42020935 0.061437622
-0.053769901 -0.4374823 0.56681907 -0.59845257 -0.74661863 0.29054278 0.085459553
-0.045134898 -0.20306399 0.57837266 -0.7901727 0.16941696 0.58900332 0.031705476
-0.018358804 -0.2136617 0.6074394 -0.72292185 0.17570272 0.66821605 0.014673071
-0.047911067 -0.2938931 0.57737786 -0.82823443 -0.028409366 0.55966115 0.012171379
-0.068103276 -0.38504523 0.55140293 -0.96183497 -0.098512948 0.25528145 0.053485464
-0.078600436 -0.38444659 0.52655238 -0.99088067 -0.062040906 -0.11960917 0.061629009
-0.016376607 -0.21499375 0.60989201 -0.72401619 0.15710494 0.67165357 0.011767137
-0.07466621 -0.22489418 0.52529907 -0.9936977 0.0099036321 -0.11165425 0.058542892
-0.057129994 -0.38908952 0.56719625 -0.89682269 -0.11230389 0.42789805 0.041179389
0.019873917 -0.33772615 0.65475249 -0.57902807 0.038040295 0.81441975 0.018811304
-0.0043682288 -0.26465791 0.62835491 -0.7298041 0.035011861 0.68275923 0.00055700791
-0.037385207 -0.42627466 0.58997071 -0.57111567 -0.66257232 0.48458731 0.1025536
-0.028619757 -0.18637744 0.5940643 -0.61271912 0.43920958 0.65701604 0.058801278
0.045820404 -0.15305856 0.66446865 -0.34707236 0.69718635 0.6272735 0.078196183
-0.059107594 -0.32032746 0.5673638 -0.88955444 -0.038206194 0.45522863 0.026515603
0.030801725 -0.19153149 0.66082275 -0.61115032 0.29967847 0.73259002 0.042587053
0.036911815 -0.16054933 0.65925401 -0.49360684 0.57173544 0.65534025 0.065853067
0.011575661 -0.32026836 0.64778489 -0.65617317 0.041741211 0.75345504 0.0080593256
-0.041818518 -0.41996726 0.58519077 -0.65768021 -0.56048024 0.50330776 0.092553355
-0.075213082 -0.33883905 0.52979547 -0.98288864 0.069340974 -0.17065082 0.061041605
0.017951049 -0.14885484 0.60093206 -0.32280973 0.90569639 0.27478704 0.052443173
0.049129508 -0.14581248 0.54538435 -0.033393417 0.99941868 0.0068690721 0.00046075406
0.023837207 -0.14632264 0.58312947 -0.24916491 0.94859827 0.19513589 0.040545173
0.019482087 -0.14989772 0.62307322 -0.39568219 0.85468239 0.33608571 0.051001165
-0.031614166 -0.1702708 0.58560705 -0.56058824 0.62901348 0.53859341 0.073332652
0.097041279 -0.14509889 0.46257532 0.12093816 0.96121079 -0.24788675 0.035565384
0.01438255 -0.22768685 0.64359146 -0.683653 0.053494267 0.72784412 0.0060319793
-0.045005538 -0.34667987 0.58533931 -0.82045811 -0.0029111153 0.57169926 0.0062464876
-0.033681463 -0.19316548 0.58990455 -0.66403973 0.34994712 0.66074824 0.050222192
-0.078315616 -0.39413342 0.53008533 -0.98683035 -0.15029471 -0.059811648 0.072964303
-0.0026081614 -0.19489695 0.62378275 -0.69333893 0.29174814 0.65891129 0.037273422
0.14937423 -0.14691323 0.60599297 0.43759748 0.7404865 0.51008636 0.074687347
0.05971618 -0.25432724 0.68220919 -0.28602931 -0.073651552 0.95538616 0.06078567
0.058062442 -0.31988594 0.68316686 -0.078469589 0.013678936 0.9968226 0.061632533
0.057479203 -0.35271525 0.6848731 -0.12503797 0.039827969 0.99135226 0.048606303
0.049606897 -0.14522602 0.49729067 -0.055877343 0.9970988 -0.051687714 0.0059435116
-0.046009909 -0.15685104 0.56597716 -0.56362534 0.7562291 0.33233121 0.08264564
-0.077774912 -0.4201811 0.52067775 -0.87101871 -0.42536032 -0.24575384 0.10767439
-0.038675409 -0.39639661 0.58967894 -0.74494499 -0.20764208 0.63398874 0.050507106
0.051323868 -0.28195378 0.68293685 -0.23621939 -0.039181527 0.97090948 0.056315433
-0.066741891 -0.30576459 0.55602342 -0.93113458 -0.026048679 0.36374423 0.040217701
-0.0050146957 -0.35385811 0.62791681 -0.72728884 0.004395267 0.68631738 0.00060480443
-0.019604232 -0.20822522 0.60577267 -0.71555877 0.203226 0.6683374 0.019881235
0.054741375 -0.40489432 0.68315345 -0.28308156 -0.19307965 0.93945998 0.093863636
-0.023371568 -0.2883836 0.60608757 -0.74803072 0.030889889 0.66294491 0.00018988823
-0.075165465 -0.32116598 0.53055167 -0.99807709 0.024613015 -0.056888223 0.057092097
-0.079438224 -0.41518474 0.52696979 -0.93221223 -0.33646682 -0.13330586 0.10342122
0.035366073 -0.24226969 0.66732162 -0.53236473 -0.075005986 0.84318554 0.03675903
-0.060425818 -0.28355908 0.56512952 -0.89722085 -0.001047533 0.4415808 0.030457059
-0.066071443 -0.34668151 0.55808502 -0.96116424 -0.0087651322 0.2758376 0.046442062
-0.066908315 -0.32375053 0.55749184 -0.92871982 -0.031031763 0.36948138 0.044171233
-0.012041348 -0.35126737 0.61971116 -0.74532384 0.003916217 0.66669118 0.00032585429
-0.035744548 -0.14806134 0.52718198 -0.32279414 0.94627327 0.01925892 0.055669598
0.057593897 -0.14525783 0.54100156 -0.026348414 0.99965191 0.0013634166 0.00031594691
-0.053959079 -0.15310441 0.50835514 -0.54636657 0.7977044 -0.25524724 0.084810078
0.03343562 -0.14591976 0.59090346 -0.22113851 0.96032423 0.16992685 0.035346054
-0.010615108 -0.17911109 0.61389273 -0.64677876 0.44024384 0.62278616 0.053901132
0.067511342 -0.14362603 0.62419087 -0.04614706 0.96594542 0.25459757 0.043030038
0.044753551 -0.14606898 0.63207459 -0.25590765 0.89455312 0.36645055 0.053253226
-0.069613025 -0.15303069 0.51519436 -0.65261316 0.72771686 -0.2110078 0.090357266
0.025687775 -0.14734681 0.55859852 -0.13635807 0.9857294 0.098711275 0.016445925
0.0086856829 -0.14728071 0.55222923 -0.1746251 0.97542703 0.13434368 0.026326204
0.020802509 -0.34588864 0.65570349 -0.57811648 0.037517346 0.81509131 0.019737449
-0.00019179317 -0.29627466 0.63527679 -0.71700102 0.024785982 0.69663131 0.00087786658
-0.044454198 -0.22101136 0.5796206 -0.79920369 0.081795521 0.59546864 0.015484014
-0.03017148 -0.38772163 0.597965 -0.7482481 -0.15619494 0.64476967 0.034122307
0.031105051 -0.23614794 0.66261536 -0.58048743 -0.047188565 0.81290072 0.027303612
-0.075985283 -0.26362887 0.5423252 -0.99313635 0.063925572 0.097948104 0.051247027
-0.045317654 -0.41192117 0.57972199 -0.74072683 -0.40058482 0.53931028 0.082544044
0.036767028 -0.32517833 0.67264891 -0.40861198 0.031440087 0.91216654 0.048052549
-0.023538468 -0.3271578 0.6076743 -0.75110835 0.012500647 0.66006058 0.00040965909
0.059373446 -0.19496247 0.68637079 -0.20048828 0.24534777 0.94847715 0.091897771
0.057019863 -0.33723179 0.68448699 -0.1138324 0.013802017 0.99340409 0.049784292
-0.019364895 -0.15691969 0.59467691 -0.4619728 0.76227808 0.45333576 0.063871123
0.0049290159 -0.14879622 0.5881924 -0.32212889 0.906928 0.27150449 0.055766691
0.0465075 -0.14999394 0.43024847 -0.22700924 0.81871444 -0.52742153 0.075498015
0.048423696 -0.41852695 0.67837352 -0.37000307 -0.31612763 0.87359095 0.1048716
0.076973237 -0.14564374 0.45236522 -0.0088630067 0.96756375 -0.25247145 0.037478041
0.0091156038 -0.15166382 0.60598987 -0.37073106 0.85447794 0.36390364 0.057972416
0.015068812 -0.33011338 0.65013808 -0.61650848 0.051210959 0.78568113 0.012626546
-0.00030391052 -0.15120029 0.4565745 -0.45462859 0.73715419 -0.49991658 0.066758811
-0.024602335 -0.16026099 0.58964008 -0.4702442 0.7464177 0.47088319 0.067038707
-0.044905063 -0.42879227 0.5809294 -0.58944589 -0.68390417 0.42991713 0.079562649
-0.070147224 -0.1806653 0.54295641 -0.90237647 0.37940922 0.20436598 0.09343715
0.038892388 -0.15137525 0.65660882 -0.39109963 0.72916555 0.56156814 0.068424754
-0.058860414 -0.30383453 0.56587756 -0.89629424 -0.0058218632 0.44342163 0.031642001
0.050401382 -0.14595941 0.44880024 -0.14766718 0.93899405 -0.31061956 0.054153755
