# .PCD v0.7 - Point Cloud Data file format
VERSION 0.7
FIELDS x y z
SIZE 4 4 4
TYPE F F F
COUNT 1 1 1
WIDTH 1427
HEIGHT 1
VIEWPOINT 0 0 0 1 0 0 0
POINTS 1427
DATA ascii
-0.045301922 -0.20305739 0.57854271
-0.02138917 -0.21363419 0.6101141
-0.04771385 -0.29389471 0.57717967
-0.071307719 -0.38572121 0.55297548
-0.084951103 -0.38329741 0.5246228
-0.01903492 -0.21494681 0.61227661
-0.083973438 -0.22427019 0.52328718
-0.05809867 -0.38920999 0.56793833
0.020087181 -0.33772111 0.65453488
-0.0013651249 -0.2652069 0.62609488
-0.042825941 -0.42786431 0.59436679
-0.02714527 -0.18656521 0.59287161
0.03987366 -0.1435964 0.67104411
-0.05965307 -0.32029429 0.56784368
0.03145713 -0.1915517 0.6602571
0.032613099 -0.1570489 0.66280168
0.01128137 -0.3202908 0.64805728
-0.045310441 -0.42080829 0.58814311
-0.082436621 -0.33859849 0.52859533
0.017748 -0.1438453 0.60148352
0.049077451 -0.1454291 0.54536122
0.02374718 -0.1438746 0.58296382
0.017879579 -0.1431549 0.62396991
-0.03276071 -0.169903 0.58650702
0.096966617 -0.1393543 0.46252149
0.01475641 -0.2277061 0.64326262
-0.047940139 -0.34602901 0.5881564
-0.038669132 -0.19266979 0.59417051
-0.084382407 -0.39307401 0.52928412
-0.005721495 -0.1947801 0.62688261
0.1498818 -0.1433392 0.60706007
0.059937451 -0.25430909 0.68159372
0.056283031 -0.31904021 0.69036841
0.055068608 -0.35282639 0.69326019
0.049746931 -0.1432278 0.49731329
-0.046486441 -0.1557648 0.56638432
-0.084441178 -0.4208346 0.51825517
-0.03902996 -0.39633191 0.58996427
0.051163461 -0.28195199 0.68390059
-0.068521261 -0.30570349 0.55726081
-0.0072245752 -0.35382989 0.62980121
-0.0211985 -0.2082454 0.60718799
0.051829342 -0.40503451 0.69163913
-0.02328548 -0.28839019 0.60602748
-0.088200778 -0.3225396 0.52949321
-0.085153401 -0.4153783 0.52600938
0.035695668 -0.24228279 0.66699272
-0.058034781 -0.2835584 0.56307328
-0.069917083 -0.34674439 0.56077582
-0.067679867 -0.32376161 0.55804813
-0.01442215 -0.35150909 0.62150782
-0.03494671 -0.1542162 0.52690637
0.05700016 -0.14093269 0.54077661
-0.05721274 -0.14569999 0.5052163
0.03325206 -0.1438086 0.59078479
-0.01186144 -0.178973 0.61509722
0.067638643 -0.1477288 0.62426251
0.044913501 -0.14825059 0.63197738
-0.07111758 -0.14662971 0.51585501
0.025778349 -0.149774 0.55857682
0.0087099671 -0.14626279 0.55226189
0.018309429 -0.3459169 0.65827358
-0.0021806881 -0.29617381 0.6371268
-0.046061929 -0.22119831 0.58142972
-0.034167528 -0.38722411 0.60121793
0.032383561 -0.23618861 0.66137248
-0.075076282 -0.26359519 0.54181153
-0.04316932 -0.41167179 0.57830441
0.03484511 -0.32512271 0.67445791
-0.02100396 -0.32728809 0.60551888
0.057717469 -0.1949311 0.68905038
0.055555191 -0.33698049 0.69154918
-0.0228757 -0.1543041 0.59741747
0.0048632319 -0.14731809 0.58820391
0.04648095 -0.1498687 0.43020529
0.049816549 -0.4181436 0.6760605
0.077016711 -0.1411332 0.45223051
0.0084533989 -0.1486682 0.6068325
0.01560017 -0.3301329 0.64961863
-0.002620816 -0.1459213 0.4549076
-0.025836051 -0.1596175 0.5905118
-0.049081162 -0.4306564 0.58492219
-0.076501459 -0.18154059 0.54508752
0.03533059 -0.1428259 0.65974867
-0.060503051 -0.3038089 0.56755209
0.050431311 -0.1469699 0.44886309
0.01864475 -0.151352 0.65079409
0.0081896782 -0.2321633 0.63904148
-0.037946541 -0.1717256 0.58795649
-0.01542148 -0.14274999 0.58645087
-0.01346749 -0.25491121 0.61267263
0.0240972 -0.40368351 0.6628772
-0.086977899 -0.29948291 0.52930993
-0.055911422 -0.31955931 0.56601292
-0.0003371835 -0.4012922 0.6362015
0.04661357 -0.4140707 0.68773073
-0.039168481 -0.14434721 0.54652143
-0.001147866 -0.1462867 0.50333011
-0.04043239 -0.14533401 0.54374158
-0.03494386 -0.1414426 0.57437187
0.01303095 -0.1469465 0.55027032
-0.070428312 -0.25167629 0.56175423
-0.02313241 -0.30256659 0.61299652
-0.05349559 -0.1792594 0.56618702
-0.083524764 -0.2291574 0.53018421
0.072003543 -0.1406735 0.62025827
0.1827499 -0.1386133 0.53722018
0.075421393 -0.14386021 0.62765408
0.042072389 -0.1531783 0.66975468
0.043322951 -0.42711791 0.68785322
0.04455493 -0.31512311 0.68483663
0.070980072 -0.39085889 0.69012791
0.041741401 -0.16321179 0.67194998
0.040405869 -0.2352522 0.67867202
-0.026152611 -0.1788204 0.59876221
0.0092573762 -0.2478257 0.64662772
0.046124101 -0.180061 0.67507237
0.046567202 -0.30668929 0.68487298
0.14594039 -0.14044 0.57275927
-0.06657064 -0.14298791 0.55486143
-0.001775607 -0.33442241 0.63247281
0.038844291 -0.1914328 0.67012203
0.046296179 -0.21044721 0.6780597
0.02593839 -0.22648589 0.66118371
-0.056256648 -0.1617592 0.56097633
-0.03375056 -0.2375114 0.58545262
0.047506601 -0.1724437 0.68114543
0.04177982 -0.26462051 0.67514729
0.1140392 -0.14180329 0.4325783
0.051105741 -0.1648384 0.67872071
0.076844811 -0.36732119 0.68759668
0.0069990749 -0.1434059 0.46603289
0.1730931 -0.1413321 0.50947648
0.055246651 -0.14046 0.57682168
0.059144199 -0.39112851 0.68375868
0.037845731 -0.4024305 0.68628627
-0.0047521591 -0.13025279 0.52026778
-0.02730393 -0.1484212 0.56676018
-0.021491351 -0.1437709 0.60767072
0.1172443 -0.1437556 0.62787879
0.065375634 -0.1427232 0.41779411
0.1366684 -0.1468844 0.62551272
0.1201818 -0.1421124 0.6440137
0.1123868 -0.1540384 0.65106219
0.040417612 -0.42525381 0.68359631
0.084455192 -0.1451752 0.48617661
0.1281987 -0.1461163 0.46054181
0.2251704 -0.1597445 0.54929769
0.055242781 -0.2189109 0.69866347
-0.05559206 -0.14720941 0.51380903
0.01113653 -0.1439628 0.59999162
0.1135692 -0.3709819 0.65626961
0.1854042 -0.1680495 0.58959931
0.1240782 -0.154966 0.64109188
0.1522505 -0.40547991 0.62302548
0.16147789 -0.43139401 0.61005253
0.20951679 -0.25209329 0.57569242
0.072853737 -0.1434823 0.49132141
-0.04253155 -0.1450603 0.49997941
0.18093491 -0.14039969 0.5320766
0.16782209 -0.141701 0.51815492
0.071859911 -0.309385 0.68790931
0.04280049 -0.2386194 0.68377548
0.1457787 -0.2714757 0.62708181
0.11663 -0.3139576 0.65201491
0.2077768 -0.33633831 0.56654602
0.1202305 -0.2047199 0.64708757
0.17760579 -0.31253299 0.60552943
0.1408198 -0.30705851 0.63318503
0.20894089 -0.2099961 0.57716483
0.21437649 -0.27554569 0.56373447
0.1801776 -0.41555709 0.60404611
0.2080172 -0.15507451 0.5748896
0.080985717 -0.35777819 0.68816417
0.1022883 -0.2627154 0.66520751
0.056421939 -0.1384865 0.61866659
-0.01534486 -0.1439968 0.52725589
0.091550201 -0.13586649 0.66980457
-0.016273079 -0.15022101 0.61906618
-0.02136278 -0.19132391 0.61347872
0.1167278 -0.1384891 0.60211319
0.1895764 -0.1443738 0.58540732
0.19716591 -0.1662951 0.58722568
0.1376701 -0.34023741 0.64151442
0.18444 -0.242174 0.58710039
0.14318199 -0.20394 0.63286328
0.1154781 -0.28469571 0.65864718
0.1064119 -0.17167009 0.64334011
0.099229708 -0.30722561 0.67313498
0.138519 -0.15323441 0.63189882
0.2118652 -0.41639721 0.56703848
0.14012749 -0.4299157 0.63632262
0.1070655 -0.26814741 0.66660899
0.22389071 -0.22575919 0.55352253
0.184551 -0.37733671 0.55808139
0.2334673 -0.4087806 0.56233603
0.22360639 -0.38759881 0.55674863
0.22333691 -0.35375151 0.55622321
-0.02295208 -0.31351069 0.61677933
0.2045881 -0.1866706 0.56331527
0.078312173 -0.30904061 0.68718332
0.42548051 -0.4391782 0.55066371
0.070717007 -0.2561703 0.6959976
0.064296357 -0.1692809 0.69833422
0.029599341 -0.1880466 0.67671609
0.077197731 -0.2198721 0.68732631
0.070149779 -0.2110243 0.69677252
0.2118796 -0.15413 0.57641292
0.1795291 -0.3852824 0.59336382
0.2119873 -0.28953019 0.57045859
0.15255129 -0.2338089 0.62084037
0.1778442 -0.2191354 0.6018784
0.20006751 -0.25760981 0.5696739
0.155626 -0.36657429 0.62491763
0.1921012 -0.1832958 0.57885528
0.15985569 -0.28373519 0.61218148
0.2266438 -0.42225859 0.56271672
0.081259906 -0.2510916 0.66207981
0.2148423 -0.1889673 0.56004119
0.098580062 -0.27950129 0.67351502
0.062656611 -0.19554131 0.69875801
0.05713886 -0.1913401 0.70098811
0.1135955 -0.30905229 0.65775478
0.065944433 -0.29452839 0.6996972
0.09264034 -0.1466119 0.45648369
0.06193218 -0.1393391 0.67713171
0.077539846 -0.2332288 0.68944991
0.04690754 -0.4155162 0.68906182
0.216373 -0.16888329 0.56726903
0.1956158 -0.2347057 0.57252407
0.19804759 -0.42693749 0.59440112
0.06068033 -0.1530616 0.69370508
0.1000005 -0.32208109 0.67360091
0.071722977 -0.2275001 0.69444013
0.097435407 -0.32348901 0.65712827
0.1055456 -0.29382089 0.66366178
-0.005033284 -0.1425025 0.5228309
0.1279864 -0.30750549 0.6444335
0.17892259 -0.2397681 0.6045329
0.2154614 -0.35903391 0.56983942
0.2093434 -0.37155131 0.58048558
0.040361289 -0.14851891 0.43995869
0.017356871 -0.1459973 0.56861103
0.057364549 -0.13351309 0.58235651
0.073254913 -0.1394473 0.58804572
0.1491854 -0.2402558 0.62251872
0.051325198 -0.1407609 0.63173032
0.14343069 -0.25153801 0.61400908
0.15569501 -0.20197579 0.60906029
0.1029706 -0.27059931 0.67682111
0.1232825 -0.1772389 0.64597911
0.063983679 -0.1873634 0.70086467
0.1760084 -0.4112294 0.6144098
0.2163565 -0.31794661 0.56898612
0.2241139 -0.32689199 0.54908359
0.1985563 -0.1709692 0.57167828
0.1958717 -0.41211349 0.59061569
0.1080593 -0.28088129 0.66398412
0.090522163 -0.2919502 0.68034732
0.2083129 -0.2299649 0.57963771
0.081827983 -0.13911019 0.60672837
0.1477775 -0.43610829 0.63308913
0.1204112 -0.1737307 0.63518769
0.12918 -0.13824929 0.5299722
0.1243178 -0.14086869 0.45816651
0.2322364 -0.35832489 0.55715817
0.21908291 -0.40200239 0.57360017
0.040724639 -0.1393656 0.49085939
0.1137694 -0.1455881 0.48130891
0.1144341 -0.3615841 0.66353518
0.13479809 -0.3797209 0.647663
0.15552039 -0.1995336 0.62071621
0.15942401 -0.1351568 0.613217
0.14206199 -0.30730209 0.63906902
0.20845971 -0.2953158 0.55941659
0.1863548 -0.41735661 0.599114
0.20857979 -0.4242467 0.58434951
0.2234437 -0.3630361 0.54699832
0.224921 -0.43967691 0.55449742
0.2001401 -0.37612739 0.59535742
0.19428641 -0.1856813 0.59365612
0.2326616 -0.39784279 0.55910802
0.076907717 -0.26654121 0.69299912
0.13626701 -0.1563096 0.6395697
0.1882973 -0.267286 0.59577358
0.20209409 -0.2190861 0.57925409
0.08105588 -0.28740591 0.69230407
0.088624939 -0.13817561 0.67791891
0.074330777 -0.24746729 0.69726342
0.1245473 -0.1595557 0.64605433
0.053510129 -0.138689 0.68496078
-0.018876789 -0.14019559 0.51500112
0.1191504 -0.13634101 0.588507
0.0030609069 -0.1402747 0.51638258
0.02318692 -0.1351288 0.47983041
0.1169928 -0.1401609 0.53653312
-0.079418004 -0.14441919 0.56188238
0.1217205 -0.1997751 0.6544556
0.1033736 -0.3679851 0.68178612
0.07494998 -0.1424503 0.63544983
0.1366532 -0.3439596 0.64890301
0.1797926 -0.3077527 0.60966408
0.2152435 -0.36418599 0.57460552
0.2046444 -0.3135792 0.58389002
0.01923722 -0.140496 0.5107072
-0.019055581 -0.27296531 0.62352562
0.163469 -0.2184861 0.61603379
0.13629191 -0.2179544 0.64184058
0.1710099 -0.32331339 0.63125229
0.15823489 -0.1352098 0.61375761
0.20371111 -0.3594653 0.5885728
-0.01696587 -0.14414319 0.55453682
0.072998971 -0.20479161 0.69737458
-0.05373019 -0.4295373 0.58933371
0.1535449 -0.15587281 0.62311882
0.1456634 -0.2945556 0.63653898
-0.062638283 -0.156808 0.57516068
0.13858031 -0.138877 0.60845768
0.095174313 -0.1345859 0.61806089
0.058504522 -0.247789 0.70620322
0.059065308 -0.2031616 0.70701998
0.071391478 -0.2004642 0.69897038
0.1152521 -0.43337899 0.66606611
0.05367589 -0.385609 0.7024014
0.1890741 -0.1394144 0.56921142
0.047466699 -0.14171191 0.64769298
0.1066328 -0.140385 0.5600211
0.1604469 -0.1406469 0.49070689
0.07907939 -0.13772979 0.4643026
0.02643168 -0.1400623 0.49340001
0.03826433 -0.1448122 0.4298881
0.0060788989 -0.1491829 0.51843071
0.044082701 -0.14026099 0.60438007
-0.04020137 -0.1416533 0.57467258
0.036001772 -0.14674281 0.55146247
0.042007331 -0.1379232 0.4219068
0.063753963 -0.1387271 0.56747222
-0.050164759 -0.1501593 0.58239162
0.091295183 -0.136182 0.65319479
0.067493223 -0.1338146 0.68565261
0.13892519 -0.29197061 0.64294702
0.064790308 -0.20629241 0.70273691
0.1471366 -0.15383551 0.63121551
0.2198164 -0.1427175 0.55629629
0.18411361 -0.1426457 0.488478
0.2115722 -0.3309221 0.57353139
0.231645 -0.29531741 0.55029398
0.1850619 -0.17426071 0.59630191
0.22632881 -0.18204489 0.5595898
0.2245957 -0.35999209 0.56615061
0.1958895 -0.27826151 0.58797538
0.2281016 -0.40583959 0.5682742
0.2238043 -0.3852776 0.56719881
0.1290708 -0.26509389 0.64703989
0.192112 -0.2102848 0.583148
0.23485629 -0.36990091 0.56135839
0.1192286 -0.13739561 0.43857619
0.03627038 -0.1416643 0.49860319
-0.067116231 -0.23076031 0.56699789
0.21467561 -0.1438521 0.55753618
0.16387691 -0.21610209 0.61329973
0.021456391 -0.2312545 0.66508102
0.05723238 -0.1400293 0.65113658
0.065570891 -0.2657437 0.70025128
0.3228865 -0.43852341 0.74543709
0.053443968 -0.1608211 0.69330388
0.076896504 -0.1363437 0.65540582
0.056356762 -0.2385819 0.70066911
0.06378299 -0.28306001 0.70319039
0.043380082 -0.34392011 0.69371259
0.113179 -0.21959519 0.65019327
0.1037805 -0.1505838 0.66358882
0.1338719 -0.4324246 0.64493382
0.13170549 -0.1905804 0.63928002
0.068397947 -0.3626233 0.7013514
-0.078735083 -0.2217589 0.55307978
0.05735508 -0.23348729 0.6912297
0.2264715 -0.143457 0.53798628
0.22882161 -0.27577141 0.54886669
0.2286725 -0.28809151 0.54928029
0.2308556 -0.1927627 0.54741693
0.2272018 -0.3419449 0.54082209
0.1505923 -0.1382003 0.5542326
0.1560763 -0.2359587 0.45288709
0.13394859 -0.13970339 0.60926932
0.2168685 -0.14408121 0.52614301
0.2030977 -0.1950247 0.50569248
0.1157125 -0.25207019 0.41625571
0.1158753 -0.43347549 0.40770271
0.197475 -0.42088279 0.4998914
0.15282699 -0.2344552 0.44780111
0.1832916 -0.2391994 0.48317441
0.1582931 -0.236784 0.4665972
0.15835699 -0.38992661 0.4633387
0.14733399 -0.1951194 0.45124301
0.131606 -0.2175089 0.43581769
0.1488574 -0.1948816 0.44692311
0.100639 -0.2484407 0.39161029
0.16210181 -0.4276543 0.46553299
0.14470141 -0.1583101 0.44775629
0.2155592 -0.43446791 0.51838368
0.1783478 -0.27395019 0.48054999
0.14835569 -0.3848941 0.44009751
0.133589 -0.1663385 0.56336278
0.1487668 -0.4236235 0.44267371
0.13767339 -0.25257361 0.4329657
0.1770681 -0.3349129 0.4771702
0.20341671 -0.223969 0.50134689
0.16511241 -0.25500429 0.46895269
0.2227425 -0.3680321 0.53692728
0.1220571 -0.43042931 0.4216997
0.2119167 -0.42210919 0.52098483
-0.52172589 -0.43987381 0.25590819
0.15110651 -0.3808403 0.4351334
0.1108134 -0.42597401 0.39842451
0.2010112 -0.3024466 0.50439471
0.2012689 -0.19572701 0.50390983
0.13059311 -0.23827469 0.4306207
0.197037 -0.41703111 0.49621269
0.19871829 -0.37658221 0.50195462
0.1787817 -0.24818531 0.48452619
0.1671544 -0.2483267 0.46786511
0.22474951 -0.2726835 0.54529172
0.22778749 -0.30095291 0.55066782
0.1637731 -0.27806991 0.46606451
0.1626509 -0.38892809 0.46578079
0.2248763 -0.37735391 0.54347861
0.1059349 -0.2640852 0.3991313
0.079790831 -0.37241119 0.38293141
0.15537681 -0.20425341 0.46287021
0.18280131 -0.1475282 0.49052179
0.216875 -0.18917321 0.52884167
0.20652211 -0.1667233 0.51871991
0.16034959 -0.27830061 0.46836841
0.12606961 -0.25539869 0.41765809
0.1171114 -0.2204639 0.40736261
0.1238572 -0.39663139 0.42286929
0.1593401 -0.4334605 0.4516252
0.1757098 -0.35152599 0.48005041
0.1052399 -0.1830072 0.39506441
-0.04103446 -0.14827479 0.53604448
0.2124079 -0.3850407 0.53712147
0.2056053 -0.39581341 0.5089823
0.1182511 -0.4340266 0.40645319
0.081123233 -0.4363068 0.38063231
0.15631761 -0.40811011 0.45238629
0.1530592 -0.37995499 0.4503682
0.2038905 -0.34014651 0.51492602
0.2170656 -0.375972 0.52696133
0.1601228 -0.2080823 0.46273211
0.1178132 -0.41341609 0.4116618
0.15175951 -0.2470641 0.45849401
0.093805254 -0.41896969 0.38696709
0.2127206 -0.37706131 0.52384537
0.092671633 -0.27043939 0.38672921
0.15624911 -0.1431229 0.4973959
0.072945237 -0.28709891 0.38024679
0.1046916 -0.27397069 0.3983241
0.2218468 -0.4273026 0.55931813
0.036355499 -0.1441576 0.47127661
0.021148801 -0.1471566 0.44222391
-0.73848039 -0.4368968 0.23696271
-0.73387372 -0.4228788 0.22645169
0.1208832 -0.2836991 0.40566009
0.079036891 -0.40949681 0.38083899
0.11971 -0.17960981 0.4107005
0.1629176 -0.27124479 0.44359669
0.1693316 -0.29337379 0.46667039
0.1736324 -0.30238071 0.4681192
0.07997191 -0.33488831 0.37151149
0.1212832 -0.34756389 0.39652449
0.15505309 -0.2594223 0.45567891
0.1053845 -0.2012838 0.39375859
0.08204478 -0.224831 0.3828837
0.1557596 -0.27679071 0.45320281
0.1300597 -0.1810402 0.4263458
0.095645249 -0.3639667 0.3907499
0.168698 -0.30880401 0.46533781
0.13512971 -0.38461679 0.4322162
0.075889833 -0.2305522 0.3799656
0.2213828 -0.38138539 0.54964828
0.20038711 -0.3392202 0.50260419
0.1278664 -0.3731845 0.4225485
0.1179379 -0.3548879 0.40125749
0.097063303 -0.1537561 0.3897458
0.2163531 -0.18403129 0.52945161
0.080196276 -0.2005066 0.38072559
0.1498699 -0.30691019 0.44864571
0.1161765 -0.34742329 0.40215951
0.1616604 -0.42916289 0.46833289
0.2182252 -0.27382699 0.52792752
0.1454819 -0.29318681 0.44522291
0.1286778 -0.2732161 0.4306412
0.077598631 -0.2103364 0.37362009
0.2160906 -0.20837229 0.52711862
0.2275124 -0.2759783 0.53488648
0.079917371 -0.35124251 0.37839729
0.1014103 -0.3103548 0.39272639
0.2217958 -0.2861318 0.5342015
0.22829001 -0.24385729 0.53879452
0.2019365 -0.28109699 0.50497401
0.1193774 -0.30059081 0.405312
0.20057561 -0.1450084 0.55718708
0.2035366 -0.29364911 0.51174933
0.202416 -0.4043884 0.51365638
0.21418829 -0.1597822 0.52231222
0.098944493 -0.40990511 0.38845029
0.1194098 -0.3263824 0.40237439
0.1137725 -0.36052829 0.41101781
0.097932696 -0.2189035 0.39224371
0.061927501 -0.14712539 0.50097227
0.1034757 -0.2406359 0.39018899
0.15321641 -0.25911301 0.43985459
0.121101 -0.2931076 0.41300991
0.058341499 -0.14003339 0.646577
0.2270536 -0.2160884 0.54224592
0.22738311 -0.2171109 0.54482502
0.0061115618 -0.1456051 0.4597469
0.081023932 -0.28493881 0.38295361
0.1205481 -0.37701491 0.40558341
0.22088841 -0.42884931 0.51619399
0.1967399 -0.1576993 0.4965519
0.1756186 -0.30760959 0.47719449
0.16548289 -0.3898733 0.47402501
0.091249533 -0.3115572 0.38056421
0.080633163 -0.2371968 0.3719202
0.1218221 -0.18702701 0.42194921
0.075956047 -0.1452534 0.51908863
0.12540171 -0.1390157 0.49650079
-0.65528512 -0.38510859 0.4628253
0.035284638 -0.1559166 0.41454601
0.096960902 -0.1457454 0.44260281
0.1279978 -0.1452423 0.41716051
0.20429111 -0.33275899 0.51602072
0.2084986 -0.2073333 0.51500368
0.15258621 -0.36809829 0.4573034
0.1698302 -0.1943668 0.461824
0.13523459 -0.2153383 0.4359048
0.20186201 -0.3368082 0.49859831
0.17945869 -0.27491161 0.48120251
0.141544 -0.42747861 0.44237971
0.078233957 -0.41025421 0.3725951
0.1095223 -0.42255169 0.39531061
0.19977941 -0.34044239 0.5118382
0.1797494 -0.33472279 0.4768016
0.224746 -0.2664021 0.54824221
0.086498082 -0.3618125 0.38343531
0.097613692 -0.28575641 0.39188361
0.1000378 -0.3502464 0.3960636
0.1072684 -0.38640249 0.39257699
0.09635818 -0.30291039 0.39115551
-0.039962292 -0.14697491 0.55275232
0.005311131 -0.1426852 0.4997119
0.1993086 -0.36447009 0.58047259
0.22364441 -0.143047 0.54673171
0.22056951 -0.27688429 0.56018829
0.18227731 -0.1368859 0.58864498
0.2234792 -0.1749595 0.54712212
0.2293673 -0.1715308 0.55447233
0.17104129 -0.14293811 0.48695219
0.22288691 -0.16511381 0.53455287
0.19687539 -0.1369438 0.51879692
0.1427985 -0.1468253 0.44645211
0.016071079 -0.14730939 0.43918481
0.04305369 -0.2142016 0.41071349
-0.02767423 -0.35011539 0.46327889
0.00017809869 -0.38305619 0.44684479
0.031935871 -0.2256771 0.41914049
-0.03731579 -0.34503019 0.47660711
0.0040918891 -0.223253 0.4471975
0.049701959 -0.36704579 0.3986271
0.073451459 -0.1452024 0.40433529
0.01312596 -0.1843088 0.43708381
-0.039809261 -0.23713499 0.48315039
0.095287003 -0.142414 0.46181211
-0.041086908 -0.1470464 0.48780119
-0.069080107 -0.33836469 0.50773418
0.01366597 -0.15062431 0.4387815
-0.0307796 -0.4096888 0.4723756
0.032496449 -0.3632071 0.41602859
-0.0034247041 -0.22249649 0.45165941
-0.035530359 -0.3766481 0.47437099
0.0083732009 -0.38754681 0.4347465
-0.037568539 -0.2496375 0.48301959
0.01226565 -0.35724869 0.43383279
-0.0096829534 -0.39721301 0.45159221
0.01113158 -0.18884259 0.43649629
0.02704346 -0.27788541 0.42483929
-0.035389781 -0.2426469 0.48090461
0.063152462 -0.40456399 0.38585141
-0.019353211 -0.26572329 0.46393141
0.05442806 -0.34083119 0.3957189
0.04343826 -0.2477809 0.4061622
-0.071073137 -0.32973811 0.5095219
0.032124821 -0.17808381 0.42005241
-0.071810417 -0.42873949 0.50619578
0.026404951 -0.36837381 0.41663149
-0.047876541 -0.17440189 0.48990291
0.051908672 -0.23685621 0.4015899
0.052415188 -0.2581591 0.4007611
-0.025192199 -0.1789594 0.4742288
0.06437993 -0.2795406 0.38907719
-0.05848426 -0.25547981 0.49781561
-0.066320449 -0.23410951 0.50676489
0.065329254 -0.2068816 0.3905049
-0.028674239 -0.1718799 0.4748846
-0.019201251 -0.1669226 0.46779659
0.03795379 -0.3632898 0.41138759
-0.0098308623 -0.1841213 0.46298191
0.008415401 -0.21866921 0.44627041
0.03038794 -0.4282307 0.41536099
0.059063882 -0.20309711 0.39946279
-0.058059841 -0.1478655 0.50603312
0.02139069 -0.37817839 0.41890159
0.035781559 -0.1684614 0.41654399
0.173728 -0.14469419 0.5177471
0.029545629 -0.2288 0.4187524
-0.0081630955 -0.19811089 0.46033561
-0.027552661 -0.28597739 0.47013551
-0.074672729 -0.36987731 0.50804907
-0.05689517 -0.381661 0.48989439
0.048878338 -0.42609099 0.3952952
-0.0138382 -0.42430961 0.4539443
-0.037105542 -0.31730771 0.47827789
-0.041397572 -0.1650348 0.48681319
-0.0097200274 -0.4303394 0.45129201
-0.02923481 -0.37025011 0.47082451
0.043250259 -0.35134801 0.40627259
0.02810693 -0.42155081 0.41542119
0.0222365 -0.3876791 0.42261919
0.03113815 -0.29756421 0.41578871
-0.080587924 -0.25873891 0.5251202
0.01671112 -0.32556751 0.42808619
-0.01284787 -0.33825701 0.4513886
-0.022799309 -0.2351016 0.47315359
0.0025613899 -0.4324187 0.4381763
-0.023471 -0.37561381 0.46726391
-0.066965833 -0.39523509 0.49870881
-0.04848462 -0.43486261 0.47872451
-0.027710591 -0.1439606 0.50656581
-0.082365468 -0.30356699 0.52272689
-0.058156241 -0.41878459 0.48737371
0.01142547 -0.35572109 0.43629459
-0.043359429 -0.39269561 0.4793258
-0.047289308 -0.36914191 0.48299831
-0.045798931 -0.4088527 0.4828814
0.080055833 -0.40972939 0.37663579
0.036905881 -0.1471713 0.42378139
-0.01752105 -0.41366449 0.4598397
-0.047857258 -0.3389217 0.48516321
-0.00229615 -0.37774679 0.44573009
-0.05890429 -0.3577444 0.49075139
-0.068736076 -0.3124522 0.51122499
0.023816161 -0.36791489 0.42326501
-0.043211039 -0.1846458 0.48885769
-0.065771461 -0.2059563 0.50650108
-0.04108033 -0.22807179 0.49101931
-0.02190486 -0.1500493 0.46906471
-0.017158991 -0.1489435 0.54586011
0.053698659 -0.3915531 0.39408889
0.051446971 -0.3591195 0.40403131
0.042835299 -0.1763335 0.4132809
-0.073072672 -0.33291361 0.51150447
-0.064560778 -0.36828679 0.49860951
-0.03814495 -0.3477329 0.47168311
0.062717684 -0.16258641 0.40087879
-0.035132259 -0.40884799 0.4714134
-0.032678101 -0.2532253 0.47081661
-0.015952541 -0.3466785 0.4606553
-0.002610564 -0.14905021 0.45518509
0.0024954081 -0.38088509 0.43931341
-0.067915142 -0.19240411 0.5097549
0.0050467248 -0.25481021 0.44702059
-0.036332939 -0.22712369 0.48227939
-0.065480679 -0.3859064 0.49944359
-0.01313263 -0.2674678 0.45952001
-0.083360583 -0.29072219 0.52839732
-0.033224639 -0.1561196 0.47795179
-0.02459657 -0.26372299 0.4714421
-0.016572241 -0.2436849 0.46836689
-0.062753469 -0.33565539 0.50145781
0.04865947 -0.20566189 0.40678889
-0.0084197819 -0.25991589 0.45861521
-0.038445652 -0.1999391 0.4852958
-0.01963985 -0.1581056 0.46879551
0.01286697 -0.23358969 0.44066441
0.05919987 -0.4198238 0.392782
-0.034180611 -0.25408131 0.47900701
0.0083350837 -0.14471111 0.50552839
-0.058208439 -0.4225612 0.49269071
-0.01457596 -0.30382869 0.45984891
0.035468642 -0.36084399 0.4099637
0.069361091 -0.38138041 0.3832956
0.084441297 -0.43669489 0.38715589
0.083602399 -0.43460119 0.38347611
0.01819816 -0.34283939 0.42897001
-0.085973397 -0.420012 0.51607358
-0.044596281 -0.33875281 0.4796893
0.044690192 -0.39040071 0.40379229
-0.083167583 -0.4154149 0.52000648
-0.028106 -0.3260141 0.47203651
-0.081061073 -0.39539859 0.51171732
-0.0051810741 -0.3500005 0.44558531
-0.04124913 -0.41027951 0.4792099
0.02787232 -0.35473269 0.4202725
-0.04681224 -0.43990549 0.4814207
0.02460048 -0.33399871 0.42556649
4.547834e-05 -0.43314779 0.43987551
-0.081799947 -0.34934151 0.52208883
-0.01118314 -0.34949711 0.45636579
-0.069487393 -0.3576487 0.50470531
-0.066975653 -0.37620759 0.50085372
0.01546118 -0.1441409 0.52097189
-0.082154751 -0.3276633 0.51277161
0.0091872811 -0.14450809 0.48906201
-0.053809371 -0.1759381 0.49315709
-0.047090691 -0.2235398 0.49223411
-0.04343015 -0.1896158 0.482878
-0.0040808618 -0.19439331 0.45382419
0.065734863 -0.31351691 0.3893967
0.070001327 -0.41052979 0.38246861
0.068018913 -0.39895019 0.3843179
-0.070122868 -0.35422999 0.50764829
0.067160867 -0.35439751 0.38606131
0.04979777 -0.41146061 0.4001697
-0.063910723 -0.3428807 0.49954501
0.032255229 -0.327712 0.4165211
-0.080683358 -0.36142451 0.51780492
-0.01474878 -0.38969561 0.45725521
-0.021369809 -0.43608281 0.45817539
-0.073741198 -0.34755629 0.50861782
-0.0699974 -0.39718419 0.50265872
-0.0566555 -0.39410931 0.49538469
0.066484749 -0.2821365 0.3914609
0.04335916 -0.1448323 0.54123229
-0.060312718 -0.2646938 0.50039279
-0.066616088 -0.2318213 0.50706679
-0.05726603 -0.2777876 0.49622771
-0.06626752 -0.395522 0.50014132
0.084817857 -0.3325994 0.3813422
0.065339424 -0.39093551 0.38986999
0.06070045 -0.4175812 0.3881619
0.0456644 -0.37866101 0.40629771
-0.0039484198 -0.41095921 0.44233301
-0.058498502 -0.3518244 0.49707001
-0.05185825 -0.34737879 0.4913545
-0.062240452 -0.32900941 0.50757051
-0.033836361 -0.38309681 0.47031271
0.03257972 -0.1901114 0.420737
0.082408577 -0.3015517 0.37957579
0.068704747 -0.25851101 0.38713229
0.08399716 -0.1439874 0.62761748
-0.081144601 -0.2266466 0.52852708
-0.056915998 -0.30953231 0.4966979
-0.072344512 -0.2101187 0.51837403
-0.080625147 -0.1892993 0.51440227
0.01426318 -0.39331499 0.42953649
0.02114943 -0.34095529 0.42651379
0.03563112 -0.38922071 0.41271281
-0.038342979 -0.4277133 0.4715735
-0.03382352 -0.33176529 0.47279599
-0.050816711 -0.4125765 0.48423421
0.07269153 -0.32043731 0.38657209
-0.049867179 -0.37424421 0.4875578
0.0047736759 -0.39854291 0.43991321
0.071559638 -0.3401131 0.38421839
-0.070332021 -0.38208961 0.51326227
-0.041036129 -0.423383 0.4773733
-0.024766469 -0.4153727 0.46562341
0.01123828 -0.43011689 0.4336465
-0.006012619 -0.33212331 0.45424521
-0.0046423669 -0.3570185 0.45228139
0.039094061 -0.3349174 0.41452101
-0.01216465 -0.36686629 0.45478341
0.026265411 -0.1462075 0.45847771
-0.0035997629 -0.4354648 0.44306901
0.1718553 -0.141707 0.55880678
-0.0008866787 -0.14395019 0.47594911
0.066992581 -0.1465143 0.61351269
-0.081753731 -0.39125311 0.52451658
-0.03075641 -0.38971871 0.46880779
-0.064684063 -0.31112429 0.51308298
-0.03342912 -0.14427771 0.4933188
0.1084962 -0.14274269 0.46897429
0.045192149 -0.14648449 0.41010991
0.1367299 -0.14256661 0.58044863
0.039930429 -0.1771027 0.41032791
0.086400598 -0.14679641 0.46856591
0.1074118 -0.14566299 0.49582869
0.082072817 -0.30883071 0.37977111
0.050346639 -0.3619476 0.40149641
0.025041699 -0.29703069 0.43415311
0.05545738 -0.14508811 0.56259638
0.097280167 -0.14286751 0.60519671
0.00088098651 -0.24442901 0.45479009
0.15506341 -0.1420234 0.5724631
0.04694381 -0.3271648 0.4050363
0.075597256 -0.40286341 0.38000229
0.0538764 -0.40386471 0.39334229
0.061716471 -0.42904601 0.38795009
-0.074683011 -0.32741189 0.51492769
0.063729636 -0.4272396 0.38646671
0.054237779 -0.25678721 0.40107021
-0.02634755 -0.28173351 0.4693211
0.063905656 -0.27621999 0.3842099
0.016369971 -0.14632989 0.43746209
0.033706609 -0.2277105 0.41133049
-0.0094046593 -0.1977576 0.45980531
-0.002139837 -0.2235668 0.448383
-0.064216077 -0.33193949 0.4996371
0.0066072051 -0.2197281 0.4471879
0.033848461 -0.36095729 0.41405731
-0.038980871 -0.15171701 0.48778811
0.0043248241 -0.3834345 0.44111201
0.0162262 -0.15108369 0.43530601
0.068634957 -0.15053339 0.38910401
0.01463839 -0.1862523 0.4327493
0.06705907 -0.26654011 0.38243341
0.045990229 -0.14684831 0.41757211
0.01497334 -0.31270301 0.43542841
-0.02038792 -0.39734069 0.45507401
0.077537417 -0.25760561 0.3792055
0.083979852 -0.1669147 0.3843351
0.076410651 -0.1632093 0.37847519
-0.08846122 -0.4298521 0.49521881
0.08180654 -0.33057001 0.3849428
0.082393408 -0.1983455 0.38118291
0.1248472 -0.31749731 0.41921619
0.1232241 -0.1481455 0.4260723
0.20006751 -0.2903108 0.50321341
0.080773592 -0.34765729 0.37444431
0.19800229 -0.41627061 0.49532971
0.0003653467 -0.42939451 0.4351593
0.1448016 -0.1493212 0.44536981
0.083970129 -0.219514 0.38122031
0.18506961 -0.41398311 0.48447031
0.1494026 -0.3797749 0.4358404
0.1596037 -0.1497626 0.46530971
0.099007823 -0.31070259 0.39247051
0.1694801 -0.2945877 0.46939909
0.1672581 -0.2543819 0.47218019
-0.033921149 -0.34531221 0.47940439
0.075596482 -0.36581689 0.37826601
0.08291471 -0.35026181 0.383477
0.1177171 -0.1924389 0.4188157
0.1029655 -0.20168041 0.39659569
0.05669364 -0.4246515 0.39274409
0.09383142 -0.30434909 0.3886061
0.1027258 -0.26168489 0.39853859
0.20349111 -0.340799 0.50412399
0.2009996 -0.1476779 0.50744629
0.14755391 -0.26265979 0.4452697
0.13143639 -0.29001811 0.43279591
0.23008209 -0.37880221 0.54736531
0.1480979 -0.158308 0.45156139
0.1001333 -0.343346 0.3952494
0.1657653 -0.39543581 0.46215391
0.1744516 -0.38367409 0.47313589
0.1297624 -0.14655811 0.46878731
0.2299298 -0.34466481 0.54365939
0.147936 -0.3860116 0.44153669
0.12785199 -0.37413669 0.42600539
0.085492007 -0.28217351 0.3859278
0.1002124 -0.2740815 0.38599041
0.1031072 -0.18387111 0.39745781
0.1493438 -0.237297 0.4549177
0.1268578 -0.3955994 0.42642039
0.1802714 -0.27611899 0.48319769
0.1048722 -0.2113055 0.40219539
0.1870126 -0.14758541 0.49460271
0.2162315 -0.42084211 0.52000761
0.077468842 -0.31105191 0.38622639
0.1168174 -0.2449512 0.41315901
0.1191854 -0.17914359 0.41614571
0.078285992 -0.2755473 0.37243661
0.20502479 -0.2254594 0.50860661
0.15655179 -0.4064326 0.45323849
0.08208248 -0.43504909 0.38335741
0.1155318 -0.30517331 0.41124359
0.1141422 -0.33095911 0.40734571
0.089783043 -0.3133283 0.38466281
0.1269006 -0.2977013 0.4158324
0.1415851 -0.1525944 0.4441568
0.1657059 -0.27966619 0.47046259
0.14886691 -0.42351249 0.4431608
0.1299285 -0.2400033 0.43409979
0.15738361 -0.27798861 0.4546459
0.087146729 -0.16606539 0.38198689
0.095047712 -0.34468681 0.39118981
0.1158881 -0.2230899 0.41143981
0.1972933 -0.1592008 0.50048929
0.2095716 -0.33705229 0.51571113
0.095549643 -0.1880476 0.39828861
0.2181839 -0.39284891 0.52464747
0.09241125 -0.3543275 0.38077569
0.13284349 -0.32075989 0.42945561
0.2111911 -0.41188559 0.52026743
0.2155633 -0.1489135 0.53008687
0.1461726 -0.20145421 0.4535639
0.20192941 -0.34000051 0.50094551
0.204676 -0.29996151 0.50563669
0.1676733 -0.42394659 0.4638997
0.170004 -0.42412311 0.46803251
0.025967181 -0.3567327 0.42103601
0.1450168 -0.2959373 0.45155239
0.080695987 -0.43863359 0.38423961
0.135637 -0.37963921 0.42396879
0.068328351 -0.14805619 0.39135119
0.226 -0.3079204 0.53695017
0.1997128 -0.17393079 0.50746638
0.20136601 -0.3759535 0.50321949
0.16509271 -0.3861835 0.46417889
-0.062623501 -0.41851249 0.49036139
0.1427611 -0.2769326 0.4392027
0.046939369 -0.43216279 0.40732071
0.1540115 -0.3806946 0.4530296
0.1850422 -0.2426509 0.48665681
0.096010827 -0.41190439 0.38981071
0.15592501 -0.4389278 0.45567831
0.2362622 -0.39674261 0.54976851
0.099539943 -0.2495079 0.39707029
0.1188302 -0.3306551 0.41637021
0.1055422 -0.152861 0.41230461
0.17965171 -0.33791059 0.4801698
0.1658936 -0.2747297 0.47112939
0.1656134 -0.38868311 0.467439
0.1595577 -0.2026519 0.4661344
0.20501851 -0.28175661 0.50638598
0.1103292 -0.2611607 0.40280101
0.20742451 -0.29443139 0.51510543
0.1185132 -0.4141354 0.41481921
0.16915651 -0.3487919 0.47177669
0.2053178 -0.3894254 0.51320308
0.224765 -0.37551591 0.53220022
0.2014758 -0.41941521 0.50035751
0.1792722 -0.35018781 0.48312619
-0.068320811 -0.31050771 0.50829291
-0.01976037 -0.1429107 0.4936392
0.1024923 -0.28292391 0.3944557
0.1180394 -0.2221974 0.4132773
0.2028807 -0.22671171 0.5042851
0.1131462 -0.21690319 0.40826291
0.1343648 -0.26969391 0.43082869
0.1205364 -0.32554409 0.4185687
0.1212848 -0.31328389 0.4129979
0.2082049 -0.1484212 0.51892799
0.099213481 -0.2178537 0.3970122
0.065892339 -0.14432681 0.40704849
0.085732669 -0.40211689 0.37963289
-0.034822639 -0.37688369 0.4767243
0.1009813 -0.34952801 0.3993471
0.2248549 -0.22023 0.53850812
0.17725191 -0.30507031 0.47613171
0.1722717 -0.34416831 0.4698039
0.1851902 -0.31021789 0.4896386
0.14503621 -0.25582999 0.4475686
0.2282919 -0.28248629 0.55084419
0.2195532 -0.4338176 0.51865733
-0.0075029428 -0.145478 0.4673453
0.0001576841 -0.38540491 0.4438
0.1612507 -0.2410413 0.47395149
0.1007179 -0.184223 0.39999279
0.2092531 -0.36537659 0.51013309
0.074089646 -0.1944215 0.3821393
0.1490933 -0.1517338 0.4578498
0.13783909 -0.26177129 0.44268039
0.1601001 -0.255348 0.45753461
0.2213369 -0.27558011 0.52865738
-0.0062592332 -0.2538853 0.45477861
0.1092235 -0.181352 0.41155559
0.1797453 -0.1504717 0.50163788
0.18637089 -0.1511461 0.55804312
0.080609143 -0.1433181 0.49108231
0.096129566 -0.15581539 0.39593861
-0.004963845 -0.31665781 0.44941029
0.1943334 -0.1924094 0.50876331
0.2188894 -0.1535337 0.53359991
0.1113092 -0.35340759 0.40104371
0.1798833 -0.3357898 0.48032621
0.2346978 -0.4217692 0.55109137
0.032561511 -0.1465227 0.4503364
0.1402555 -0.38128299 0.43329531
0.13883629 -0.2149033 0.43878621
0.1477668 -0.1433028 0.57189018
0.16348 -0.37506929 0.46330109
0.1498259 -0.1989242 0.45806029
0.19119629 -0.2958802 0.50233269
0.14003991 -0.33875209 0.43563029
0.1139047 -0.21249589 0.41497001
0.2312829 -0.31000981 0.54656881
0.2251794 -0.2724975 0.55193502
0.1071867 -0.14934561 0.4492605
0.1408982 -0.2513468 0.43607661
0.2176567 -0.37591901 0.52409822
0.1788356 -0.3149552 0.47392449
0.2076375 -0.1612815 0.51676208
0.1605216 -0.34391749 0.46078131
0.102176 -0.15753371 0.40411541
0.2076347 -0.27083999 0.51561427
0.2242433 -0.1987868 0.54776728
0.027024239 -0.23897509 0.41808811
0.1616105 -0.2727212 0.4420357
0.084816463 -0.2702511 0.383562
0.15248451 -0.23716439 0.4620679
0.1587474 -0.41700399 0.46051571
0.1884623 -0.30800289 0.49347121
0.1953201 -0.1618178 0.50979358
0.1745318 -0.1499369 0.48385891
0.1483337 -0.22776429 0.45650679
0.2240193 -0.28610939 0.53276873
0.22827969 -0.34506151 0.54463232
0.2065428 -0.40314081 0.51625448
0.091264069 -0.29331949 0.38294789
0.081390858 -0.2243142 0.38925761
0.1196148 -0.2478479 0.41294771
0.2363386 -0.36836731 0.56265891
0.209731 -0.2158242 0.52273291
-0.01655647 -0.32795969 0.47685051
0.096747793 -0.40431869 0.415162
0.1366522 -0.21648 0.4390741
0.1952071 -0.1442641 0.57474291
0.1331486 -0.2933926 0.44786859
0.1150102 -0.34730029 0.40124619
0.08469063 -0.33440879 0.38719791
-0.094586037 -0.39292869 0.51926172
0.2142771 -0.17740589 0.52593821
0.2240856 -0.2112956 0.53680408
0.15038811 -0.193701 0.450434
0.04657748 -0.1484559 0.40972269
0.067389913 -0.1450505 0.47625229
0.20690259 -0.31805319 0.51468998
0.094582953 -0.2471987 0.40069669
0.093880743 -0.2234969 0.39002931
0.13124619 -0.25080761 0.42659631
0.08576104 -0.2116566 0.38350111
0.198027 -0.1515415 0.5095526
0.1001011 -0.1490657 0.662305
0.043821689 -0.21257681 0.41455969
-0.05690271 -0.32388291 0.4995611
0.073681533 -0.3175284 0.37917259
0.2093631 -0.29682451 0.52303177
0.08071959 -0.1479879 0.45612201
-0.01189193 -0.1576789 0.4611862
0.085431248 -0.2585907 0.386464
0.077488929 -0.2065278 0.3763482
0.16300181 -0.1668327 0.47433949
0.14431851 -0.2344328 0.44388011
0.1394946 -0.226336 0.4392508
0.1233414 -0.20536719 0.42292961
0.2302067 -0.218738 0.54654038
0.1071581 -0.39421189 0.3798956
0.2048578 -0.19757999 0.5058639
0.01955056 -0.14844771 0.52418751
0.2221133 -0.32481691 0.55733502
0.085820973 -0.1776292 0.6811527
0.1062278 -0.27053311 0.66006702
0.1236814 -0.39135069 0.64635712
0.2203189 -0.1447067 0.52981663
0.20037431 -0.146284 0.52090812
0.1250219 -0.1448862 0.62677789
0.1476496 -0.1485057 0.52238637
0.14013021 -0.1417338 0.51885808
0.22242519 -0.1988375 0.54549628
0.21907561 -0.21842501 0.56147969
0.2248725 -0.14523511 0.54260641
0.14317261 -0.1435038 0.54165697
0.1581281 -0.1456672 0.56175369
0.18673129 -0.31865981 0.59101021
0.13797741 -0.35714191 0.63073528
0.1586614 -0.28831631 0.61320388
0.2294039 -0.3007063 0.55150318
0.2293115 -0.34497201 0.54606998
0.2284759 -0.25572959 0.54684943
0.2176384 -0.2797747 0.55790722
0.22076359 -0.27503291 0.54307419
0.229387 -0.29430929 0.54814547
0.22966389 -0.33235279 0.54760402
0.14294671 -0.1488249 0.4462091
0.1239102 -0.1469675 0.44464299
0.16310219 -0.1449015 0.48180801
0.1590669 -0.14857601 0.46540159
0.148064 -0.2834416 0.44668901
0.15075751 -0.38223931 0.44174671
0.1818758 -0.2455525 0.48675069
0.1646041 -0.38985431 0.4650141
0.21100409 -0.1958952 0.57095438
0.1591057 -0.1376038 0.47815689
0.2345241 -0.1930725 0.54999822
0.1379703 -0.2152551 0.44064409
0.145229 -0.2365828 0.46224859
0.1063235 -0.2048123 0.3989906
0.1174302 -0.2202675 0.4129912
0.14278071 -0.2391582 0.4543252
0.077494562 -0.2165771 0.68466341
0.1128095 -0.31812471 0.65765512
0.2317542 -0.207534 0.54924852
0.2340385 -0.1595813 0.54912668
0.1224368 -0.1791503 0.65024859
0.2066389 -0.17320789 0.57386267
0.088415183 -0.36838371 0.67656428
0.067637257 -0.2302504 0.68905318
0.1437137 -0.14944939 0.62576741
0.19606499 -0.1489445 0.58108032
0.1599938 -0.2045119 0.61079752
0.18276639 -0.38251939 0.59816551
0.1527742 -0.24828009 0.61798209
0.219153 -0.29127511 0.56627029
0.079465874 -0.28091219 0.6789161
0.2179884 -0.3351922 0.56503141
0.22212809 -0.25814179 0.56349212
0.219405 -0.33701611 0.56343192
0.1052344 -0.2414044 0.396929
0.2278343 -0.2237691 0.55986989
0.1046368 -0.1370631 0.64401948
0.1282921 -0.2125432 0.63794923
0.2324407 -0.28037831 0.55436999
0.226274 -0.35033271 0.5585168
0.12545469 -0.159713 0.64650291
0.1590198 -0.2030084 0.61192101
0.1428266 -0.34934431 0.63065928
0.1496716 -0.27695701 0.61881119
0.084988236 -0.31628859 0.67977011
0.1042798 -0.33291519 0.66229087
0.169962 -0.43247879 0.61236978
0.2044218 -0.2408745 0.57711071
0.1391616 -0.3906942 0.63358867
0.1474442 -0.2866388 0.62354583
0.2251271 -0.2209271 0.53973699
0.160538 -0.37275401 0.61651617
0.1494002 -0.30604899 0.62066048
0.1074934 -0.1377371 0.55212539
0.1432717 -0.144144 0.61590528
0.112812 -0.1577605 0.65793961
0.22798111 -0.2463917 0.56063157
0.1965334 -0.1836044 0.58145702
0.2215963 -0.36226109 0.56228
0.1374623 -0.3232199 0.64270109
0.076899469 -0.324678 0.69009149
0.1014357 -0.3637116 0.66950732
0.1607409 -0.2157031 0.61991251
0.167724 -0.14107969 0.5751195
-0.046607431 -0.14517251 0.55746138
0.13161451 -0.18175291 0.64326179
0.1214656 -0.1499543 0.65019208
0.18534701 -0.31792581 0.5954963
0.1894557 -0.2423556 0.58979428
0.18277679 -0.2281899 0.5906893
0.14040139 -0.30312791 0.62840652
0.1891868 -0.38594049 0.59555459
0.1442502 -0.21275119 0.62130791
0.1027882 -0.2905516 0.65991938
0.2150414 -0.37922081 0.56829011
0.1351345 -0.4214353 0.63636547
0.13174631 -0.28580111 0.65062469
0.086098492 -0.29706559 0.68161339
0.1378244 -0.35233101 0.64316761
0.23310331 -0.16892 0.55354732
0.084967017 -0.27366391 0.68691128
0.1957121 -0.419303 0.5929926
0.099287748 -0.33398989 0.68075341
0.1350373 -0.23871049 0.4347364
0.147882 -0.17701221 0.62138319
0.2299514 -0.36629489 0.55955631
0.2084785 -0.30756301 0.5725407
0.085235886 -0.22721361 0.69185662
0.1143984 -0.298767 0.6592977
0.1042167 -0.32158041 0.67057103
0.1460183 -0.2474862 0.6345427
0.099477708 -0.1445092 0.4945161
0.064839602 -0.1833324 0.69540948
0.19002999 -0.39608499 0.58600402
0.192551 -0.17092539 0.5872367
0.1485372 -0.43894881 0.62000912
0.091429234 -0.30368119 0.66776299
0.2303689 -0.4176136 0.55074251
0.1237502 -0.3212167 0.64044517
0.079740457 -0.3115088 0.68404502
0.1698662 -0.16121329 0.4751938
0.1203887 -0.41002199 0.41450241
0.2048685 -0.1730399 0.57381779
0.07871601 -0.26194659 0.68459868
0.21402229 -0.42721051 0.50903189
0.2289097 -0.230527 0.54596663
0.1424453 -0.32699019 0.63982779
0.1437176 -0.43819949 0.63439792
0.22333591 -0.3656666 0.56693822
0.1580586 -0.24022581 0.61473107
0.035908159 -0.14860059 0.42936271
0.1731316 -0.14000431 0.51361889
0.2079508 -0.2227217 0.50857568
0.21249349 -0.19375829 0.51141071
0.1937864 -0.15993799 0.57877493
0.088566244 -0.2485811 0.66529459
0.110321 -0.26128921 0.41554809
0.15216041 -0.2005571 0.61773878
0.2034314 -0.15874229 0.57878512
0.1765251 -0.2158733 0.60978502
0.1235314 -0.200758 0.65017939
0.1453543 -0.31642711 0.62385881
0.1425889 -0.157114 0.63121772
0.1832201 -0.1793742 0.59246868
0.1131778 -0.37576559 0.66823769
0.1376715 -0.1429324 0.50015992
0.22044989 -0.37618101 0.52642071
0.081131518 -0.42586541 0.68222588
0.086307533 -0.37441361 0.68840069
0.21381821 -0.43228421 0.57030499
0.1239913 -0.4374595 0.64858347
0.2324373 -0.42018589 0.56038147
0.12620489 -0.375361 0.42576221
0.22680759 -0.43435591 0.55214411
0.1609461 -0.30561161 0.45552811
0.067194939 -0.43769559 0.68745458
0.114983 -0.27927789 0.65204608
0.073602803 -0.4340696 0.69308919
0.2038985 -0.43308261 0.58135819
0.18798301 -0.26730451 0.58840048
0.22815479 -0.36241999 0.54879808
0.091162682 -0.23194429 0.67390049
0.1561691 -0.40883821 0.61654222
0.089470208 -0.33584279 0.68162858
0.1598043 -0.14306889 0.59546733
0.123438 -0.1448006 0.59400588
0.1070947 -0.14834569 0.47337341
0.2279125 -0.3471373 0.54382771
0.2261989 -0.38257569 0.54248768
0.2246227 -0.38307649 0.53781128
0.1073714 -0.25593081 0.40303949
0.1178766 -0.1709228 0.6469444
0.21103659 -0.27008459 0.51797932
0.1174913 -0.37046891 0.66049379
0.2076498 -0.31175941 0.57309037
0.078487098 -0.36865219 0.68935299
0.078024797 -0.1738093 0.68311971
0.1162822 -0.412916 0.66277969
0.1560954 -0.31556731 0.61810881
0.1085478 -0.43790889 0.66481721
0.1946972 -0.34347609 0.58684039
0.168525 -0.35733759 0.6300261
0.14766219 -0.36212271 0.62811041
0.1075352 -0.41872069 0.67085493
0.19054811 -0.40244269 0.59513652
0.1316058 -0.1620782 0.6394152
0.20388269 -0.14451841 0.54277903
0.1064041 -0.36040819 0.39782101
0.074090481 -0.1991033 0.69282907
0.191048 -0.3039985 0.4922044
0.15496591 -0.36323959 0.62947512
0.1197792 -0.4216226 0.65738583
0.1208425 -0.40553609 0.65706772
0.090741098 -0.33250561 0.70536548
0.2414863 -0.3163749 0.56259751
0.2144338 -0.1614096 0.53116262
0.2331423 -0.36894059 0.54955173
0.1880025 -0.3722645 0.59022808
0.1291904 -0.1478336 0.63515347
0.071023703 -0.1490868 0.58338869
-0.01327571 -0.1485247 0.60670209
0.05154258 -0.24292991 0.68074048
0.05448648 -0.42250961 0.68468362
0.069611222 -0.146754 0.41471201
-0.031691011 -0.2221614 0.59215468
0.068184048 -0.148674 0.4651387
-0.02913383 -0.3017734 0.58942342
0.062187549 -0.2245826 0.68892419
0.035555959 -0.1486385 0.63530612
-0.0083350241 -0.15291481 0.61736292
-0.01471022 -0.281838 0.6097737
0.01534199 -0.31249869 0.64694029
0.04514426 -0.41064361 0.6752184
-0.029147509 -0.4175562 0.59350711
-0.072944127 -0.22694939 0.54835898
-0.07332626 -0.26451311 0.54514289
-0.057605982 -0.29106191 0.56440789
-0.065345638 -0.31563169 0.55597627
-0.059058368 -0.33700299 0.56390768
-0.0048194421 -0.3917028 0.62711561
0.049902622 -0.25996459 0.67734921
0.04526994 -0.32226309 0.67208278
0.046099901 -0.3733778 0.67755389
0.02767515 -0.15341491 0.65135199
0.0032571701 -0.1705713 0.62703729
-0.01388597 -0.33185339 0.61232573
0.053177569 -0.20632429 0.68255901
0.05018549 -0.32375401 0.68535292
0.0069884658 -0.2310801 0.62471849
0.02859181 -0.2246238 0.65276033
-0.02004629 -0.1580818 0.59537667
0.02092552 -0.35135931 0.64864087
0.1945471 -0.1500933 0.53253663
0.1987523 -0.2125589 0.56767547
0.01246858 -0.25141141 0.63970792
0.024947871 -0.2015796 0.65395927
-0.044418309 -0.3489995 0.58212137
0.036575109 -0.39736801 0.66805041
0.027992129 -0.35162359 0.66042262
-0.033990622 -0.2004995 0.58429098
0.060701191 -0.1467623 0.61289179
0.015749561 -0.37108871 0.64828968
-0.0043593049 -0.36502311 0.62541449
0.02960646 -0.25126261 0.65657091
-0.015645711 -0.1994489 0.60563749
-0.054694921 -0.43815541 0.56894737
0.032211758 -0.2021134 0.66135943
-0.0123623 -0.1822864 0.61107832
0.0077807899 -0.1666647 0.62939978
0.051683571 -0.2406327 0.68570763
0.043606639 -0.2916007 0.66677529
-0.04393461 -0.1786195 0.5765968
-0.080980673 -0.25170839 0.53481108
-0.0063073342 -0.1485001 0.46863729
-0.05988067 -0.1658777 0.55313867
-0.02473402 -0.1828457 0.59550518
-0.031393051 -0.1480213 0.5825159
-0.026401149 -0.41927281 0.60386062
-0.070078067 -0.18365259 0.54610419
0.007626384 -0.2378895 0.63453192
0.02607609 -0.35795179 0.66070282
-0.02189857 -0.1475931 0.57250953
-0.001277685 -0.1885782 0.62262052
0.1950659 -0.1463097 0.57505322
-0.063288212 -0.25732309 0.556876
-0.0076996679 -0.2459479 0.62188828
0.00140097 -0.20058151 0.62707281
0.02445388 -0.2012421 0.65302491
0.01895785 -0.3198159 0.65003562
-0.0092824399 -0.1539218 0.62138921
0.033735842 -0.1750626 0.66350448
0.1086443 -0.1451688 0.55828482
-0.0021374519 -0.34551769 0.62719363
-0.072141647 -0.1656463 0.54296678
0.1227282 -0.15934999 0.62573862
0.1633427 -0.1455819 0.60088801
-0.01549119 -0.3335368 0.61507791
0.04132295 -0.225592 0.66852432
0.035348982 -0.3972424 0.66847807
0.2301698 -0.37561059 0.56849778
-0.040273249 -0.2233433 0.57830638
-0.03432852 -0.1914313 0.58626473
-0.044797149 -0.40610781 0.58041137
0.02639389 -0.1538765 0.56201363
-0.019949671 -0.2722204 0.60340601
-0.02058132 -0.39416769 0.60608888
0.0038964299 -0.3714878 0.63430959
0.018103691 -0.2310006 0.64476907
-0.065190457 -0.16503531 0.55468613
-0.03026351 -0.3006351 0.58951902
-0.074697576 -0.2259144 0.5532409
0.059863899 -0.22265209 0.68550962
0.071876317 -0.22394951 0.69164008
0.2116998 -0.1443191 0.54976612
0.2286157 -0.1592568 0.54822642
-0.038584251 -0.2044863 0.58385688
-0.00205797 -0.1741827 0.6182735
0.04739261 -0.34389231 0.66881472
0.1119157 -0.41221961 0.71265602
0.047763199 -0.42774931 0.6825906
0.072702348 -0.31386411 0.68991083
0.044305 -0.37449211 0.6790567
-0.076621287 -0.31893659 0.54700983
0.047416061 -0.32504949 0.68294537
0.089332759 -0.1449264 0.58763492
-3.626943e-05 -0.27018249 0.63242823
0.0347712 -0.14706179 0.4777537
0.1330664 -0.1460337 0.5577746
0.08162263 -0.1427234 0.43449301
0.0080037713 -0.2068785 0.625368
-0.003390312 -0.39277041 0.62465459
0.078152031 -0.1477094 0.66992718
-0.059679929 -0.33658499 0.56317359
-0.062112331 -0.2941601 0.56112307
-0.0817433 -0.15203971 0.53256923
0.1276556 -0.1451474 0.59452158
0.12749951 -0.1424056 0.6232307
0.053429421 -0.42425239 0.66716331
-0.004807055 -0.43804821 0.61888808
-0.06400381 -0.37425369 0.55589873
-0.083001792 -0.16102961 0.53568029
-0.02879554 -0.1993853 0.58955562
-0.078281537 -0.37924579 0.52462208
-0.054595198 -0.2389397 0.5670954
0.03430916 -0.315146 0.65899068
0.062175009 -0.1627975 0.69268513
-0.021245331 -0.1505945 0.59658831
0.1421831 -0.1441762 0.51337659
0.087145694 -0.1404305 0.4683916
-0.0053752661 -0.1441521 0.49244401
0.090314537 -0.1478823 0.65531218
0.19004621 -0.2495773 0.58855462
0.1142997 -0.1499119 0.63472199
-0.03729783 -0.40523931 0.58930469
0.0001261532 -0.28952721 0.64153409
-0.086956382 -0.1653766 0.54744548
-0.032685138 -0.3884823 0.59427172
0.064965338 -0.41484299 0.6854282
-0.01800108 -0.3036831 0.61287129
-0.023082551 -0.34237051 0.60519618
0.084983081 -0.417849 0.69020581
0.060193151 -0.1512305 0.41539329
0.02166003 -0.1492691 0.59649491
0.070286207 -0.1460932 0.65873343
0.066293687 -0.1646796 0.68539321
0.036591019 -0.1542156 0.66789091
0.029639149 -0.2507681 0.65343308
0.113137 -0.28758699 0.65603858
0.077017158 -0.27555531 0.68561971
0.23284771 -0.3841747 0.55401993
-0.01895443 -0.31720659 0.61761671
0.03881273 -0.1518352 0.59422308
-0.03897506 -0.21062221 0.57438308
0.078935713 -0.29895619 0.68126762
-0.040560748 -0.14793921 0.54644912
0.01159899 -0.2286427 0.64144802
0.017688811 -0.18899681 0.6401118
0.074857287 -0.1491486 0.50022709
-0.073788457 -0.1517259 0.51997948
-0.008939594 -0.1504544 0.5313161
0.062454969 -0.1401487 0.6016354
0.00053828949 -0.25184619 0.61921817
0.1020276 -0.14086489 0.51519072
-0.054376479 -0.4349815 0.56914401
0.048174981 -0.36033469 0.67167503
-0.01159605 -0.14662001 0.56271148
-0.08394298 -0.38738331 0.53840083
0.02844712 -0.1508197 0.57373649
0.046680871 -0.34309489 0.68080932
-0.05121788 -0.1839001 0.5612039
