# .PCD v0.7 - Point Cloud Data file format
VERSION 0.7
FIELDS x y z
SIZE 4 4 4
TYPE F F F
COUNT 1 1 1
WIDTH 293
HEIGHT 1
VIEWPOINT 0 0 0 1 0 0 0
POINTS 293
DATA ascii
0.1686005 -0.1522529 0.65999752
0.07910084 -0.144383 0.65675777
-0.16672841 -0.050605889 0.68501282
0.1253764 -0.2639282 0.43568689
0.1076034 -0.26809609 0.44372809
0.087894186 -0.26736811 0.38090459
0.092333481 -0.26426241 0.41816211
0.093828566 -0.26552951 0.4390724
0.079791702 -0.26846889 0.386127
0.076140016 -0.26595491 0.4078801
0.09487699 -0.26763549 0.39353931
0.097897597 -0.2782971 0.7901355
0.085704163 -0.26861691 0.40474561
0.072483733 -0.28776529 0.34133589
0.076571956 -0.26594371 0.42057461
0.066921778 -0.26804489 0.4044807
0.059865821 -0.27343741 0.77066791
0.012107 -0.26560599 0.41367221
-0.0083982348 -0.26747519 0.40555459
-0.02157994 -0.28662181 0.34404701
-0.027128819 -0.26719639 0.40528151
-0.036952101 -0.26650071 0.38626391
-0.064278297 -0.26654771 0.448888
-0.069726072 -0.2682085 0.4134582
-0.078311384 -0.26739341 0.43200359
-0.083318949 -0.268103 0.452438
-0.09682934 -0.26770729 0.4463082
-0.089532867 -0.26893699 0.39593399
-0.1073759 -0.26820949 0.47951671
-0.1156205 -0.26868609 0.48822409
-0.04498874 -0.27234641 0.59827119
-0.1055959 -0.27203089 0.39552459
-0.16151799 -0.1851666 0.66906708
-0.1108411 -0.2728695 0.40592429
-0.1025742 -0.26573271 0.48459339
-0.01457191 -0.1807005 0.66162437
-0.021301759 -0.26678121 0.4429175
-0.027337359 -0.18074989 0.66284567
-0.039431959 -0.26748851 0.44420359
-0.041667189 -0.28959969 0.34296179
-0.088636898 -0.26804551 0.39159209
-0.1045572 -0.27202171 0.3933934
-0.066445053 -0.1810624 0.66358387
-0.1459796 -0.1803579 0.66411299
-0.1481428 -0.1847163 0.66205692
-0.22034749 -0.110494 0.4941186
-0.194538 -0.25640309 0.43542081
-0.2224309 -0.1106949 0.49131969
-0.2606543 -0.1130112 0.68386889
-0.27169049 -0.2299979 0.42082959
-0.2283334 -0.2258136 0.43042499
-0.244966 -0.1384425 0.46230081
-0.2766057 -0.2036885 0.42944029
-0.28443331 -0.1206745 0.46022919
-0.28307611 -0.1792946 0.44699651
-0.29126409 -0.13712689 0.46071139
-0.29198381 -0.12750471 0.4617312
-0.2927967 -0.1172583 0.46508291
-0.2799319 -0.2197331 0.40839091
-0.2896148 -0.13142 0.45755109
-0.26855251 -0.22579551 0.4201422
-0.30965301 -0.26403761 0.38862479
-0.27886131 -0.2071196 0.42048001
-0.28921881 -0.19131111 0.4446919
-0.2871466 -0.1867889 0.43630621
-0.27403831 -0.218558 0.42480981
-0.3186734 -0.26433131 0.39210469
-0.3074373 -0.23829269 0.39499399
-0.3218523 -0.25039059 0.39838839
-0.2698622 -0.1181014 0.4688749
-0.24769279 -0.14335489 0.47722769
-0.2295025 -0.2297636 0.4398005
-0.2217018 -0.1121755 0.50348258
-0.2179587 -0.1241509 0.4966009
-0.19155741 -0.26219171 0.44205841
-0.2329039 -0.2270522 0.44064811
-0.22363029 0.02748128 0.68744802
-0.2306851 0.033930521 0.68643957
-0.2186479 0.0290835 0.68228602
-0.14943901 -0.1849345 0.68546772
-0.1642483 -0.18764821 0.68098098
-0.1511817 -0.18721449 0.67795962
-0.080338277 -0.18324161 0.67624527
-0.054847751 -0.18661 0.67135549
-0.01589538 -0.1872696 0.67488527
-0.028229941 -0.187149 0.67389572
-0.00033046311 -0.1837181 0.66086632
0.078738689 -0.1488418 0.67057341
0.09809459 -0.1664726 0.66607428
0.098340049 -0.15332609 0.6645937
0.051383641 -0.26407969 0.48085901
0.080197386 -0.1505032 0.66621327
0.0012315511 -0.1873894 0.67226827
-0.052408319 -0.1850386 0.6631031
-0.01370254 -0.18661501 0.67149222
-0.026491361 -0.18633559 0.66882813
-0.056741919 -0.14499369 0.68904328
-0.061890349 -0.04782103 0.67474961
-0.063033447 0.0184724 0.67892241
-0.068781197 -0.053007338 0.66726238
-0.027052419 -0.26417291 0.48251021
-0.068638787 -0.0191384 0.6729843
-0.062663577 0.054505061 0.68210238
-0.068718448 -0.0074314661 0.66899198
-0.062537953 0.088935576 0.68173379
-0.045607671 -0.1902422 0.66691709
-0.045272529 -0.2608569 0.47645399
-0.084371857 -0.1404625 0.67927808
-0.14451499 -0.1882716 0.67244172
-0.01392427 -0.1856312 0.66297358
-0.026345851 -0.1856342 0.66319948
-0.040172521 -0.18677519 0.66706032
-0.052376691 -0.18544319 0.66320741
-0.1061694 0.019745549 0.67960942
0.00047282869 -0.1828073 0.65539533
-0.063015603 0.01787963 0.6720627
-0.068231419 0.01121699 0.67380261
-0.09254764 0.147995 0.68936062
-0.1077764 0.1394143 0.68731171
-0.098346278 0.14669371 0.6802755
-0.1044637 -0.18721069 0.67014498
-0.099367224 0.139851 0.6825543
-0.095104143 0.1538894 0.68748361
-0.03112833 0.1649919 0.68254662
-0.073619053 0.0037961041 0.68007427
0.05541382 0.130492 0.67066872
-0.1219759 0.1630044 0.68250751
-0.071462177 -0.0088140545 0.68991888
0.070995577 -0.1551421 0.66674578
-0.071756802 0.065842062 0.67851722
-0.057614911 0.12800141 0.67558062
-0.072951257 0.1161764 0.67925239
-0.05757213 0.1461772 0.68335229
0.017106671 -0.26477739 0.46361971
-0.1063883 0.1732866 0.68316722
-0.0043626949 0.1659075 0.68312931
0.090529352 0.1249616 0.67365628
-0.054478049 0.164298 0.67915338
0.05424701 0.1659811 0.67255592
-0.06696251 0.1715913 0.68561852
0.065730467 0.16335049 0.66127872
0.098349743 -0.1640248 0.65778857
0.038473349 0.13214099 0.67319971
-0.07049036 0.060095761 0.68408561
-0.069860183 -0.020338081 0.67935783
0.085868172 0.13104969 0.67258751
0.098434649 -0.1536074 0.6629492
-0.05516734 -0.13945509 0.65769589
-0.082641959 0.087064907 0.67784762
-0.095111892 -0.1195306 0.66885322
-0.069845423 -0.054660749 0.67806482
-0.070138097 -0.1272525 0.68243939
-0.069275707 -0.14036641 0.67925888
-0.106021 0.1818205 0.68422687
-0.083996333 -0.138221 0.66510057
-0.123064 -0.071535803 0.67230701
-0.1257555 -0.062559679 0.66568828
-0.1169544 -0.085417151 0.66656101
-0.01494676 0.172793 0.68233973
0.001617474 0.16317961 0.66964209
-0.0090197101 0.17040931 0.68598038
-0.046241131 0.1234815 0.67489928
-0.056618359 0.1451897 0.67733222
-0.063676417 0.017792931 0.6792115
-0.062713601 0.05339732 0.66977912
-0.062873207 0.088021047 0.67463732
-0.06305664 0.074539408 0.67407262
-0.069126621 -0.034308299 0.67563581
-0.069196813 -0.0071691899 0.66825879
-0.068593107 0.01147452 0.67878342
-0.06889642 0.04762369 0.67279488
-0.069551267 0.069062933 0.67621732
-0.069052324 0.059104782 0.67244208
-0.069387771 0.080702864 0.67669117
-0.075774901 -0.066252783 0.67402369
-0.072206281 0.14884859 0.68186742
-0.072801024 0.1098615 0.6775493
-0.070967838 0.066029549 0.6476953
0.017165391 0.1698768 0.66992873
0.0090333298 0.1609033 0.66173607
0.1348791 -0.26375571 0.44041461
0.095541596 -0.2638897 0.4146595
0.01351563 -0.2642943 0.47616819
-0.01126753 -0.26448861 0.45380601
0.08352007 -0.26302689 0.41861159
0.08741203 0.1227258 0.66365921
0.087713063 0.1321425 0.68095332
0.063652821 0.16191541 0.65774828
0.05815693 0.16703101 0.66536999
0.051968791 0.1627598 0.66165549
0.03606372 0.1223491 0.6640957
0.1011561 -0.1570904 0.6771512
0.079793572 -0.14886791 0.66858113
0.071207792 -0.1539674 0.6646983
-0.00035363439 -0.1851275 0.66196948
-0.052908119 -0.18614569 0.66567308
-0.065746367 -0.18579151 0.66582829
-0.00067972578 -0.1886657 0.67633802
-0.01464951 -0.1882958 0.6752246
0.098252088 -0.1665557 0.66502577
0.080723807 -0.1514622 0.67039531
-0.066802002 -0.1873509 0.67128497
0.0065259258 -0.1875705 0.65885699
-0.095625952 -0.25583461 0.88561833
0.1309008 -0.2616609 0.47717941
-0.082062744 -0.1872545 0.67582029
-0.093976289 -0.18825319 0.67912382
-0.0934944 -0.1455761 0.67666101
-0.1080803 -0.1890247 0.68347758
-0.1068757 -0.076614469 0.68706727
-0.099296533 -0.001821306 0.6818642
-0.1211346 -0.1871527 0.6763466
0.2196257 -0.2637718 0.81257379
-0.01528517 -0.18755689 0.67182058
-0.068487547 -0.1870251 0.67462802
-0.027965249 -0.1883809 0.67630512
-0.054870449 -0.1884836 0.67601973
-0.00064766029 -0.18861631 0.67509449
-0.04226606 -0.18750601 0.67488742
-0.073261097 -0.0060094981 0.65814728
-0.069696747 -0.018647199 0.68009287
-0.069437101 0.01402235 0.67288429
0.019833811 0.024441261 0.68115819
-0.184246 -0.006101022 0.68455571
-0.1879949 0.03105564 0.69821447
-0.1975403 0.01372399 0.6975078
0.090143837 0.1276754 0.68561608
0.098587923 -0.1674653 0.6697911
0.070776209 -0.1548458 0.67374468
0.079477116 -0.1509506 0.66326249
-0.001439646 -0.185434 0.66393828
-0.01544096 -0.1879335 0.67250621
0.1577277 -0.15557469 0.66488868
0.022422509 0.1416406 0.6825633
0.17860641 -0.1534781 0.66545022
0.1682075 -0.15655559 0.66378897
0.097856447 -0.1525865 0.66646397
0.26754251 0.1179927 0.68082023
0.26900131 0.1082817 0.68346882
0.2690945 0.1003076 0.68026102
0.16011339 -0.1748165 0.67284453
0.1595749 -0.1730606 0.6659649
0.15938219 -0.17315631 0.66538572
0.034497671 0.125165 0.67409462
0.1602961 -0.1734201 0.66656762
0.15984809 -0.1733585 0.66615713
0.15986329 -0.1733392 0.6661731
0.16001 -0.1734525 0.66571552
0.1833861 -0.1578096 0.67740703
0.1566314 -0.1541107 0.655765
0.066247672 0.1657 0.66285968
0.05329562 0.1680696 0.67961532
0.066382349 0.1728918 0.67520618
0.3153916 -0.1427004 0.66776729
0.26796359 0.1072805 0.67575258
0.26943529 0.1168082 0.67970008
0.266249 0.1101242 0.67482269
0.084250897 -0.16030259 0.6918382
0.070428453 -0.182648 0.68901932
0.00058545312 -0.1930594 0.67999321
-0.014104 -0.2070515 0.7289356
0.02051124 0.02417469 0.68252468
-0.041553859 -0.207423 0.73220837
-0.053563759 -0.1918802 0.67875022
0.098849803 -0.16650499 0.6649307
-0.060554739 -0.1308018 0.66671002
-0.068484753 -0.1424135 0.68521321
-0.067205921 -0.1242173 0.66966808
-0.069842987 -0.022299379 0.69116062
-0.06833189 0.01150648 0.67785221
-0.069711298 -0.20495909 0.71698117
-0.02795621 -0.20755041 0.72769701
-0.1252473 -0.20029619 0.70756698
-0.041862439 -0.2041973 0.7212441
-0.058221638 -0.20302971 0.71383113
-0.01542592 -0.2159283 0.75203472
0.087509267 -0.1544477 0.62133813
0.137051 -0.18211719 0.81612301
-0.006350541 -0.2118035 0.76255572
-0.15311959 -0.20803609 0.74534988
0.0039652139 -0.2140944 0.72419357
-0.050906811 -0.2170473 0.73534513
-0.016669869 -0.211032 0.72050267
-0.070268691 -0.21326061 0.72426093
-0.091291897 -0.2169462 0.7316674
-0.047988739 -0.2072822 0.72172111
-0.023047579 -0.2158701 0.72709447
-0.030407609 -0.2112388 0.72112179
-0.1022556 -0.2063373 0.71688008
0.0085238935 -0.20730411 0.72117293
0.01656244 -0.21776301 0.73487347
-0.052319359 -0.2137977 0.76395041
-0.28217131 -0.2467065 0.45790401
