# .PCD v0.7 - Point Cloud Data file format
VERSION 0.7
FIELDS x y z normal_x normal_y normal_z curvature
SIZE 4 4 4 4 4 4 4
TYPE F F F F F F F
COUNT 1 1 1 1 1 1 1
WIDTH 415
HEIGHT 1
VIEWPOINT 0 0 0 1 0 0 0
POINTS 415
DATA ascii
-0.036939926 -0.26825795 0.38629097 0.024676777 -0.99961722 0.012506201 0.00035769001
0.079759523 -0.26953945 0.38609451 0.0040602828 -0.99962556 0.027058404 0.00064706692
0.08786124 -0.26946661 0.38086331 0.023096496 -0.99960268 0.016155317 0.00040319259
-0.1048865 -0.27129784 0.39453372 0.037023757 -0.99899775 0.025153732 0.00017605576
-0.089113012 -0.26966587 0.39376613 0.031604234 -0.99929452 0.020288024 0.00022940215
0.094746582 -0.26805708 0.39340764 0.023096496 -0.99960268 0.016155317 0.00040319259
-0.11062371 -0.27148098 0.40600973 0.045247879 -0.99865794 0.025195921 7.5983226e-05
-0.027100943 -0.26845655 0.4052766 0.017223021 -0.99964792 0.020182414 0.00029720867
-0.0084155919 -0.26827982 0.40555793 0.0030585006 -0.99984711 0.017213305 0.00025579252
0.066864967 -0.26916769 0.40442333 0.0031195716 -0.99973351 0.022871792 0.00029980537
0.07607206 -0.26838699 0.40781796 0.0058677089 -0.99971032 0.023343218 0.00048008782
0.085624717 -0.26811001 0.40467295 0.0040799775 -0.99962711 0.026998855 0.00064777239
-0.06971392 -0.26897717 0.41344076 0.024145572 -0.99944961 0.022745481 0.00016778402
0.012107 -0.27002501 0.41367221 0.00057209341 -0.99986434 0.016461946 0.0001384377
0.083523557 -0.26796973 0.41856903 0.0072090514 -0.99964464 0.025665827 0.0010608603
0.093920104 -0.26793396 0.4163686 0.017136181 -0.99956071 0.02418259 0.0010738334
-0.27532202 -0.27002501 0.42712504 -0.030120492 -0.44713679 -0.89395839 0.11270554
0.076577403 -0.26790798 0.42052874 0.0067926436 -0.99963862 0.026007505 0.00085510174
-0.28389311 -0.27159584 0.4366301 -0.030120492 -0.44713679 -0.89395839 0.11270554
-0.22899616 -0.26941854 0.43509707 0.020241128 -0.87086731 -0.49110132 0.10753384
-0.19481415 -0.26891541 0.43977126 -0.29437155 -0.83450246 -0.46578002 0.11776158
-0.078329653 -0.26888111 0.4319897 0.024216155 -0.99950302 0.020183194 0.00014983436
0.093779959 -0.26799178 0.43912241 0.017116213 -0.99956012 0.024219057 0.0010789217
0.12526211 -0.26695645 0.43603843 0.023248501 -0.99954742 0.0190905 0.0014517768
-0.28446162 -0.27083895 0.44601202 0.055574443 -0.42936349 -0.90142024 0.13366649
-0.2329039 -0.27002501 0.44064811 0.020241128 -0.87086731 -0.49110132 0.10753384
-0.19130166 -0.2703841 0.4404074 -0.46179846 -0.77260083 -0.43569505 0.11627479
-0.096850529 -0.2690326 0.44628954 0.025965767 -0.9994064 0.022642612 0.00017555553
-0.064319298 -0.26805931 0.44879881 0.024216197 -0.99950296 0.020183504 0.00014989801
-0.039449155 -0.26863149 0.44405752 0.013795577 -0.99981225 0.01360813 0.00018467878
-0.021359254 -0.26810685 0.44288009 0.011632814 -0.99981916 0.015044978 0.00025937048
0.10753702 -0.26867634 0.44389182 0.017116213 -0.99956012 0.024219057 0.0010789217
0.13452406 -0.26644048 0.44032553 0.023248501 -0.99954742 0.0190905 0.0014517768
-0.28607705 -0.27173305 0.45790327 0.3116473 -0.65902072 -0.68452007 0.11284941
-0.083348744 -0.26862934 0.45241177 0.023350425 -0.99947989 0.022242475 0.00016939209
-0.01128877 -0.26789212 0.45373893 0.0083738398 -0.99985963 0.01451017 0.00023227492
-0.28694329 -0.2724736 0.46301332 0.33476937 -0.63228267 -0.69867587 0.1204234
-0.28323737 -0.26624724 0.45981511 0.2849462 -0.52308905 -0.80323315 0.138923
-0.26898468 -0.26623204 0.4675518 0.15822735 -0.71638209 -0.67952979 0.12858827
-0.244966 -0.27002501 0.46230081 0.020233158 -0.87086594 -0.49110395 0.10753448
0.017114466 -0.26729119 0.46357882 3.3961787e-05 -0.99979573 0.020209702 0.00024410388
-0.24769279 -0.27002501 0.47722769 0.020233158 -0.87086594 -0.49110395 0.10753448
-0.10741809 -0.26887307 0.47949025 0.035889179 -0.99894905 0.02850946 0.00016178956
-0.045108072 -0.26622403 0.47612816 0.015349868 -0.99977744 0.01446923 0.00010153204
0.013523988 -0.2670933 0.47612435 0.0022347267 -0.99983144 0.018225309 0.00048760982
0.1309008 -0.27002501 0.47717941 0.015533405 -0.99963135 0.022265879 0.0018449433
-0.11572777 -0.26939744 0.48812756 0.044021513 -0.99874508 0.023883786 3.7784797e-05
-0.10262708 -0.26858112 0.48456022 0.028503021 -0.99929947 0.024250386 0.00018683403
-0.026794454 -0.26738191 0.48266301 0.010838455 -0.99982351 0.015349028 0.00020712665
0.051388152 -0.26705074 0.48078081 0.0036747903 -0.99974579 0.022245828 0.0006182064
-0.2213892 -0.27002501 0.49271914 -0.012431584 -0.89706987 -0.44171378 0.094130397
-0.2179587 -0.27002501 0.4966009 -0.044365749 -0.93807966 -0.34356689 0.08469338
-0.2217018 -0.27002501 0.50348258 -0.044365749 -0.93807966 -0.34356689 0.08469338
0.087509267 -0.27002501 0.62133813 2.7165235e-05 -1 0.00022453749 0
-0.070967838 -0.27002501 0.6476953 2.2535098e-06 -1 0.00020040272 0
-0.073261097 -0.27002501 0.65814728 4.8963602e-06 -1 0.00015310188 0
-0.05516734 -0.27002501 0.65769589 -5.1136931e-06 -1 0.00018049654 0
0.0034993773 -0.27002501 0.65712619 9.1806078e-06 -0.99999994 0.00038011622 0
0.063652821 -0.27002501 0.65774828 1.9312496e-05 -0.99999982 0.00053275318 0
0.07910084 -0.27002501 0.65675777 1.2321127e-05 -1 0.00025078849 0
0.098349743 -0.27002501 0.65778857 2.412108e-05 -0.99999994 0.00042969236 0
0.1566314 -0.27002501 0.655765 2.4875444e-06 -1 -4.6422809e-07 4.4365202e-06
0.1686005 -0.27002501 0.65999752 5.0690983e-06 -1 0.00029603852 6.1756296e-06
-0.16151799 -0.27002501 0.66906708 3.2743188e-05 -0.99999982 0.00055923383 0
-0.1470612 -0.27002501 0.66308498 2.0587255e-05 -0.99999994 0.00023305336 0
-0.1257555 -0.27002501 0.66568828 8.0317241e-06 -1 0.00025091012 0
-0.1169544 -0.27002501 0.66656101 -8.8514143e-06 -1 0.00016838312 0
-0.095111892 -0.27002501 0.66885322 -0.023626851 -0.99047387 0.13565898 0.04337281
-0.083996333 -0.27002501 0.66510057 -1.1802751e-05 -1 0.00012671668 0
-0.06617026 -0.27002501 0.66751027 -3.7356454e-06 -1 0.00013769725 0
-0.052564379 -0.27002501 0.66399449 2.740341e-06 -1 0.00028610835 0
-0.042890094 -0.27002501 0.66698873 3.0336446e-06 -0.99999988 0.00032215595 0
-0.026724858 -0.27002501 0.66495776 1.8973946e-06 -1 0.00022893565 0
-0.01424809 -0.27002501 0.66229898 1.044762e-05 -0.99999988 0.00031493965 0
-0.00070791453 -0.27002501 0.66225803 2.3266113e-05 -0.99999994 0.00038147281 0
0.0053254021 -0.27002501 0.66568911 0.0045720791 -0.99991941 0.011844323 0.039968573
0.017165391 -0.27002501 0.66992873 0.006242475 -0.98539555 0.17016692 0.027171319
0.03606372 -0.27002501 0.6640957 2.6294989e-05 -1 0.00021768926 0
0.05506286 -0.27002501 0.66351271 3.5747475e-05 -0.99999988 0.00039530589 0
0.06598907 -0.27002501 0.6620692 3.2273463e-05 -0.99999976 0.00061387342 0
0.075368516 -0.27002501 0.66582191 1.7077564e-05 -0.99999988 0.00052471936 0
0.083804712 -0.27002501 0.66493624 4.1679843e-05 -0.99999976 0.00063972053 0
0.098345086 -0.27002501 0.66568983 3.2167427e-05 -0.99999988 0.00043618865 0
0.15927924 -0.27002501 0.66571391 4.1902302e-05 -0.99999994 0.0003822092 4.6236473e-06
0.16283786 -0.27002501 0.66535735 -3.3739288e-05 -0.99999994 -0.00047876476 1.471512e-05
0.17860641 -0.27002501 0.66545022 7.3494125e-06 -1 6.9767952e-06 0
-0.1511817 -0.27002501 0.67795962 3.2463893e-05 -0.99999976 0.00059920328 0
-0.14451499 -0.27002501 0.67244172 1.0629528e-05 -1 0.00028012902 0
-0.1220993 -0.27002501 0.67432678 -0.0046575237 -0.91897893 0.39427912 0.072151534
-0.10531655 -0.27002501 0.67487717 -0.015066623 -0.94959182 0.31312683 0.053093258
-0.093735345 -0.27002501 0.67789245 -0.04640726 -0.90299851 0.42712995 0.0813355
-0.082353711 -0.27002501 0.67729783 -0.054008279 -0.8785733 0.47454408 0.092227496
-0.073321 -0.27002501 0.67733562 -0.032484103 -0.90638077 0.42121094 0.081620321
-0.067193486 -0.27002501 0.67554003 0.00075694086 -0.92870665 0.37081441 0.093866311
-0.055332214 -0.27002501 0.67636532 -0.0056644967 -0.90229625 0.4310793 0.094893456
-0.044253595 -0.27002501 0.67489338 0.01741381 -0.93102801 0.36453199 0.093057714
-0.028097596 -0.27002501 0.67510045 0.011480259 -0.95002151 0.31197318 0.090810627
-0.014994713 -0.27002501 0.67318583 0.040456019 -0.98822236 0.14758003 0.053408857
-0.00066369306 -0.27002501 0.67571628 0.054282367 -0.95312351 0.29767275 0.089056455
0.00090850209 -0.27002501 0.67613077 0.054282367 -0.95312351 0.29767275 0.089056455
0.036485508 -0.27002501 0.67364717 2.6294989e-05 -1 0.00021768926 0
0.054318815 -0.27002501 0.67427999 2.5905163e-05 -1 0.00018788154 0
0.066382349 -0.27002501 0.67520618 4.6458306e-05 -0.99999988 0.0002687916 0
0.074757449 -0.27002501 0.67215908 1.7077564e-05 -0.99999988 0.00052471936 0
0.083295986 -0.27002501 0.67149138 4.1679843e-05 -0.99999976 0.00063972053 0
0.090529352 -0.27002501 0.67365628 5.158463e-05 -0.99999982 0.00064646057 0
0.1011561 -0.27002501 0.6771512 5.0061288e-05 -0.9999997 0.00072356081 0
0.16011339 -0.27002501 0.67284453 4.1902302e-05 -0.99999994 0.0003822092 4.6236473e-06
0.1833861 -0.27002501 0.67740703 5.6144589e-05 -1 -4.1418138e-05 0
-0.2606543 -0.27002501 0.68386889 -9.1728994e-05 -0.99999982 0.00061212404 0
-0.2306851 -0.27002501 0.68643957 0 -1 0 6.4391725e-06
-0.22363029 -0.27002501 0.68744802 3.384469e-06 -1 4.1743747e-06 6.1024366e-06
-0.2186479 -0.27002501 0.68228602 -2.3488528e-05 -1 -0.00020347869 5.1759266e-06
-0.184246 -0.27002501 0.68455571 4.0152467e-05 -0.99999988 0.00053315912 0
-0.16548836 -0.27002501 0.68299687 9.2255805e-06 -0.99999994 0.00026894646 0
-0.14943901 -0.27002501 0.68546772 0.0078247786 -0.89344352 0.44910732 0.060627919
-0.1219759 -0.27002501 0.68250751 0.00076478702 -0.86298788 0.50522393 0.076278105
-0.10702834 -0.27002501 0.68505013 -0.096523069 -0.83433765 0.5427376 0.11789709
-0.096932366 -0.27002501 0.68430763 -0.10001608 -0.84428239 0.5264827 0.10068521
-0.071583197 -0.27002501 0.68367708 -0.014650906 -0.84028405 0.54194838 0.091379181
-0.066069111 -0.27002501 0.68295223 0.0033952452 -0.86957121 0.49379584 0.1021743
-0.057157025 -0.27002501 0.68619776 -0.0094365152 -0.85352361 0.52096879 0.11366225
-0.03112833 -0.27002501 0.68254662 0.047502104 -0.82778746 0.55902725 0.11535434
-0.01494676 -0.27002501 0.68233973 0.095874809 -0.82984573 0.54969436 0.13160421
-0.0066912025 -0.27002501 0.68455482 0.080817662 -0.87762898 0.47247848 0.11326604
0.019833811 -0.27002501 0.68115819 0.037796218 -0.95123041 0.30615702 0.04925267
0.021466874 -0.27002501 0.68254399 0.035545953 -0.93926531 0.34134626 0.046327263
0.070428453 -0.27002501 0.68901932 4.6458306e-05 -0.99999988 0.0002687916 0
0.087713063 -0.27002501 0.68095332 4.0070074e-05 -0.99999988 0.00053575909 0
0.090143837 -0.27002501 0.68561608 4.0070074e-05 -0.99999988 0.00053575909 0
-0.1975403 -0.27002501 0.6975078 0 -1 0 4.1016992e-06
-0.1879949 -0.27002501 0.69821447 1.429644e-05 -1 0.00012857211 0
-0.069842987 -0.27002501 0.69116062 -0.0072267656 -0.81332862 0.58175963 0.11360615
0.084250897 -0.27002501 0.6918382 2.9648685e-05 -0.99999988 0.00042297592 0
-0.1252473 -0.27002501 0.70756698 -0.057750959 -0.8547613 0.51579839 0.085321479
-0.1022556 -0.27002501 0.71688008 -0.15937175 -0.83381927 0.52853203 0.12069149
-0.069711298 -0.27002501 0.71698117 -0.15881614 -0.78714269 0.5959729 0.14129235
-0.058221638 -0.27002501 0.71383113 -0.084675312 -0.80374157 0.58892232 0.13598303
-0.070268691 -0.27002501 0.72426093 -0.19200723 -0.76452494 0.61533308 0.14731294
-0.044925589 -0.27002501 0.72148263 -0.050719641 -0.80884916 0.58582473 0.13456316
-0.030407609 -0.27002501 0.72112179 0.049182117 -0.80282485 0.59418303 0.14049628
-0.025501896 -0.27002501 0.72739577 0.094918683 -0.78471529 0.61254585 0.15193157
-0.015386935 -0.27002501 0.72471917 0.14674746 -0.80309498 0.57749778 0.14310333
0.0062445537 -0.27002501 0.72268325 0.21774603 -0.77376109 0.59487849 0.13046639
-0.091291897 -0.27002501 0.7316674 -0.29732373 -0.68711942 0.66292197 0.12747081
-0.050906811 -0.27002501 0.73534513 -0.1105614 -0.75800717 0.64280742 0.15166646
-0.041553859 -0.27002501 0.73220837 -0.083977781 -0.76719928 0.6358875 0.15799288
0.01656244 -0.27002501 0.73487347 0.39739782 -0.67625052 0.62029046 0.13699807
-0.01542592 -0.27002501 0.75203472 0.42098802 -0.53274864 0.73413074 0.17437787
-0.052319359 -0.27002501 0.76395041 -0.29244176 -0.1339791 0.94685131 0.12998968
-0.006350541 -0.27002501 0.76255572 0.10449239 -0.15296635 0.98269147 0.1652936
0.16767284 -0.1515214 0.66146302 0.0019619272 0.33824146 0.94105726 0.014871468
0.076504752 -0.14988521 0.65617716 -0.17201816 0.93007654 0.32460344 0.087645441
0.12548596 -0.26686922 0.43534994 0.023248501 -0.99954742 0.0190905 0.0014517768
0.10763036 -0.2686438 0.4436616 0.017116213 -0.99956012 0.024219057 0.0010789217
0.088016607 -0.26944304 0.38105792 0.023096496 -0.99960268 0.016155317 0.00040319259
0.092363879 -0.26790926 0.41823572 0.017136181 -0.99956071 0.02418259 0.0010738334
0.093887307 -0.26798651 0.43901196 0.017116213 -0.99956012 0.024219057 0.0010789217
0.079861738 -0.26952577 0.38619772 0.0040602828 -0.99962556 0.027058404 0.00064706692
0.076240383 -0.26837417 0.40797189 0.0058677089 -0.99971032 0.023343218 0.00048008782
0.094903536 -0.2680361 0.3935661 0.023096496 -0.99960268 0.016155317 0.00040319259
0.085682951 -0.26810557 0.40472621 0.0040799775 -0.99962711 0.026998855 0.00064777239
0.076566905 -0.26790604 0.42061713 0.0067926436 -0.99963862 0.026007505 0.00085510174
0.066995025 -0.26915029 0.40455464 0.0031195716 -0.99973351 0.022871792 0.00029980537
0.012107 -0.26560599 0.41367221 0.00057209341 -0.99986434 0.016461946 0.0001384377
-0.0083902348 -0.26827955 0.40555307 0.0030585006 -0.99984711 0.017213305 0.00025579252
-0.027151199 -0.26845562 0.40528545 0.017223021 -0.99964792 0.020182414 0.00029720867
-0.0369642 -0.26825693 0.386237 0.024676777 -0.99961722 0.012506201 0.00035769001
-0.064246953 -0.26805067 0.44895622 0.024216197 -0.99950296 0.020183504 0.00014989801
-0.069734976 -0.26897642 0.41347095 0.024145572 -0.99944961 0.022745481 0.00016778402
-0.078287639 -0.26888004 0.43202165 0.024216155 -0.99950302 0.020183194 0.00014983436
-0.083307743 -0.26862776 0.45244786 0.023350425 -0.99947989 0.022242475 0.00016939209
-0.096801087 -0.26903072 0.44633305 0.025965767 -0.9994064 0.022642612 0.00017555553
-0.089472115 -0.26971257 0.39592731 0.031604234 -0.99929452 0.020288024 0.00022940215
-0.10735172 -0.2688697 0.47953188 0.035889179 -0.99894905 0.02850946 0.00016178956
-0.1155104 -0.2693302 0.48832318 0.044021513 -0.99874508 0.023883786 3.7784797e-05
-0.10569566 -0.27136281 0.39548537 0.037023757 -0.99899775 0.025153732 0.00017605576
-0.16150892 -0.18533708 0.6690408 -0.13936286 0.7687934 0.62412709 0.053851847
-0.11103778 -0.27155235 0.40584698 0.045247879 -0.99865794 0.025195921 7.5983226e-05
-0.10247017 -0.26857311 0.48465866 0.028503021 -0.99929947 0.024250386 0.00018683403
-0.014589004 -0.18411426 0.6605441 0.31846255 0.78011179 0.5385232 0.10519048
-0.02126215 -0.26810271 0.44294327 0.011632814 -0.99981916 0.015044978 0.00025937048
-0.027379433 -0.18407336 0.66167605 0.2914305 0.75566304 0.58655053 0.098532952
-0.039418198 -0.26860356 0.44432047 0.013795577 -0.99981225 0.01360813 0.00018467878
-0.088537328 -0.26923573 0.39152482 0.031604234 -0.99929452 0.020288024 0.00022940215
-0.10465999 -0.27133331 0.39335299 0.037023757 -0.99899775 0.025153732 0.00017605576
-0.06652353 -0.18337522 0.66270798 0.16771045 0.60812742 0.77592152 0.087559268
-0.14602791 -0.18391268 0.66347778 -0.063998982 0.61865765 0.78304976 0.077756971
-0.14812849 -0.18366385 0.66224498 -0.11199827 0.78133076 0.6139859 0.050358918
-0.22151165 -0.11081046 0.49408409 0.3600595 0.42994818 -0.8279503 0.016321916
-0.19474684 -0.25610983 0.43676907 -0.46179846 -0.77260083 -0.43569505 0.11627479
-0.22152857 -0.11044961 0.49134645 0.3600595 0.42994818 -0.8279503 0.016321916
-0.2283334 -0.2258136 0.43042499 -0.14403734 -0.29186225 -0.94555265 0.087597944
-0.244966 -0.1384425 0.46230081 0.36691681 0.33698902 -0.86706996 0.0098605603
-0.27652141 -0.2037157 0.42953795 -0.27060381 0.028374024 -0.96227258 0.053118415
-0.28510603 -0.12158114 0.46366242 0.38425261 0.29115969 -0.87611413 0.0097782556
-0.28425425 -0.17846516 0.4453004 0.091073371 0.26434475 -0.96011853 0.033758339
-0.29084662 -0.13656427 0.45858085 0.25610796 0.3379584 -0.90564501 0.013531835
-0.29181039 -0.127271 0.46084616 0.32621354 0.29458281 -0.89822358 0.0080832038
-0.29248092 -0.11683271 0.46347132 0.32621354 0.29458281 -0.89822358 0.0080832038
-0.29007977 -0.13204667 0.45992413 0.30778176 0.34056163 -0.88841897 0.0088194264
-0.28957036 -0.19119769 0.44428453 -0.086488813 0.15423617 -0.98424125 0.038466774
-0.28377751 -0.18787581 0.4402101 0.091073371 0.26434475 -0.96011853 0.033758339
-0.27319425 -0.21838081 0.42527634 -0.19187739 -0.23110014 -0.95382166 0.085537717
-0.26962334 -0.11793707 0.46792781 0.38425261 0.29115969 -0.87611413 0.0097782556
-0.24769279 -0.14335489 0.47722769 0.38425261 0.29115969 -0.87611413 0.0097782556
-0.2295025 -0.2297636 0.4398005 -0.11612462 -0.45401132 -0.88339615 0.13001744
-0.22143888 -0.11210404 0.50349039 0.4105317 0.4093948 -0.81477582 0.027010512
-0.21795979 -0.1241512 0.49660087 0.4105317 0.4093948 -0.81477582 0.027010512
-0.19105531 -0.26289672 0.43881702 -0.46179846 -0.77260083 -0.43569505 0.11627479
-0.2329039 -0.2270522 0.44064811 -0.11612462 -0.45401132 -0.88339615 0.13001744
-0.22332384 0.027353842 0.68651605 -0.3260957 -0.40983891 0.85187656 0.00049063115
-0.2306851 0.033930521 0.68643957 -0.3260957 -0.40983891 0.85187656 0.00049063115
-0.22026193 0.029754689 0.68719459 -0.3260957 -0.40983891 0.85187656 0.00049063115
-0.14967863 -0.18931343 0.68400884 -0.11199827 0.78133076 0.6139859 0.050358918
-0.16426514 -0.18733206 0.68102974 0.019491972 0.92849445 0.37083435 0.0019512242
-0.15117137 -0.18645483 0.67809534 -0.11199827 0.78133076 0.6139859 0.050358918
-0.080731213 -0.18346743 0.67410499 0.067846566 0.65252221 0.75472617 0.093887083
-0.054848969 -0.18666005 0.67133933 0.24773018 0.70208859 0.66760862 0.088871919
-0.015899355 -0.18861239 0.67444015 0.25351778 0.8040278 0.53783649 0.09114667
-0.028232912 -0.18827327 0.6735239 0.29272449 0.75959074 0.58080488 0.092956297
-0.00039800571 -0.18450949 0.66058725 0.010671026 0.87024885 0.49249685 0.078087725
0.077395059 -0.15155962 0.6676119 -0.17203957 0.93010408 0.32451317 0.087663084
0.099386565 -0.16385926 0.66892195 0.098533526 0.85505658 0.50908679 0.025068311
0.095843919 -0.15849531 0.66284192 0.1208958 0.86335981 0.48989186 0.022325944
0.05137914 -0.26704663 0.48093703 0.0036747903 -0.99974579 0.022245828 0.0006182064
0.079631716 -0.15167464 0.66581631 0.12381902 0.91661751 0.38010687 0.052616958
0.0011275966 -0.18860741 0.67183876 -0.052094478 0.90753788 0.41672689 0.041809507
-0.052390832 -0.18389939 0.66350794 0.25046572 0.70478779 0.66373265 0.09261547
-0.013706947 -0.18749501 0.67121375 0.29490805 0.80439413 0.51573181 0.093006775
-0.02649221 -0.1866892 0.66871113 0.29272449 0.75959074 0.58080488 0.092956297
-0.057375059 -0.14094833 0.69053662 0.28971419 0.34864148 0.89135551 0.088613816
-0.069244727 -0.047270246 0.67325503 0.031853199 -0.078080721 0.99643809 0.012451364
-0.066852354 0.018837877 0.67914081 0.43939939 -0.00059559848 0.89829159 0.017183548
-0.068471096 -0.053030562 0.66732538 0.031464309 -0.074105613 0.99675393 0.0081038335
-0.027358361 -0.26730758 0.48232901 0.010838455 -0.99982351 0.015349028 0.00020712665
-0.067686446 -0.019152669 0.67400354 0.027887076 -0.022578267 0.99935603 0.013513852
-0.066069826 0.054198682 0.68243772 0.31983903 -0.012253787 0.94739258 0.016151795
-0.065754168 -0.0075301263 0.67215359 0.4438124 0.0067186356 0.89609456 0.023337478
-0.063373506 0.089008622 0.67660314 0.136961 -0.047263965 0.98944819 0.012121374
-0.045539171 -0.18577962 0.66850293 0.21081528 0.75376672 0.62240869 0.091459475
-0.045501124 -0.26614025 0.4769069 0.015398969 -0.99977911 0.01430657 0.00010462614
-0.084200665 -0.13896051 0.68041909 0.14991529 0.14041162 0.97867769 0.062923312
-0.14444721 -0.18571085 0.6729238 -0.037764534 0.62549555 0.77931327 0.076704405
-0.01392088 -0.1849542 0.6631878 0.32311666 0.78486496 0.52875578 0.10139646
-0.026344188 -0.18494196 0.66342849 0.2914305 0.75566304 0.58655053 0.098532952
-0.04017717 -0.18572664 0.66746795 0.26038024 0.75903606 0.59671307 0.093949124
-0.052354202 -0.18397817 0.66372806 0.25046572 0.70478779 0.66373265 0.09261547
-0.1062616 0.019564083 0.67885214 0.413526 0.013938542 0.91038561 0.021322709
0.00047692895 -0.18275926 0.65541226 -0.068985917 0.8121714 0.57932597 0.08126235
-0.067295656 0.018289238 0.67230749 0.43939939 -0.00059559848 0.89829159 0.017183548
-0.067973353 0.011332769 0.67510736 0.43946093 -0.0047444114 0.89824915 0.015646292
-0.092824601 0.14823963 0.68345004 0.050789535 -0.081399493 0.99538666 0.0012363046
-0.10781247 0.13928668 0.68521446 0.057681508 -0.077997975 0.99528342 0.0013276041
-0.0981922 0.14662376 0.68375164 0.050789535 -0.081399493 0.99538666 0.0012363046
-0.10448296 -0.18578376 0.67051154 0.012743819 0.47363383 0.8806296 0.090886347
-0.09932664 0.13981554 0.68360484 0.051394552 -0.078299813 0.99560416 0.0011045317
-0.095105998 0.15386084 0.68435657 0.051159468 -0.079573251 0.99551535 0.0013476234
-0.031219641 0.16526902 0.68166864 0.081144594 -0.066729732 0.99446607 0.0048509273
-0.074265189 0.0035832892 0.6769166 0.44666141 0.0023298203 0.89470005 0.019740896
0.055452675 0.13099661 0.67328179 0.07781034 0.1267502 0.98887807 0.032922987
-0.12191346 0.16300122 0.68204838 0.050685823 -0.053471096 0.99728221 0.0017940335
-0.077672847 -0.0086073447 0.68329477 0.031444956 -0.030487828 0.99904042 0.011204536
0.072558925 -0.15197983 0.67019165 -0.23327802 0.92462605 0.30107817 0.060768727
-0.067625105 0.066170976 0.67810136 0.29537356 -0.033810358 0.95478338 0.016812742
-0.057205647 0.12792201 0.67825508 0.069708385 -0.085915767 0.99386078 0.011607768
-0.07294327 0.11617206 0.67932039 0.031413265 -0.093674153 0.99510723 0.01260436
-0.058044855 0.14661743 0.68055451 0.076600023 -0.072604544 0.99441493 0.0040968065
0.017099507 -0.26728997 0.46365729 3.3961787e-05 -0.99979573 0.020209702 0.00024410388
-0.10642756 0.17330529 0.68376243 0.051820088 -0.067494377 0.996373 0.0018749576
-0.0059738047 0.16336477 0.68037635 0.12368342 -0.058818642 0.99057698 0.0078327795
0.090765484 0.12643263 0.67315155 -0.045343738 0.14907359 0.98778594 0.043466076
-0.054245811 0.16366684 0.68261272 0.076684952 -0.074319012 0.99428171 0.004916714
0.053486597 0.1658722 0.66808397 0.10342604 0.12639987 0.98657292 0.031204632
-0.067193858 0.17158827 0.68302363 0.046227247 -0.081067167 0.99563605 0.003291053
0.066534825 0.16398662 0.66670263 0.077800445 0.12669678 0.98888576 0.032925367
0.099750407 -0.16105619 0.6581018 0.098533526 0.85505658 0.50908679 0.025068311
0.037991762 0.13236956 0.67229968 0.11239855 0.12996861 0.98512673 0.026845289
-0.066603124 0.060405213 0.6836943 0.29792556 -0.022042297 0.95433456 0.017905205
-0.071526073 -0.02031312 0.67757493 0.027887076 -0.022578267 0.99935603 0.013513852
0.085442796 0.13141376 0.6742813 -0.015544578 0.13139804 0.99120778 0.039417606
0.09622255 -0.1581884 0.6613968 0.1208958 0.86335981 0.48989186 0.022325944
-0.05480621 -0.13191698 0.66039181 0.10149142 0.016124733 0.99470568 0.020955503
-0.07008066 0.0885491 0.67653698 0.13545169 -0.04751334 0.98964405 0.01140871
-0.094429106 -0.12225068 0.66450572 0.054358192 0.0097827502 0.99847353 0.016258717
-0.070733994 -0.0545942 0.67788422 0.031464309 -0.074105613 0.99675393 0.0081038335
-0.071202219 -0.1365888 0.67534685 0.10399767 0.060833845 0.9927153 0.036825344
-0.069233693 -0.13999775 0.67953897 0.15146726 0.11643821 0.98158026 0.051060315
-0.10610922 0.18180594 0.68464994 0.044071831 -0.05809737 0.9973377 0.0015382863
-0.083216876 -0.13138224 0.67029577 0.093272492 0.011054954 0.99557924 0.016869891
-0.12093114 -0.070648849 0.67087597 -0.044087235 -0.084474429 0.99544984 0.01316932
-0.12700017 -0.063077271 0.6665234 0.0096959565 -0.15597977 0.98771262 0.013761796
-0.11740442 -0.085604295 0.66686296 -0.056943361 -0.03573209 0.99773782 0.020921798
-0.014229558 0.16947316 0.6843279 0.11887301 -0.088167243 0.98898727 0.0057118549
0.0033400613 0.16589828 0.67258549 0.12368342 -0.058818642 0.99057698 0.0078327795
-0.0092009492 0.17124824 0.68547797 0.12368342 -0.058818642 0.99057698 0.0078327795
-0.046080749 0.12342894 0.67586905 0.090352096 -0.091572441 0.99169093 0.011275237
-0.056157134 0.14477031 0.67995441 0.076204933 -0.066764787 0.99485439 0.0039510643
-0.066908151 0.018102214 0.67939633 0.43939939 -0.00059559848 0.89829159 0.017183548
-0.067164771 0.052996952 0.67021734 0.31983903 -0.012253787 0.94739258 0.016151795
-0.066116199 0.088341206 0.67380208 0.13545169 -0.04751334 0.98964405 0.01140871
-0.068750478 0.073984042 0.67466176 0.15305518 -0.039174542 0.98744088 0.012305865
-0.069789059 -0.034323223 0.67563647 0.022186091 -0.06323126 0.99775231 0.015250423
-0.065639131 -0.0072876001 0.67205334 0.4438124 0.0067186356 0.89609456 0.023337478
-0.069266796 0.011172276 0.67537743 0.43946093 -0.0047444114 0.89824915 0.015646292
-0.067490548 0.047660179 0.67268646 0.33304495 -0.0057638064 0.94289333 0.017693732
-0.068069376 0.069180906 0.67606813 0.24449934 -0.033891279 0.96905702 0.012577747
-0.067655236 0.059216 0.67230147 0.29304218 -0.018816506 0.95591438 0.01592258
-0.069261678 0.080715708 0.67667812 0.15536726 -0.03962411 0.9870618 0.011465819
-0.075690098 -0.066286653 0.67420006 -0.047911074 -0.018295951 0.99868405 0.013392128
-0.072176665 0.14882267 0.68206626 0.046513889 -0.083512433 0.99542063 0.0021349383
-0.072605655 0.10976659 0.6789158 0.048698556 -0.088461556 0.99488842 0.013628028
-0.069010004 0.066344693 0.64766014 0.18175587 -0.02985093 0.98289049 0.020210238
0.017537877 0.17081888 0.6720227 0.11734507 -0.0126588 0.99301052 0.011594099
0.01219116 0.16459645 0.66444135 0.12929715 -0.064419165 0.98951113 0.0096335541
0.1351386 -0.26637578 0.44047973 0.023248501 -0.99954742 0.0190905 0.0014517768
0.095575467 -0.26795301 0.41474152 0.017136181 -0.99956071 0.02418259 0.0010738334
0.013507653 -0.26709196 0.47621003 0.0022347267 -0.99983144 0.018225309 0.00048760982
-0.011233696 -0.2678861 0.45391288 0.0083738398 -0.99985963 0.01451017 0.00023227492
0.083511688 -0.26796669 0.41871387 0.0072090514 -0.99964464 0.025665827 0.0010608603
0.087550752 0.12358999 0.66336268 -0.045343738 0.14907359 0.98778594 0.043466076
0.087356083 0.12991861 0.68171638 -0.045343738 0.14907359 0.98778594 0.043466076
0.064435475 0.16177161 0.65817279 0.077800445 0.12669678 0.98888576 0.032925367
0.060673002 0.16656874 0.66673464 0.10342604 0.12639987 0.98657292 0.031204632
0.053085718 0.16291974 0.66822404 0.10342604 0.12639987 0.98657292 0.031204632
0.036283176 0.12101227 0.66582066 0.10342604 0.12639987 0.98657292 0.031204632
0.097996883 -0.16363278 0.67493409 0.1208958 0.86335981 0.48989186 0.022325944
0.078424513 -0.15170306 0.66762036 -0.11269769 0.94268191 0.31408608 0.066823073
0.072964571 -0.15041387 0.66857046 -0.17203957 0.93010408 0.32451317 0.087663084
-0.00034407154 -0.18501545 0.662009 -0.026514957 0.87490982 0.48355955 0.066296145
-0.052887887 -0.18482763 0.66614145 0.25046572 0.70478779 0.66373265 0.09261547
-0.065726981 -0.18488778 0.66612709 0.20069036 0.68513244 0.70022637 0.085808516
-0.00078335835 -0.18987994 0.67590982 -0.052094478 0.90753788 0.41672689 0.041809507
-0.014648547 -0.18886338 0.67503405 0.22945704 0.82514721 0.51621854 0.087090284
0.1004578 -0.16198793 0.6665737 0.098533526 0.85505658 0.50908679 0.025068311
0.07975284 -0.15342623 0.66825515 -0.11269769 0.94268191 0.31408608 0.066823073
-0.066780455 -0.18670446 0.67145938 0.16392457 0.6945554 0.70051503 0.086722113
0.0067582349 -0.18484858 0.65981686 0.20240287 -0.86439615 -0.46027419 0.012455103
0.1309008 -0.2616609 0.47717941 0.015533405 -0.99963135 0.022265879 0.0018449433
-0.082077481 -0.18760061 0.67571038 0.034868594 0.65010107 0.75904733 0.091650978
-0.093975164 -0.18813409 0.67916107 0.0021910849 0.61717057 0.78682637 0.088841915
-0.092039794 -0.14635827 0.67208058 0.06295304 0.15347306 0.9861455 0.067314431
-0.10801511 -0.19028109 0.68293417 -0.097820148 0.4228586 0.90090048 0.1003375
-0.10520104 -0.081263371 0.67964554 -0.10927188 -0.0299506 0.99356055 0.017796006
-0.097570218 -0.00060041179 0.68600875 0.015405408 -0.03626892 0.99922329 0.01208648
-0.12113829 -0.18730965 0.67629266 -0.041492213 0.50855643 0.86002833 0.093190834
-0.015285674 -0.18772715 0.67176414 0.26199049 0.80794489 0.52781248 0.09387318
-0.068521827 -0.18764834 0.67443079 0.15743546 0.71170396 0.68461055 0.086497717
-0.027967187 -0.18911369 0.67606276 0.25786448 0.79307508 0.55184954 0.091282323
-0.054863531 -0.18819954 0.6761114 0.2066257 0.72582448 0.65611321 0.084565997
-0.00072215195 -0.18948911 0.67478669 -0.052094478 0.90753788 0.41672689 0.041809507
-0.042274136 -0.18803214 0.67470044 0.21081528 0.75376672 0.62240869 0.091459475
-0.062742338 -0.0063595935 0.6693663 0.4438124 0.0067186356 0.89609456 0.023337478
-0.071793646 -0.018615779 0.6778487 0.03360308 -0.033433747 0.99887586 0.013174727
-0.069001086 0.014040587 0.67513323 0.44038197 -0.0006414649 0.89781028 0.017233323
-0.184246 -0.006101022 0.68455571 -0.3260957 -0.40983891 0.85187656 0.00049063115
-0.18889414 0.030173572 0.70033967 -0.3260957 -0.40983891 0.85187656 0.00049063115
-0.19514358 0.016074946 0.69184357 -0.3260957 -0.40983891 0.85187656 0.00049063115
0.090583742 0.1304159 0.68467575 -0.045343738 0.14907359 0.98778594 0.043466076
0.09920875 -0.16620952 0.67115951 0.098533526 0.85505658 0.50908679 0.025068311
0.070750929 -0.15489694 0.67368895 0.27516085 -0.90302074 -0.32990921 0.022179209
0.079554513 -0.15079032 0.66331679 0.12381902 0.91661751 0.38010687 0.052616958
-0.0014427975 -0.18548869 0.66391957 0.011549369 0.87813216 0.47827888 0.064947583
-0.015441065 -0.18796881 0.67249453 0.26199049 0.80794489 0.52781248 0.09387318
0.16068114 -0.15790358 0.66022289 0.0019619272 0.33824146 0.94105726 0.014871468
0.019667638 0.13910121 0.67781305 0.078207582 0.060187362 0.99511868 0.014274918
0.17710608 -0.15229504 0.66782039 -0.012251683 0.29244912 0.95620257 0.017237619
0.16800597 -0.15639669 0.66410732 0.0019619272 0.33824146 0.94105726 0.014871468
0.094951987 -0.1586013 0.66442567 0.1208958 0.86335981 0.48989186 0.022325944
0.16185492 -0.17618977 0.6700933 0.0019619272 0.33824146 0.94105726 0.014871468
0.15914394 -0.17272078 0.66664571 0.0019619272 0.33824146 0.94105726 0.014871468
0.15875749 -0.1726637 0.6663726 0.0019619272 0.33824146 0.94105726 0.014871468
0.034117725 0.12747946 0.67110819 0.11239855 0.12996861 0.98512673 0.026845289
0.15985239 -0.17307022 0.66726857 0.0019619272 0.33824146 0.94105726 0.014871468
0.15936749 -0.17297952 0.66691637 0.0019619272 0.33824146 0.94105726 0.014871468
0.15938881 -0.17296506 0.66692269 0.0019619272 0.33824146 0.94105726 0.014871468
0.15930262 -0.17289472 0.66683298 0.0019619272 0.33824146 0.94105726 0.014871468
0.18448296 -0.15867451 0.6756742 0.49351484 -0.3890644 -0.77786374 0.00031521745
0.15663092 -0.15411033 0.65576577 0.063754715 0.91884387 0.38943696 0.031135393
0.063512184 0.16620257 0.661376 0.077800445 0.12669678 0.98888576 0.032925367
0.051387541 0.16779634 0.66839403 0.10342604 0.12639987 0.98657292 0.031204632
0.066710845 0.17170511 0.6757347 0.077800445 0.12669678 0.98888576 0.032925367
0.079972483 -0.16895676 0.68240798 0.17203885 -0.93010414 -0.32451326 0.087662913
0.07260026 -0.17825733 0.69381106 0.25716504 -0.87202352 -0.41646266 0.021364231
0.00070783374 -0.19162549 0.68049884 0.16090974 0.70500654 0.6907053 0.2101697
-0.014313115 -0.21109678 0.72836673 0.3012805 0.66451335 0.68385094 0.13279422
-0.041647393 -0.21045101 0.73157519 -0.17896883 0.65495467 0.73416942 0.12534992
-0.05351752 -0.18977977 0.6795274 0.19071716 0.74572825 0.63837004 0.084606722
0.1009455 -0.16216505 0.66640145 0.098533526 0.85505658 0.50908679 0.025068311
-0.060586236 -0.13107814 0.66650009 0.073970869 0.0086454982 0.9972229 0.017497001
-0.068626694 -0.14365883 0.68426716 0.28783211 0.30040905 0.90934432 0.085636072
-0.067816123 -0.12957107 0.66560096 0.076638088 0.012420422 0.99698156 0.015406853
-0.07688228 -0.022912452 0.68687016 0.0079093408 -0.038983576 0.99920857 0.013368677
-0.06883996 0.011278541 0.67528355 0.43946093 -0.0047444114 0.89824915 0.015646292
-0.069707967 -0.20498958 0.71696067 -0.41798386 0.3770723 0.8265022 0.15585513
-0.028066436 -0.20996511 0.72691935 0.088348515 0.66164309 0.74459583 0.14643273
-0.1251453 -0.19951889 0.70792747 -0.2342404 0.2781069 0.93155134 0.095748365
-0.041815341 -0.20651938 0.71984237 -0.14394361 0.55098468 0.82200742 0.18073869
-0.058228504 -0.20467661 0.71314001 -0.1510115 0.43889004 0.88576019 0.16227475
-0.015340586 -0.21404071 0.75217503 0.075684845 0.26951006 0.96001881 0.13330576
0.087509267 -0.1544477 0.62133813 0.12382599 0.91662377 0.38008931 0.052602008
-0.0065561137 -0.2139819 0.76253372 -0.058122486 0.14665318 0.98747891 0.12367211
0.0040784725 -0.21216929 0.72435731 0.81502628 0.38064879 0.43685085 0.13043323
-0.050726619 -0.21121393 0.73656493 -0.29922706 0.62494349 0.72104698 0.1179674
-0.016552262 -0.20903748 0.72114819 0.60106188 0.5401774 0.58901012 0.16351938
-0.070514254 -0.21101139 0.72577506 -0.55352706 0.36679119 0.74771112 0.15038607
-0.091293886 -0.21743785 0.73127216 -0.62976992 0.22347461 0.74394149 0.12339953
-0.047981359 -0.20764598 0.72150153 -0.19148177 0.56984574 0.79913116 0.16511522
-0.022830104 -0.20997585 0.72805929 0.11038469 0.67633539 0.72827584 0.13538955
-0.030273546 -0.20830189 0.72206759 0.064761728 0.62396026 0.77876794 0.15971398
-0.10226168 -0.20684358 0.7165876 -0.33411995 0.24565515 0.90995467 0.12814677
0.0084949294 -0.20866886 0.72035116 0.68319082 0.50721461 0.52534151 0.14604209
0.016945481 -0.21483196 0.73522371 0.67859811 0.42843437 0.5966143 0.14847898
-0.052351546 -0.21513392 0.76381016 -0.18554156 0.11900972 0.97540301 0.099196307
-0.28349492 -0.24792656 0.46065646 0.30901593 -0.3142201 -0.89764965 0.13682003
