# .PCD v0.7 - Point Cloud Data file format
VERSION 0.7
FIELDS x y z
SIZE 4 4 4
TYPE F F F
COUNT 1 1 1
WIDTH 1393
HEIGHT 1
VIEWPOINT 0 0 0 1 0 0 0
POINTS 1393
DATA ascii
-0.083581917 -0.27666259 0.45768121
-0.0200457 -0.1909482 0.37431401
-0.044977129 -0.3184872 0.39198121
-0.02254176 -0.1576442 0.52367198
0.02418286 -0.1495755 0.56451231
-0.0103482 -0.3157025 0.37799519
-0.074457407 -0.1530183 0.51872379
-0.069099963 -0.3113831 0.52866572
0.021540221 -0.1597486 0.4931747
-0.091148078 -0.1873934 0.51891887
-0.1394524 -0.31385511 0.48565951
0.01154369 -0.1625582 0.55766839
0.060148779 -0.14436489 0.40950429
0.0021051171 -0.1698112 0.4723241
-0.095332213 -0.2325872 0.48421839
-0.087397873 -0.29410061 0.49615321
-0.08904773 -0.2801618 0.49498969
-0.049001809 -0.31632879 0.59199297
-0.086428173 -0.31464091 0.55636758
-0.15259279 -0.31139159 0.51659852
-0.215257 -0.3117654 0.51975411
-0.082447648 -0.1883738 0.53521538
-0.079567969 -0.1612878 0.4509218
-0.095409572 -0.1846582 0.4979417
0.045062069 -0.14740521 0.40858451
-0.1491763 -0.31203061 0.51606351
-0.080126517 -0.31422901 0.57271749
-0.03016752 -0.1660578 0.38874859
0.019816579 -0.16598161 0.46883589
0.030014159 -0.1527992 0.42064819
-0.049013671 -0.26063761 0.40302771
-0.02413154 -0.31561849 0.38288039
-0.086613119 -0.25243959 0.4639093
-0.071856141 -0.30953339 0.58261842
-0.1124797 -0.3148976 0.57912612
-0.1165847 -0.31442639 0.58946002
-0.081832111 -0.2933332 0.4389582
0.080029249 -0.1639545 0.50470728
-0.095626183 -0.184071 0.48114869
-0.098012328 -0.16805281 0.4507117
-0.095740847 -0.2373462 0.47396031
-0.0051070452 -0.15198021 0.39419881
0.043408509 -0.1844594 0.53256673
0.027914761 -0.1690679 0.3828719
-0.078990698 -0.2014069 0.407105
-0.095860898 -0.2066761 0.50716341
-0.082725227 -0.2281545 0.53239429
-0.088262737 -0.2599397 0.49870139
-0.076679349 -0.3126514 0.56763518
-0.14443371 -0.30732301 0.48545721
-0.1041873 -0.31248921 0.53320527
-0.09502393 -0.31810629 0.55810177
-0.076690607 -0.1587519 0.47586969
-0.089610927 -0.30655789 0.49116099
0.054878 -0.14752109 0.42524639
-0.096045613 -0.3139894 0.52227968
-0.092915364 -0.190193 0.52636409
-0.086287983 -0.18189511 0.52384758
-0.2208841 -0.31273291 0.2800574
-0.1299258 -0.31315991 0.53113848
-0.0064156651 -0.1493571 0.5655793
0.01930416 -0.1576322 0.41085759
-0.01004428 -0.16651151 0.38528419
0.0068736081 -0.1607437 0.50038791
-0.090404809 -0.22083101 0.4526343
-0.056401309 -0.23454709 0.4078306
-0.0931198 -0.2284188 0.4452596
-0.078160703 -0.26440451 0.52242982
0.01314211 -0.1614908 0.51482397
0.057044979 -0.18876889 0.51290947
-0.1076525 -0.3171826 0.4996534
-0.1296747 -0.31562331 0.52126902
-0.2067979 -0.31164971 0.28408071
0.022839781 -0.1576269 0.3823984
-0.03556633 -0.1688658 0.39651871
-0.076900899 -0.1812975 0.41955259
-0.086469769 -0.1938114 0.422829
-0.055250529 -0.29179659 0.40190831
-0.1045976 -0.2414479 0.50035173
-0.04856712 -0.2793307 0.55695468
0.031817671 -0.16921289 0.4405261
-0.07818532 -0.1764643 0.420618
-0.1249048 -0.31873199 0.49106571
-0.1080493 -0.31482631 0.49990311
-0.079191513 -0.312821 0.5688858
-0.089736879 -0.31179741 0.4557021
-0.134977 -0.31272581 0.50126988
-0.068429381 -0.17622709 0.54311782
-0.081668049 -0.1667508 0.523485
-0.043726441 -0.1471667 0.55445099
-0.074136138 -0.3009356 0.52495772
-0.1004996 -0.31488511 0.4840616
-0.095323287 -0.31460479 0.5585314
-0.1363302 -0.31487361 0.48536029
-0.071165062 -0.3135626 0.58138698
-0.01586044 -0.171261 0.57403111
0.072722293 -0.31431749 0.59230018
0.043513 -0.15627749 0.4673458
-0.136518 -0.31504801 0.52687109
-0.1132811 -0.31600901 0.4462986
-0.1046209 -0.31559989 0.53286761
-0.080276757 -0.27213451 0.50747287
-0.1012135 -0.31223011 0.51426041
-0.088612601 -0.3130776 0.55849308
-0.040450219 -0.1509247 0.5499804
-0.03820074 -0.1706502 0.56822783
-0.032512251 -0.27311489 0.55616832
0.041277532 -0.16000441 0.46436599
-0.070049644 -0.2040949 0.57100511
-0.1322245 -0.31426829 0.52002758
0.044668078 -0.1648756 0.559632
0.061742961 -0.2227208 0.5555557
0.050012529 -0.31688949 0.58427811
-0.079526067 -0.1592395 0.4870593
-0.097052217 -0.31600729 0.54616767
0.056723122 -0.1647623 0.54700571
-0.06008682 -0.1584207 0.54750109
-0.053479251 -0.31187251 0.59090668
-0.089577332 -0.3164641 0.56487519
-0.0079777241 -0.15682919 0.56354922
-0.065636247 -0.17650519 0.54302788
-0.01054636 -0.1712068 0.5740065
-0.02370083 -0.1778972 0.58131999
-0.083882317 -0.1678663 0.4713898
-0.076515138 -0.2200225 0.56659943
-0.0026250479 -0.1515332 0.56770301
-0.067816786 -0.28383279 0.53333968
-0.067397863 -0.28075269 0.53387862
-0.067448713 -0.2105086 0.57002127
0.01794314 -0.1560362 0.40002641
0.059950739 -0.21848731 0.55429649
0.072599083 -0.31068939 0.59565288
0.048007641 -0.180143 0.56006569
-0.018485069 -0.1726474 0.57579851
-0.066099048 -0.19293781 0.56051159
-0.084511273 -0.1676579 0.49236691
0.075554937 -0.19644029 0.54885459
0.0063367188 -0.28163281 0.57145947
-0.035338279 -0.2075399 0.58050561
0.1026523 -0.31827351 0.59570771
-0.077544421 -0.3189624 0.57910568
-0.117898 -0.31155589 0.57885921
-0.029160861 -0.146403 0.55218858
-0.06298238 -0.1631249 0.54687321
-0.0063393121 -0.15597209 0.44746739
-0.1220459 -0.3184503 0.43292859
-0.1218944 -0.31572631 0.43806589
-0.083536193 -0.1907683 0.54120392
-0.1040018 -0.31536111 0.47319469
-0.075775772 -0.2168072 0.55995589
-0.032198131 -0.28148681 0.5588721
-0.058166679 -0.1842193 0.56465977
-0.01020604 -0.1748341 0.57567722
-0.119456 -0.31698021 0.58742678
-0.047241509 -0.2776036 0.55289543
-0.052902699 -0.153133 0.55256122
-0.016795609 -0.1891859 0.57465982
-0.096750692 -0.30736011 0.53903168
-0.098552413 -0.3172929 0.55236161
-0.1378077 -0.3164283 0.48276281
-0.002789021 -0.1491856 0.5708406
-0.0204823 -0.1637051 0.55196112
-0.12914871 -0.3186 0.49163619
-0.01153642 -0.1567461 0.56428128
-0.075944841 -0.1749775 0.53421032
-0.099439353 -0.1826891 0.48482779
-0.078194886 -0.28205001 0.5069567
-0.1097061 -0.31306139 0.50003493
0.01257187 -0.19765329 0.58004749
-0.17375951 -0.31510121 0.52903527
-0.04671267 -0.23151819 0.56488562
-0.019067019 -0.18343911 0.58232123
-0.1402507 -0.31487051 0.58247137
-0.061323579 -0.1675225 0.54930133
-0.08584781 -0.1734198 0.54145139
-0.090737641 -0.25221899 0.47430211
-0.092677191 -0.1872324 0.51422268
-0.1021607 -0.1851991 0.49275279
-0.091366507 -0.17556401 0.49526271
-0.1019135 -0.1971485 0.47851589
-0.086164363 -0.1751169 0.54612678
0.01043898 -0.1731285 0.45240039
-0.073890269 -0.27699551 0.51515669
-0.035888549 -0.31457391 0.59755218
-0.087253213 -0.3186174 0.57421118
-0.1068057 -0.31613421 0.50733328
0.073014744 -0.16574951 0.50083458
0.006144851 -0.15364879 0.52705258
-0.06165031 -0.1481434 0.53669691
-0.01553839 -0.18436749 0.58133602
-0.1000752 -0.1935766 0.49076629
-0.1298099 -0.31428519 0.4883323
-0.084001049 -0.1712662 0.52254158
-0.064567149 -0.2190806 0.56660843
-0.07041648 -0.15225109 0.53156239
-0.065116823 -0.2594468 0.5483101
0.0134697 -0.1557864 0.52439129
-0.090397701 -0.178326 0.47105119
-0.0727669 -0.15333091 0.52096158
-0.099761128 -0.1939704 0.4693861
-0.081876308 -0.155435 0.50000823
-0.062984847 -0.2028573 0.56896907
-0.070997767 -0.1662508 0.53865021
-0.072537631 -0.15842099 0.51984441
-0.089899808 -0.1874208 0.52256358
-0.090669267 -0.25852779 0.4665238
-0.083566397 -0.19455411 0.54244637
0.00096389651 -0.1463207 0.45867279
-0.1016351 -0.19680069 0.4635734
-0.076086193 -0.3147001 0.57863212
-0.063530803 -0.2879799 0.52940398
-0.086256243 -0.28623509 0.49662149
-0.070362419 -0.3162896 0.58539128
-0.088592127 -0.30056849 0.48704401
-0.14327741 -0.31832069 0.51856261
-0.06485787 -0.31211081 0.53413302
-0.084922403 -0.31971231 0.57061273
0.070622496 -0.158915 0.50377351
0.050478522 -0.1554727 0.40710941
-0.035215259 -0.16241769 0.56097209
0.032780949 -0.1831803 0.57971227
0.068859458 -0.1669648 0.45561031
0.0089308619 -0.1530133 0.56873029
-0.00747329 -0.1776062 0.57918781
-0.02059686 -0.16949099 0.57302982
0.062990367 -0.14499471 0.42205909
0.064969629 -0.1516151 0.53739351
0.01057661 -0.29358119 0.56707728
0.068727612 -0.314652 0.56570631
-0.090724997 -0.3041434 0.52001488
-0.015847979 -0.19268329 0.57655251
-0.067777313 -0.1423519 0.52670199
-0.068763077 -0.1573505 0.5340094
-0.073483817 -0.1850245 0.55526382
0.04625836 -0.2692695 0.55272788
0.035723329 -0.2207204 0.57245213
-0.063337803 -0.1520296 0.4404332
-0.1231743 -0.31778201 0.58763123
-0.1016614 -0.20461591 0.50244361
-0.1438839 -0.31939051 0.58056778
-0.0088549554 -0.1497734 0.4612554
-0.04283065 -0.17835329 0.57105148
-0.089366376 -0.24629989 0.49840969
-0.074584901 -0.2125719 0.56187153
-0.07160306 -0.209034 0.56668031
-0.1461979 -0.31503811 0.51362622
-0.089735053 -0.1808027 0.51930439
-0.080176592 -0.19269741 0.5475198
-0.088954538 -0.1743995 0.52416098
-0.047008779 -0.27794999 0.55174571
-0.076732397 -0.20567711 0.55148733
0.031424429 -0.1656585 0.47411659
-0.038495328 -0.2034011 0.57408231
-0.01425886 -0.19704729 0.57901782
-0.1305916 -0.3151716 0.53004301
-0.01166633 -0.2065988 0.5790379
0.077334173 -0.1741872 0.48294371
-0.074563064 -0.1879501 0.5547142
-0.066006839 -0.1454657 0.53370231
-0.079976678 -0.31643781 0.50121731
0.062473949 -0.31356299 0.59410989
-0.1483333 -0.3154569 0.56155068
-0.1229559 -0.3171176 0.5451932
-0.079188108 -0.26703519 0.51533252
-0.001468897 -0.1413108 0.43805769
-0.097771727 -0.208895 0.52000833
0.078425683 -0.1565299 0.45279089
-0.1475013 -0.3139604 0.58662271
-0.117392 -0.31433469 0.5892247
-0.054817799 -0.31258541 0.59388232
-0.1022727 -0.31418869 0.53299659
-0.069388121 -0.31425631 0.58027989
-0.13520271 -0.3129153 0.50148022
-0.1338902 -0.31008711 0.49419761
-0.067883879 -0.31087419 0.58143961
-0.1393142 -0.31173271 0.52986127
0.077522807 -0.1959136 0.57561308
0.01589763 -0.1805336 0.58536059
0.023528039 -0.2125732 0.5814209
0.017939329 -0.18475769 0.57897568
-0.019748811 -0.18258201 0.58363873
0.071501523 -0.2023249 0.5687567
-0.07558614 -0.32169399 0.56619382
0.01521218 -0.1567944 0.57293719
-0.0054131751 -0.1482899 0.57219702
0.060668621 -0.19267949 0.56533277
-0.080326587 -0.1851697 0.55756527
0.0036021471 -0.2959471 0.5844022
-0.1340943 -0.30910909 0.49999669
-0.081242107 -0.2177005 0.55719548
-0.076425761 -0.3019549 0.48894459
0.001366735 -0.1794432 0.57849091
-0.106525 -0.31417939 0.53262627
-0.1094472 -0.31894019 0.46887201
-0.1097597 -0.204146 0.51524198
-0.087012798 -0.2105851 0.43130901
-0.02082428 -0.1795456 0.57763749
0.01694575 -0.1870198 0.58497822
-0.008795768 -0.1855537 0.57874811
-0.028703419 -0.2828896 0.56008768
0.0094123483 -0.1667826 0.57294029
-0.047896799 -0.13821679 0.4813312
-0.01443896 -0.1815808 0.43255591
-0.004168421 -0.1546613 0.41010621
-0.058811251 -0.166234 0.4240247
-0.00062641501 -0.1484506 0.39624569
0.003069222 -0.1557955 0.40024859
-0.004147083 -0.1502835 0.39461601
-0.04620764 -0.1791736 0.43508771
-0.01572359 -0.1657732 0.4040814
-0.080264032 -0.1532229 0.4384535
-0.070427597 -0.1760897 0.44150749
0.027339609 -0.15168209 0.3845315
-0.02868134 -0.1595068 0.4016169
-0.062650323 -0.1677887 0.458915
0.046475019 -0.1527894 0.3993068
0.043487579 -0.15453631 0.39516479
-0.071089268 -0.1780059 0.51335812
-0.077064872 -0.17459799 0.43766469
-0.091921598 -0.2615239 0.49812469
-0.060213391 -0.28844959 0.53431618
-0.078255527 -0.30965841 0.41835669
0.1054589 -0.1999006 0.4301056
0.088142477 -0.17210171 0.51205689
0.094146729 -0.1530519 0.4555735
0.026254831 -0.1976749 0.50802928
0.016504729 -0.1583322 0.5667944
0.03720415 -0.2128277 0.47024119
-0.038014319 -0.1905981 0.52483869
0.069155313 -0.15632419 0.53805971
0.086130649 -0.15790389 0.48421189
0.080214977 -0.1634068 0.44059789
-0.13326199 -0.31250021 0.52225149
-0.08426103 -0.1644398 0.5258919
-0.093040504 -0.2379844 0.47423521
-0.051476181 -0.1517375 0.55172729
-0.084954619 -0.27482909 0.51435733
-0.043985751 -0.1480239 0.5548681
0.017367629 -0.1495019 0.4000333
0.01541644 -0.1415875 0.40428019
-0.08581537 -0.29889819 0.4423933
-0.03353411 -0.2702077 0.56221062
-0.078635901 -0.1616459 0.45334449
-0.084700048 -0.1967105 0.42110741
-0.074302942 -0.1719224 0.54955041
-0.074816607 -0.30014259 0.5262922
-0.076475531 -0.1526438 0.49118599
-0.085123181 -0.26538241 0.4512603
-0.033303261 -0.15422919 0.40356699
-0.069693677 -0.28880301 0.4101916
-0.090522893 -0.28048429 0.4988893
0.037100639 -0.1777149 0.57392848
-0.076197498 -0.29313469 0.42984259
-0.074189156 -0.1521699 0.52317017
0.0095791221 -0.1494751 0.57108277
-0.081597358 -0.23648261 0.48898819
-0.071923018 -0.27798289 0.53794378
-0.01669121 -0.1512785 0.54644489
-0.0270316 -0.1484032 0.55763751
-0.03778803 -0.1613199 0.56632572
-0.0058509712 -0.1802613 0.44785649
-0.006220303 -0.15713871 0.52077788
-0.07675162 -0.15162811 0.52308673
-0.089189067 -0.183385 0.53756618
-0.034250941 -0.2738345 0.55850929
0.073998153 -0.17338 0.50018948
0.02174112 -0.15251011 0.56515187
0.064973757 -0.1577742 0.43950501
-0.083491303 -0.1648358 0.52507848
-0.094953448 -0.1721286 0.5439592
0.083234519 -0.1667846 0.46298829
-0.071503818 -0.1660811 0.53798997
-0.086353377 -0.1632722 0.51825142
-0.091008812 -0.1762576 0.47408929
-0.08080253 -0.1616125 0.45362979
0.01476076 -0.1636319 0.48649761
0.02941734 -0.216434 0.57823539
-0.01422709 -0.2762382 0.57418013
-0.064093053 -0.25002831 0.55217642
0.020664571 -0.1572385 0.5707013
-0.063376613 -0.1587425 0.4464924
-0.072826043 -0.1751975 0.54913568
-0.0068619251 -0.1747601 0.58150363
-0.09170872 -0.17813849 0.52295172
-0.00242117 -0.14903329 0.56907362
0.076676458 -0.1802915 0.50040722
0.019468401 -0.18195809 0.58319312
-0.079505317 -0.1579421 0.49434409
0.044159409 -0.1584345 0.46259981
0.06475088 -0.141196 0.44373849
0.08481165 -0.1464657 0.46242481
0.0160794 -0.1696346 0.45959151
-0.1032532 -0.2034104 0.50461698
-0.0897834 -0.28192639 0.5011903
-0.070349537 -0.28309259 0.53580159
-0.070346013 -0.2809611 0.53338879
-0.088177621 -0.1848904 0.4393512
-0.043967009 -0.1588126 0.55764592
0.067583866 -0.1670105 0.45702901
0.01326242 -0.15643661 0.52168882
-0.072951257 -0.150708 0.49001291
-0.0118565 -0.1694459 0.57622999
-0.031809691 -0.25568309 0.56858242
0.044591401 -0.158039 0.55941319
-0.02584729 -0.26718491 0.56670022
-0.01962528 -0.1605435 0.3778621
-0.01640776 -0.1855808 0.57941842
-0.017642479 -0.1678142 0.57681757
0.080462553 -0.16277599 0.48938629
0.035360008 -0.1569432 0.47135469
0.037161559 -0.1831319 0.57631582
0.080353022 -0.1806834 0.45809171
0.064401448 -0.1662107 0.48789161
0.046628062 -0.2233265 0.57202238
0.039972391 -0.2177283 0.58265322
0.0053583682 -0.282112 0.57183021
0.0061848462 -0.15291061 0.52830148
0.01628292 -0.1792265 0.57918751
0.040463891 -0.161503 0.4773508
-0.042943001 -0.16709191 0.47805509
-0.017908899 -0.1589857 0.50039572
0.016248049 -0.2511197 0.56754512
-0.051619802 -0.1590476 0.49320811
-0.01406351 -0.1568803 0.56732059
-0.01323748 -0.1694719 0.48901021
-0.01929906 -0.18577351 0.42304131
0.096086226 -0.1721324 0.50978291
-0.048527569 -0.1480092 0.51387608
0.051624451 -0.18038779 0.5595423
0.079927146 -0.28483221 0.51553148
0.041001529 -0.1494946 0.4223552
-0.04543677 -0.18066169 0.51348633
0.072931997 -0.1531564 0.52134198
-0.01257861 -0.16665231 0.50314778
-0.01121303 -0.1356127 0.43062761
-0.070364393 -0.1480674 0.4927741
0.029094899 -0.1527438 0.5699569
0.074799061 -0.153318 0.52252001
0.057461921 -0.16123261 0.54859471
0.05964854 -0.17524721 0.55666262
0.01558089 -0.1654693 0.57089359
0.073661827 -0.1747691 0.5467847
0.01366153 -0.1488627 0.5719372
0.09696275 -0.1624815 0.47963199
0.030241219 -0.1820928 0.44821489
0.096044928 -0.1906914 0.51225859
-0.054720972 -0.1635506 0.48500139
0.01916942 -0.153851 0.4040021
0.06901589 -0.14943209 0.53018582
0.0080569088 -0.1544783 0.3980976
-0.034339581 -0.16281199 0.57316548
0.0092752874 -0.1769377 0.42354599
0.080934912 -0.2716018 0.50588351
0.063769698 -0.1441827 0.4241809
0.043681651 -0.1478956 0.41652861
0.087102197 -0.1540391 0.47961009
-0.048371971 -0.1643261 0.49579641
0.024364561 -0.1791753 0.42626789
0.02699074 -0.15779001 0.46508509
0.02767357 -0.152393 0.56689501
-0.02762893 -0.1206128 0.49837649
0.052296039 -0.1548038 0.51220739
-0.032003399 -0.1217407 0.46668789
0.071979672 -0.1543891 0.52934629
-0.022958189 -0.1539235 0.39510921
-0.06644991 -0.1469858 0.51816392
-0.01270548 -0.1774659 0.5799818
0.078695543 -0.191448 0.57595938
0.069493107 -0.28829119 0.52486777
0.089672953 -0.1597362 0.50335622
0.098544508 -0.1845281 0.48204121
0.080500416 -0.1547191 0.49767491
0.100454 -0.1897354 0.45933899
0.09228456 -0.2077761 0.47725579
0.002161473 -0.1589379 0.4963184
-0.067324907 -0.1422985 0.52359033
-0.066120617 -0.1135566 0.49781781
0.093216777 -0.198376 0.52477509
-0.0041443999 -0.17592821 0.4477593
0.038984779 -0.16609371 0.51473159
0.00123781 -0.1880675 0.58180588
-0.054977089 -0.1507137 0.52700567
0.085838228 -0.1621194 0.51642883
-0.01191679 -0.1675301 0.48510799
0.090682358 -0.18077689 0.4327665
0.092596382 -0.1870545 0.51413572
-0.02336481 -0.15713429 0.47277659
0.062451929 -0.1411909 0.41602299
0.07849136 -0.1760806 0.41255251
0.002767622 -0.1731907 0.42363349
0.001275033 -0.180411 0.58504868
0.041714702 -0.1483068 0.55861199
-0.083635963 -0.1558442 0.49946061
0.080105603 -0.1552746 0.47216329
0.1023168 -0.1855918 0.47675079
0.078120142 -0.30018681 0.4307861
0.081466623 -0.2740404 0.50481182
0.004225791 -0.1784157 0.50404757
0.01974687 -0.1747534 0.51076603
0.01473555 -0.168139 0.475907
0.01474699 -0.1552189 0.57421237
0.085716158 -0.18288951 0.53356528
0.095551938 -0.25088999 0.45328251
-0.020639781 -0.1505456 0.45608589
-0.01375514 -0.1716954 0.4297244
-0.04428282 -0.1690419 0.44949299
-0.04313067 -0.1621583 0.50586122
0.079456031 -0.1591152 0.43266141
-0.03700754 -0.1609533 0.3938219
-0.0032891631 -0.153835 0.47265071
-0.01403123 -0.156477 0.50016987
0.01616931 -0.1536032 0.39488149
0.087334782 -0.277693 0.45844629
0.01236597 -0.1513613 0.40070659
-0.0060229301 -0.15086579 0.39090139
-0.01063707 -0.17762689 0.48932639
0.080831021 -0.1415706 0.45020741
0.01391897 -0.1659871 0.45490161
0.086184412 -0.18133929 0.42021951
0.077571929 -0.1551332 0.41379911
0.079783469 -0.17316809 0.41106969
0.087725759 -0.18900511 0.42380759
0.091026463 -0.20642141 0.4083676
0.08862412 -0.20639589 0.40137491
0.091521867 -0.2044789 0.40659979
0.094539464 -0.2671755 0.4606275
0.090685807 -0.2724022 0.46149001
0.081144087 -0.1390036 0.45190799
0.042556699 -0.151077 0.41757211
0.024955001 -0.1463172 0.39886409
-0.01446271 -0.14632431 0.40123311
0.019853881 -0.1519544 0.4056491
0.094784483 -0.17049851 0.513116
0.0058684652 -0.1405977 0.39650559
0.036167141 -0.1621854 0.3849346
-0.01445857 -0.17567749 0.44008899
-0.0073281531 -0.13829561 0.43215629
0.04948163 -0.1518629 0.3982417
0.09282577 -0.1727901 0.44198519
0.067336537 -0.1388828 0.43030921
0.082272232 -0.15192381 0.49672961
0.093992978 -0.1565595 0.46306071
0.01094186 -0.1506325 0.4011538
0.05286127 -0.1457082 0.42685431
0.053652231 -0.1353939 0.41205761
0.075018823 -0.1524214 0.4993495
0.077922508 -0.1428733 0.42800501
0.03735185 -0.1859847 0.37775841
0.081309661 -0.14926679 0.5071404
0.038735151 -0.18537781 0.46479169
0.082504094 -0.2058973 0.54334837
0.074648917 -0.29785219 0.56647879
0.004291296 -0.1531309 0.40448681
0.082398891 -0.27408791 0.50450587
0.04002225 -0.1465776 0.41821441
0.085194021 -0.14699119 0.45854959
-0.044914391 -0.149212 0.45471621
0.0035331249 -0.1023017 0.49405241
-0.039361831 -0.162303 0.56239182
-0.00043100119 -0.1540648 0.56555271
-0.075199597 -0.1904356 0.55605602
-0.056021988 -0.14845771 0.53491032
-0.01407951 -0.1682706 0.49505731
-0.0094805956 -0.17997061 0.57646197
0.084675372 -0.1558731 0.4549188
-0.044863582 -0.190723 0.56784689
-0.086294048 -0.16679551 0.50958562
-0.032218222 -0.28320861 0.55773097
0.051338729 -0.1694088 0.49128279
-0.02276325 -0.17930891 0.46426591
-0.071626931 -0.2074839 0.56688231
0.04055452 -0.1884626 0.5706861
-0.05674332 -0.26015809 0.5496158
-0.02748826 -0.27123019 0.56125039
0.04649201 -0.1756212 0.55824059
0.039370779 -0.1618984 0.46147859
-0.068378031 -0.2178748 0.56769907
0.00091716647 -0.3006998 0.56563878
-0.02952921 -0.2661874 0.55701339
-0.072102487 -0.15651581 0.51854402
-0.01737717 -0.1610589 0.39269659
-0.063278913 -0.15522709 0.52860421
-0.016503479 -0.1656082 0.55535668
0.071728833 -0.169186 0.43447909
-0.075978823 -0.1715709 0.52441812
-0.063494027 -0.16185001 0.44812661
-0.029372331 -0.1693266 0.45364049
-0.062229309 -0.24183831 0.55521703
-0.01864177 -0.18570019 0.58090478
-0.078890383 -0.1571335 0.5087831
-0.04569608 -0.1525915 0.52402091
-0.0098157534 -0.1727251 0.57305479
0.05886307 -0.1938232 0.4392418
0.068653204 -0.1933722 0.47796369
0.082863152 -0.1682357 0.48626119
0.070632666 -0.1715405 0.4487046
0.02284148 -0.1554876 0.52021688
0.084766813 -0.1597223 0.47592381
0.04136556 -0.1652206 0.55966407
0.02360386 -0.17002741 0.56230038
0.06801036 -0.18170349 0.46220171
0.0050865109 -0.28183979 0.57220089
-0.052396331 -0.26918229 0.55103058
-0.032675982 -0.2777136 0.55842751
-0.0092904568 -0.1501724 0.45278129
-0.006215096 -0.1377133 0.42508611
-0.017490329 -0.1119945 0.4948521
-0.083809927 -0.1840001 0.42228311
-0.01213318 -0.1787786 0.44987711
-0.094303608 -0.1773681 0.47089091
-0.048441291 -0.1670133 0.43770859
-0.02142212 -0.1441095 0.4790282
-0.0099073946 -0.1539873 0.38962021
-0.086769581 -0.21810099 0.55191642
-0.015887739 -0.1631735 0.55814952
-0.069278397 -0.2083126 0.55938017
-0.082256533 -0.1939615 0.53719819
-0.076960891 -0.1930054 0.54715377
-0.065406322 -0.28485841 0.53521872
0.068412207 -0.16382059 0.42886451
0.077434629 -0.16574191 0.52727109
0.03043407 -0.15464181 0.5536288
0.03839824 -0.1598942 0.55651349
0.074611567 -0.2246246 0.55324972
0.093084186 -0.19669861 0.52533132
0.02905995 -0.1792834 0.56372201
-0.01000845 -0.13857719 0.4411965
-0.01825574 -0.17998201 0.4210335
-0.071051508 -0.271635 0.53239888
-0.019813299 -0.2623688 0.5628525
0.01182786 -0.159767 0.52190018
0.01197889 -0.16264769 0.51624292
0.047782179 -0.1614805 0.44797969
-0.052724671 -0.1693494 0.55618519
-0.042535421 -0.16235641 0.48266399
-0.066034257 -0.2751933 0.5388276
-0.076804399 -0.16706911 0.4541724
-0.087354839 -0.25747949 0.46152031
-0.074991763 -0.1616194 0.51028079
-0.101058 -0.2061093 0.50743508
-0.067487933 -0.22236501 0.40254629
-0.086718172 -0.28517681 0.49917451
-0.029372331 -0.16853 0.3910636
-0.04869318 -0.2637386 0.40489089
-0.084626138 -0.2992388 0.45575711
0.050633039 -0.15680671 0.42758301
-0.03025252 -0.1602564 0.39696199
-0.057422519 -0.16462719 0.41758591
-0.061876919 -0.1614273 0.4351666
-0.097907841 -0.2255429 0.4630267
-0.087230437 -0.28167501 0.4963634
-0.058683429 -0.2375506 0.40822941
-0.04290688 -0.293852 0.4152928
-0.05052435 -0.29174399 0.41056779
-0.047365669 -0.1663273 0.40881249
-0.098920293 -0.22627629 0.43921429
-0.02119467 -0.16278289 0.38454729
-0.045565009 -0.180392 0.397201
-0.079223961 -0.16909041 0.52420139
0.067217171 -0.16790099 0.45241299
-0.01662758 -0.2496139 0.3850925
-0.07017979 -0.20996089 0.39941731
-0.102244 -0.2234854 0.49569601
0.064206958 -0.148035 0.4222371
0.036637899 -0.1966164 0.3755202
0.065945268 -0.1501901 0.41153759
-0.03075403 -0.2908403 0.38930479
0.0092001557 -0.17633601 0.35539809
-0.02807617 -0.16399249 0.39692309
0.0086669326 -0.27682269 0.38446751
-0.091669112 -0.25193089 0.50941128
-0.090935864 -0.29291901 0.49872771
0.05702037 -0.1503163 0.4029915
0.070294984 -0.1494562 0.4370259
0.022090491 -0.2045994 0.37449941
-0.077123821 -0.1945439 0.4067207
-0.0042091608 -0.1593321 0.55881131
0.02809393 -0.17347699 0.44150999
0.01554883 -0.1702947 0.38587639
0.080929697 -0.15260459 0.45656261
-0.058476329 -0.1701103 0.41161719
-0.01530805 -0.1972854 0.37779689
-0.0199506 -0.1872436 0.37636089
0.075634658 -0.18915661 0.47281441
-0.08551836 -0.1954807 0.42417929
0.059435431 -0.3005681 0.3922115
0.0154171 -0.19261611 0.54350013
-0.094296508 -0.17400829 0.4887993
-0.066737317 -0.1553998 0.50573272
-0.079028793 -0.159493 0.47700819
-0.092919983 -0.2997258 0.47511801
-0.037841711 -0.21011171 0.39441261
-0.084533103 -0.1781543 0.4562254
-0.045777589 -0.1589694 0.4067888
-0.077092893 -0.16714139 0.44116369
-0.07553786 -0.1887289 0.41754469
-0.06764251 -0.2179942 0.3992987
0.069604278 -0.1770179 0.46128759
0.065464258 -0.1681875 0.46810311
0.085038781 -0.15655731 0.4822655
-0.04100376 -0.30304551 0.38823029
-0.022119099 -0.20300481 0.37033439
-0.071411133 -0.29221049 0.42299399
-0.027121451 -0.1690066 0.51175022
-0.065085053 -0.15505201 0.44242769
0.072516859 -0.1614342 0.51936781
0.078223169 -0.1559059 0.52215731
-0.099705987 -0.1771836 0.47832999
-0.07582733 -0.1991912 0.56516922
-0.1042627 -0.2132919 0.45242119
-0.089991927 -0.1757904 0.52844012
-0.09429273 -0.195371 0.42856821
-0.085538089 -0.1717284 0.52896541
-0.088718772 -0.1701884 0.51985741
-0.084474713 -0.1745889 0.46158591
-0.04951695 -0.1583316 0.42207801
0.06125116 -0.18258619 0.52174699
-0.0172351 -0.1685525 0.49792609
0.08992523 -0.1520737 0.41650611
-0.090420373 -0.2320129 0.446693
-0.02972484 -0.1608898 0.39596081
-0.086341858 -0.18662921 0.53649461
0.035997208 -0.20039611 0.37806091
-0.067674883 -0.1560213 0.51986217
-0.08780545 -0.2752369 0.45722321
-0.1001632 -0.2043698 0.50661433
-0.027054669 -0.16333491 0.396346
-0.087224133 -0.1757725 0.49085101
-0.09255439 -0.2386706 0.4768635
-0.0161019 -0.1857124 0.384038
-0.088834353 -0.18529999 0.4830246
-0.032891929 -0.2131611 0.3831414
-0.0024095769 -0.06907776 0.47953469
0.02719843 -0.2041894 0.37225699
-0.083649099 -0.2010413 0.42446861
-0.071894757 -0.1676254 0.53734052
-0.072386213 -0.2042702 0.4100028
-0.090081207 -0.2209357 0.53076911
-0.093581744 -0.19345111 0.49825791
-0.075304873 -0.15848529 0.47922701
-0.06640178 -0.1816972 0.5499419
-0.083269209 -0.19247741 0.53239012
-0.062561989 -0.1552234 0.52572513
-0.055854801 -0.2252415 0.40149799
-0.081250973 -0.2331856 0.4390792
-0.024471819 -0.1772615 0.57326478
-0.102262 -0.2042859 0.44787741
-0.0053753848 -0.1158099 0.4967266
-0.061921179 -0.2127753 0.4022803
-0.050067309 -0.25075671 0.4167017
-0.002626538 -0.27166349 0.38166019
-0.020481169 -0.1936494 0.3781465
-0.0068972111 -0.17077941 0.58324099
-0.078717589 -0.1731261 0.46240681
-0.082000203 -0.1571767 0.47568321
-0.102623 -0.19354931 0.49310681
-0.01962292 -0.18604571 0.3801792
-0.09712857 -0.2373565 0.47400841
-0.094022147 -0.1907434 0.52627742
-0.098892927 -0.2168757 0.45078471
-0.088035882 -0.25261551 0.45671311
-0.075135529 -0.1549316 0.51704723
-0.0063390732 -0.068757556 0.47826341
-0.074589252 -0.15407249 0.51894641
-0.081883609 -0.16787989 0.52233672
-0.08529985 -0.2022239 0.42296579
-0.01305944 -0.1146188 0.49374479
-0.081831247 -0.2937572 0.50152659
-0.075587362 -0.19596539 0.40594181
-0.1056458 -0.1953454 0.4912194
-0.060804009 -0.17045081 0.41207021
-0.018423799 -0.2486437 0.38245031
-0.061478671 -0.1747307 0.4085933
-0.078673661 -0.16679969 0.4404349
-0.096164294 -0.2261063 0.49928159
0.00038415191 -0.1750263 0.3803452
-0.090641379 -0.2378467 0.5118624
-0.086726189 -0.18621451 0.53457749
-0.055323958 -0.2879132 0.5392524
-0.084636152 -0.3039588 0.49613461
-0.083882272 -0.2929126 0.43924391
-0.051467419 -0.30290389 0.55319989
-0.072570257 -0.3021318 0.52764273
-0.074289739 -0.29120091 0.42413899
-0.1028888 -0.2052357 0.50754958
-0.077880017 -0.15707199 0.50546569
-0.061980721 -0.14665429 0.53720713
-0.089904189 -0.25283411 0.50174469
-0.089961112 -0.23083851 0.44642279
-0.085902989 -0.2333343 0.4465749
-0.088933289 -0.25531411 0.47095889
-0.088819683 -0.29960841 0.46458879
-0.095685363 -0.25129831 0.4817144
-0.082983792 -0.26677811 0.44441679
-0.01189232 -0.108384 0.49200431
-0.038671851 -0.1685611 0.3973951
-0.080558002 -0.1691228 0.50704408
-0.076588929 -0.203375 0.40885109
-0.091901302 -0.2233153 0.53065538
-0.04796743 -0.1780265 0.39636621
-0.06177121 -0.2023661 0.3947562
-0.016732341 -0.22826821 0.37687379
-0.048938751 -0.1551376 0.40382919
0.065396667 -0.1725421 0.4943727
-0.084740102 -0.1533889 0.47285131
-0.08502242 -0.1584702 0.44827929
-0.03516889 -0.16455451 0.3889066
-0.081825577 -0.1776199 0.43144399
-0.030741571 -0.1589772 0.3949987
0.068545669 -0.1672505 0.45166829
0.041573171 -0.1791086 0.38346291
-0.083021522 -0.1555188 0.50457817
-0.05227631 -0.1592423 0.50102597
-0.086928546 -0.30319369 0.5031305
-0.01464999 -0.16171131 0.44429871
0.078408808 -0.1934007 0.47492251
-0.01314828 -0.068291843 0.47777829
0.003870904 -0.1541322 0.3876535
-0.087759413 -0.27658829 0.45689881
-0.1008966 -0.23233549 0.48023459
-0.086618073 -0.1803851 0.52977312
-0.021474689 -0.1636728 0.49286571
-0.074039668 -0.24191409 0.42761591
-0.055093531 -0.16364589 0.49094009
-0.092538148 -0.1759548 0.47419199
-0.060996559 -0.2810623 0.40930751
0.072427899 -0.14558069 0.45187801
0.040637761 -0.1494951 0.41851801
-0.02951224 -0.15701979 0.44063509
0.062082741 -0.1494175 0.4423342
0.061573151 -0.1448414 0.41969311
-0.080900222 -0.16549879 0.52127057
-0.1041643 -0.1932385 0.48898429
-0.092766114 -0.25378409 0.50714982
-0.084808983 -0.2803365 0.45818901
-0.089322694 -0.1749828 0.45387769
0.05778015 -0.1828392 0.45112821
-0.042348981 -0.1593747 0.43554819
-0.067252547 -0.1557181 0.42985669
-0.063740611 -0.1669151 0.41069669
0.001619041 -0.15124729 0.51048481
0.03741708 -0.1482697 0.4085409
-0.029330131 -0.16585781 0.5008409
0.0087513328 -0.1588307 0.38306439
-0.07165049 -0.21520831 0.39819339
-0.09159185 -0.29154369 0.3990573
-0.073666073 -0.1652569 0.44833151
-0.02243395 -0.14263549 0.55368471
-0.04489648 -0.1450152 0.54249167
-0.02055205 -0.1950807 0.37512931
-0.02598175 -0.29856181 0.38725081
-0.065838747 -0.28035849 0.4079693
-0.02338396 -0.1414891 0.55282968
0.042777549 -0.152235 0.4202092
0.072490327 -0.1548084 0.42998639
0.053677861 -0.1410244 0.4164882
0.058256429 -0.1556101 0.40555349
0.007062823 -0.16235369 0.38815969
0.018536219 -0.15334161 0.40273619
-0.033680499 -0.16774119 0.3885994
0.02454403 -0.1403223 0.38909119
-0.04306129 -0.174348 0.3983357
0.0092296898 -0.16585781 0.3828167
0.039704531 -0.1864832 0.38154671
0.021649349 -0.14880081 0.39681831
0.05629757 -0.16426571 0.40259501
-0.0069232732 -0.15620729 0.38972759
-0.071555167 -0.1640397 0.47299501
-0.094338633 -0.179656 0.46083239
0.070572414 -0.1541122 0.42462209
0.074525483 -0.1462345 0.44210199
0.070752352 -0.1495344 0.41442201
-0.091811746 -0.1862739 0.5429734
-0.054280549 -0.16498411 0.42374411
-0.057465412 -0.1903379 0.4416182
-0.1153137 -0.30295259 0.49655771
-0.023563251 -0.14273269 0.5530628
0.075535089 -0.1810991 0.49908811
-0.065891147 -0.16208629 0.42597339
-0.020733619 -0.1446977 0.55295038
0.051721901 -0.1872372 0.53824693
0.049321432 -0.19232529 0.53731447
0.06476818 -0.1546824 0.52981639
0.06378293 -0.16053329 0.52795988
0.075117439 -0.1535233 0.52502978
0.068541013 -0.1507539 0.52928549
-0.020122079 -0.1213546 0.42932189
0.035435859 -0.1637526 0.55161458
0.026433559 -0.1550604 0.55430639
0.0024340751 -0.1727102 0.54981673
-0.05206826 -0.1595632 0.48832721
-0.066766039 -0.15490779 0.51903898
-0.001723781 -0.19625559 0.54660457
-0.01774876 -0.2023665 0.53998989
-0.01185349 -0.1853791 0.53729302
-0.01147541 -0.1842908 0.4773657
0.019960539 -0.16700131 0.4495312
0.064820528 -0.14340609 0.4280045
0.069525719 -0.14952689 0.42567411
0.003033042 -0.1561479 0.39446911
-0.02182013 -0.151002 0.39071241
-0.018478969 -0.1579356 0.40111271
-0.03166014 -0.1620934 0.39591169
-0.01207718 -0.14875481 0.39788401
0.00262025 -0.1555218 0.4023402
0.02889484 -0.15545221 0.40852281
0.018432681 -0.14445551 0.39633021
0.059391379 -0.1456461 0.43305081
0.0031764209 -0.15320431 0.55591917
0.0040080249 -0.159595 0.55611187
-0.033467531 -0.16581289 0.391085
-0.08278726 -0.1590441 0.47760361
-0.025480781 -0.16230039 0.3909629
-0.082284302 -0.15524679 0.50728112
-0.080554597 -0.1594432 0.5190351
-0.061733689 -0.16221491 0.42139629
-0.080595702 -0.2150562 0.56510651
-0.05595227 -0.1567457 0.51073688
0.064780682 -0.189723 0.46700841
-0.057482839 -0.14553431 0.54280722
0.067159347 -0.1563203 0.51665509
0.062190741 -0.14419051 0.42306229
-0.063020229 -0.1596261 0.41318321
-0.067421451 -0.1592392 0.4259311
-0.082213372 -0.1565809 0.48594251
-0.001620084 -0.1736993 0.4887509
0.067979343 -0.1663603 0.51108831
-0.1028579 -0.1953039 0.4940238
-0.02590701 -0.1587927 0.38855359
0.01852962 -0.174611 0.38414499
-0.047347751 -0.1636343 0.50710088
-0.066848136 -0.16248231 0.4239524
0.077417247 -0.1548259 0.50500888
0.0108664 -0.1665847 0.3860198
0.074959747 -0.1545106 0.460044
0.076202027 -0.14800949 0.4560245
0.052683089 -0.1810021 0.4680596
0.003174514 -0.1862198 0.54322541
-0.097768568 -0.1755704 0.4703263
0.0028401909 -0.1795819 0.5325951
-0.067760617 -0.14355309 0.53600931
-0.08366622 -0.16445871 0.52328259
-0.023317549 -0.1979465 0.37555179
-0.02701721 -0.1658992 0.38660249
-0.067624331 -0.1514999 0.44247431
5.8233742e-05 -0.1547077 0.38792881
0.06158489 -0.1582308 0.52763307
-0.097547106 -0.188871 0.50743902
-0.099008128 -0.1792969 0.46636039
-0.098600887 -0.1685704 0.47064471
-0.093393952 -0.25252569 0.50911307
-0.082793251 -0.1547635 0.47619
-0.03295869 -0.1593176 0.3963463
-0.1040548 -0.1803308 0.48453999
-0.039357781 -0.1655191 0.51895678
0.020101819 -0.1920099 0.3760027
0.071843363 -0.18733031 0.47257009
-0.064994603 -0.15974919 0.43560299
-0.05198754 -0.1738807 0.39564949
0.069578707 -0.1671665 0.45464331
-0.084342673 -0.1561655 0.4513278
-0.1083042 -0.214995 0.4560757
0.024810219 -0.1786709 0.37727961
-0.08959116 -0.17568371 0.5297569
-0.037412729 -0.1674415 0.39732239
0.048609968 -0.1511111 0.40916061
-0.027731931 -0.1773867 0.38506299
-0.079696603 -0.2034319 0.40650231
0.068686277 -0.17105921 0.45189181
-0.09086512 -0.25720289 0.51084101
0.068553858 -0.1701709 0.4510071
-0.048336118 -0.1651611 0.49185911
0.07521525 -0.1500577 0.45789799
-0.03448686 -0.1776524 0.47702661
-0.09503302 -0.1758849 0.4896346
0.03726327 -0.1605664 0.54487121
0.046968911 -0.177705 0.48896301
-0.084154159 -0.1601653 0.45033589
0.0086403787 -0.1050388 0.47108161
-0.092083991 -0.17967179 0.46035939
-0.078795053 -0.16634969 0.53303671
-0.080861107 -0.159637 0.4544338
-0.066944331 -0.1620298 0.4257794
0.03491858 -0.15613119 0.47147289
0.0482977 -0.1774786 0.53875887
0.0524984 -0.1807147 0.55397201
-0.079927146 -0.1585947 0.50720263
-0.075825959 -0.1636918 0.51145363
-0.024639221 -0.1489754 0.55900258
-0.065071493 -0.1537533 0.4454048
-0.069222301 -0.1586732 0.4559527
-0.084965229 -0.18435749 0.53347027
0.0059343581 -0.17266791 0.4715561
0.072431952 -0.1467009 0.44944751
-0.064091153 -0.1582457 0.5074957
0.018711301 -0.14690579 0.41266069
0.065242983 -0.1466483 0.43253791
-0.02420065 -0.1660061 0.4448669
-0.06131747 -0.15229639 0.43753481
0.051467929 -0.1793775 0.52742118
-0.041926678 -0.1663008 0.52136159
-0.093342073 -0.1766561 0.47476971
-0.0087891221 -0.1716399 0.4884308
0.006248564 -0.1617402 0.55677998
0.0040602982 -0.1572174 0.55692142
-0.099877611 -0.1868408 0.52271408
-0.091737397 -0.1769584 0.49017319
-0.073530547 -0.15430249 0.52190173
0.04967219 -0.17846809 0.52840459
-0.074491583 -0.1499601 0.42908731
-0.073447838 -0.1535137 0.49915409
-0.078326643 -0.1693633 0.44206661
0.003518641 -0.1672762 0.49113041
0.031986918 -0.1872389 0.4444342
-0.036025081 -0.1787532 0.48753661
-0.083824553 -0.1659786 0.53442937
-0.020695269 -0.16669209 0.45433569
-0.060665522 -0.1516241 0.53269517
0.046616491 -0.17981011 0.445209
-0.1418961 -0.30403659 0.52728289
-0.070725337 -0.19720189 0.56905758
0.0078425705 -0.18678039 0.53636009
-0.02744776 -0.1769871 0.4741286
-0.0152736 -0.1794304 0.53451312
0.03513059 -0.1783561 0.55013138
-0.065707773 -0.1487789 0.5350951
-0.065055244 -0.1643205 0.42555141
-0.078579493 -0.14880601 0.4646672
-0.0073997229 -0.1841661 0.43517351
-0.081237331 -0.1698315 0.53544009
0.0057497919 -0.1800632 0.55087298
-0.03160584 -0.17647889 0.457463
-0.027866131 -0.1709736 0.4436776
0.078556977 -0.157087 0.52435791
-0.03708012 -0.1811588 0.47969899
-0.035477851 -0.166565 0.45202729
-0.085410573 -0.15692879 0.44820711
-0.1079659 -0.2033284 0.50007337
-0.049385428 -0.17390519 0.4822982
0.078848362 -0.1607068 0.5182507
0.063085534 -0.1593219 0.52578813
-0.064954057 -0.1629727 0.42485651
-0.03737748 -0.16794901 0.50001508
0.073075093 -0.15794981 0.49163991
0.071020633 -0.15932579 0.51600868
0.01724536 -0.15448549 0.51906651
0.01145785 -0.1580136 0.50666231
0.073669776 -0.1726995 0.51572621
0.064998701 -0.1564209 0.53188592
-0.0082075074 -0.15312649 0.55087012
-0.017367709 -0.1694067 0.53160572
0.073247038 -0.1785394 0.4984059
-0.01578592 -0.1497006 0.55716622
0.07457725 -0.1535695 0.51770228
-0.0029214511 -0.18958899 0.54032189
0.06321355 -0.1616618 0.52947068
0.017324399 -0.17325971 0.5116182
0.067937046 -0.1496848 0.52694619
0.0085244766 -0.1570655 0.51669067
-0.024423709 -0.1472654 0.56064671
0.052858569 -0.1707917 0.51394778
0.042572781 -0.1661375 0.54862821
0.075418487 -0.190293 0.49912721
0.020354791 -0.1613282 0.41385061
0.048470449 -0.15286189 0.54601592
-0.01195901 -0.14606009 0.5639925
0.068725079 -0.1863316 0.51299411
0.062585972 -0.1426789 0.42016381
-0.052348401 -0.1448148 0.52977812
-0.01693644 -0.085972309 0.49413219
0.0242032 -0.1621678 0.51875931
-0.027884331 -0.1956806 0.5990687
0.055966251 -0.15888581 0.40835249
0.058098271 -0.16508929 0.41720489
0.071738742 -0.1685897 0.49204609
0.064158984 -0.16460671 0.41106021
0.061350279 -0.1775073 0.3968938
-0.04840989 -0.170972 0.52348298
-0.02001014 -0.1642971 0.43781441
-0.02846018 -0.1702994 0.4664315
-0.032889981 -0.15770841 0.3955119
-0.03050971 -0.1664551 0.44418371
-0.031150609 -0.162398 0.39602089
0.0046999529 -0.1677966 0.42119369
0.0102074 -0.1657168 0.3843407
0.05305684 -0.20567051 0.3861219
-0.22243559 -0.30291951 0.59123713
-0.069423452 -0.1525455 0.4926306
-0.021951649 -0.2732937 0.38213009
-0.037369952 -0.1650452 0.39300841
-0.051993068 -0.26232201 0.40447879
-0.0001522005 -0.149123 0.38258499
0.0085777864 -0.1957114 0.3691844
-0.062291428 -0.15760849 0.51933092
-0.068096273 -0.1692978 0.47523871
0.021585381 -0.2322637 0.38017449
0.016698189 -0.19212081 0.38258851
-0.099857993 -0.29851431 0.47261879
0.025863459 -0.1918398 0.37744111
-0.05056648 -0.17786451 0.39779019
-0.02431252 -0.1488166 0.39279771
0.03101253 -0.1878027 0.381982
-0.087158427 -0.1980112 0.42773369
0.040478799 -0.1719662 0.5411483
-0.026494561 -0.1418611 0.50563991
0.020856621 -0.1891173 0.5524745
0.034038361 -0.1702559 0.50591308
0.029035769 -0.1726023 0.53755993
0.03023866 -0.1921863 0.38298991
0.063970327 -0.1532333 0.52736747
0.076727562 -0.16484059 0.4990944
-0.00050912978 -0.1715865 0.54783118
-0.024022309 -0.18772499 0.53483528
-0.061693542 -0.1585882 0.51644248
0.056349792 -0.1738815 0.51496989
-0.0093331486 -0.154295 0.3905631
0.068933628 -0.1948851 0.40214491
0.05653372 -0.1598119 0.40915561
0.06741444 -0.16476171 0.52082658
0.067539133 -0.156032 0.51256609
-0.0108551 -0.17114469 0.50919068
0.07272125 -0.17528699 0.49555171
0.088671349 -0.1593402 0.4789556
-0.04480144 -0.1641126 0.51506698
0.02092501 -0.167547 0.53930569
-0.048360821 -0.1780438 0.49841139
0.02411684 -0.1868623 0.3731471
0.045461111 -0.1464773 0.41391549
0.039375011 -0.14717139 0.40228611
0.033413582 -0.1522591 0.38234231
-0.069552287 -0.15440001 0.48846531
0.081264563 -0.1566997 0.50952822
-0.04111249 -0.1728155 0.48312989
0.026953969 -0.1772254 0.54142189
0.0085653719 -0.17011181 0.53584868
-0.096723743 -0.27243629 0.45635921
0.001605486 -0.15087821 0.383524
-0.01108702 -0.14365759 0.44639361
-0.052284501 -0.16086251 0.40185711
-0.01031397 -0.16803689 0.42230591
0.050104629 -0.2054598 0.3771036
0.0040152799 -0.1683723 0.4209331
-0.003859242 -0.1621438 0.38670659
0.041767929 -0.18376809 0.53194118
0.0094361454 -0.18769179 0.54061192
0.024473591 -0.18908159 0.37426209
0.02707636 -0.2074637 0.3738988
0.046882331 -0.29959679 0.40263391
0.056724701 -0.1669715 0.39868209
-0.046136688 -0.1664232 0.51666808
-0.056430601 -0.17403971 0.49632961
-0.0044165999 -0.1546836 0.5193125
-0.056289449 -0.1675759 0.4960992
-0.00030659139 -0.1628948 0.53737563
0.025434971 -0.17686319 0.54234838
0.01863539 -0.20025709 0.37649521
-0.019815881 -0.19011571 0.58143008
-0.018621679 -0.1762857 0.56626087
0.061787158 -0.14655121 0.4311091
-0.065429106 -0.1487067 0.5174312
0.080821693 -0.20951089 0.40177941
0.05723783 -0.1586355 0.41096169
0.062555447 -0.1767711 0.3969911
-0.055353388 -0.1492641 0.5174073
0.0097313151 -0.159632 0.38851759
0.04664534 -0.1445961 0.4124783
0.1158168 -0.30309021 0.48456001
-0.023130091 -0.1755407 0.45067441
0.05473863 -0.17422991 0.52123588
0.039069042 -0.1450516 0.40128979
0.052454509 -0.1450458 0.41253391
0.03694215 -0.1571707 0.38879731
0.044859689 -0.1514807 0.4239189
-0.005820706 -0.1590569 0.52495468
-0.001227438 -0.16530439 0.53998739
0.017537739 -0.1945933 0.54720283
-0.064384028 -0.1553116 0.50253451
-0.046557549 -0.1820496 0.50245333
-0.0053350329 -0.160642 0.38767639
-0.075787649 -0.1565318 0.47228619
0.023866011 -0.16526181 0.39227089
0.02199398 -0.1566717 0.41554421
-0.0158691 -0.16804869 0.4430669
0.0079467744 -0.182873 0.52215427
0.04585069 -0.1549073 0.39343861
0.0012010341 -0.1647328 0.49623781
0.062559783 -0.17178769 0.41350341
-0.0185485 -0.1821004 0.57075381
0.057278689 -0.15810379 0.41149151
0.06140507 -0.17979489 0.3985025
0.073774166 -0.15351389 0.4597486
-0.060129359 -0.17969 0.53869629
0.0033938589 -0.1817791 0.50775307
-0.096204132 -0.1921608 0.44506311
-0.075210273 -0.1517532 0.4893741
0.02427545 -0.1623008 0.39307669
0.0042019929 -0.19564889 0.53977072
-0.05782922 -0.1705692 0.49887261
-0.04689813 -0.1689698 0.52055311
-0.055284571 -0.1686278 0.48865211
-0.055418361 -0.16240209 0.50715971
0.028117299 -0.1868622 0.5448814
0.06612321 -0.1594737 0.51748019
0.023781341 -0.1716768 0.53652132
0.0082690269 -0.15995181 0.55875832
0.02051172 -0.2002679 0.37584811
0.033824179 -0.191981 0.53311378
0.035414249 -0.165969 0.54670292
0.0036202071 -0.1612796 0.47544411
-0.01009175 -0.16303539 0.56368428
-0.073657259 -0.1703442 0.46920639
-0.05692168 -0.1545976 0.50526059
-0.04007132 -0.18946131 0.51575679
-0.064589962 -0.1349749 0.50815183
-0.0094143599 -0.15280791 0.56291252
0.062140811 -0.1502717 0.41737211
0.047119949 -0.1457403 0.40375251
0.01413859 -0.15492439 0.56689858
-0.01974893 -0.1565356 0.55578882
0.028980089 -0.1815743 0.54699409
0.061649039 -0.1445265 0.42825979
0.01013954 -0.18969791 0.5420981
0.0039116289 -0.1741271 0.38285971
-0.0083248764 -0.12735669 0.50184739
-0.021737101 -0.1739407 0.47247031
-0.04351626 -0.16826309 0.4677211
-0.01182799 -0.16960961 0.3844468
-0.060034111 -0.1485303 0.42999959
0.087518647 -0.1612051 0.48632321
0.08552435 -0.1866705 0.41370171
-0.020039281 -0.13441169 0.54199171
0.051980559 -0.15980799 0.44837749
-0.077121124 -0.1482421 0.50391579
0.080903977 -0.1649822 0.43545729
-0.056483701 -0.17119791 0.40281519
-0.0072526038 -0.17902561 0.4801186
-0.028530389 -0.17837951 0.4631989
0.046744868 -0.1444378 0.41104001
0.037460919 -0.17677739 0.4579767
-0.030918989 -0.16176189 0.51542372
0.023707669 -0.1937713 0.37759471
0.0370107 -0.1734838 0.388143
0.022419591 -0.1730946 0.37116569
-0.021405799 -0.1905043 0.37485081
-0.045344532 -0.1763477 0.39234281
0.01214151 -0.1569971 0.38544989
0.090937048 -0.15803979 0.4577305
0.066111676 -0.15927771 0.41607741
-0.002405301 -0.1801298 0.38253579
-0.0046175569 -0.14972401 0.48549759
-0.046408709 -0.17048579 0.40012881
0.054314259 -0.1588355 0.41418549
-0.02524573 -0.1730364 0.3874847
-0.032491069 -0.16001409 0.44511351
0.084874667 -0.187463 0.56461728
0.094894603 -0.1506975 0.451974
0.08749643 -0.1777641 0.41786009
0.074711613 -0.1596116 0.47962791
0.045563731 -0.1788121 0.41985199
-0.030019039 -0.19179191 0.38159439
0.01317631 -0.15626 0.3847788
-0.05361782 -0.163087 0.50329173
0.042050458 -0.18346059 0.38384971
0.02691927 -0.2123812 0.3760016
-0.016096581 -0.1243086 0.52798498
-0.000421226 -0.1850173 0.49566841
0.1017848 -0.186922 0.4557893
0.005103603 -0.1741056 0.47246969
-0.054285359 -0.1713455 0.407756
0.092272647 -0.21833649 0.42758271
-0.028564161 -0.22082309 0.3808997
-0.093332857 -0.1891119 0.44685909
-0.043615978 -0.1807494 0.49042809
-0.02079438 -0.1588369 0.39676481
-0.087115757 -0.194875 0.41905901
-0.057444539 -0.1539319 0.4220044
-0.032663211 -0.1683674 0.39074251
0.01438031 -0.1670495 0.4570986
-0.045858029 -0.1548838 0.41911221
-0.20217121 -0.2865352 0.50061131
-0.066016942 -0.1365331 0.45134011
0.08422333 -0.1582256 0.44816059
0.051874779 -0.17295609 0.51745409
0.1018765 -0.2228553 0.54296541
0.093894944 -0.1698246 0.50268239
0.064837687 -0.1481254 0.4257108
0.055596109 -0.1758552 0.52197742
0.06465622 -0.1620167 0.44713521
0.054087371 -0.2151852 0.39340419
0.074623913 -0.1787446 0.50249428
0.080007821 -0.1838208 0.55721247
0.0437719 -0.1706237 0.44556859
0.0507733 -0.1704177 0.41927299
0.063448288 -0.27864709 0.4159404
-0.044868309 -0.16382059 0.51281118
-0.065860167 -0.172875 0.4885464
0.006835226 -0.185618 0.55105281
-0.05953186 -0.2230386 0.48754951
0.01156518 -0.1897869 0.54348332
0.02057622 -0.18668211 0.56210649
-0.044144001 -0.1733965 0.56922197
-0.017689981 -0.2100295 0.58674753
-0.0043025129 -0.1891212 0.4675177
0.02053456 -0.1986364 0.51723039
0.065150663 -0.15327729 0.52641767
0.02722873 -0.18815219 0.36819759
0.02601633 -0.1899602 0.36943161
0.095787153 -0.1739396 0.50966048
0.09943635 -0.2074111 0.47615269
0.1014921 -0.19586539 0.49835661
0.095762447 -0.1938486 0.51618558
-0.05635627 -0.1742381 0.4950926
-0.046064381 -0.16325369 0.51516593
-0.023012711 -0.1790297 0.45407361
-0.0053837299 -0.162469 0.53012699
0.00086660311 -0.16636071 0.54257983
-0.01788599 -0.1778208 0.56836373
-0.05881485 -0.17716271 0.50751263
0.063272238 -0.14765669 0.43406719
0.0583249 -0.161791 0.4152706
0.056629919 -0.17242169 0.51771188
0.02127018 -0.1651753 0.55413479
0.033892982 -0.1719857 0.55825561
0.064092293 -0.1802599 0.4004074
0.063934632 -0.1404552 0.41753131
-0.047425859 -0.1854068 0.50769073
0.01447183 -0.1682494 0.45932969
0.018747341 -0.193451 0.5449239
0.01025751 -0.1823283 0.52343762
0.0092055351 -0.186784 0.54078382
0.05221713 -0.1530447 0.42037839
0.01351048 -0.1665806 0.50430721
-0.035474058 -0.17352121 0.45977679
0.049548872 -0.1378682 0.4052746
0.09482725 -0.1479091 0.44851339
0.051946402 -0.2055158 0.38705921
-0.01332078 -0.1612023 0.57234073
-0.0061290641 -0.1549062 0.5548296
0.032146521 -0.20004299 0.54156852
-0.005821981 -0.1257942 0.50082582
-0.04378707 -0.1860107 0.5081687
-0.022166271 -0.165874 0.52380347
0.02419949 -0.18003771 0.54616588
0.078312837 -0.220337 0.3976737
0.031666718 -0.17712291 0.53399378
0.06549947 -0.1698748 0.52755541
-0.061407141 -0.1535172 0.51440698
0.017014731 -0.1880573 0.37998319
-0.087908722 -0.170782 0.49043721
-0.069219567 -0.16918769 0.46771899
-0.040999379 -0.1769421 0.48813251
-0.05160689 -0.18223891 0.43750101
0.031211769 -0.1785477 0.39204919
-0.05102057 -0.1875167 0.4428933
0.042050671 -0.1781676 0.42645171
0.02300027 -0.1663347 0.41857329
0.074991539 -0.27388829 0.42822719
-0.065207496 -0.1536887 0.52202111
0.023987619 -0.1939881 0.37208951
0.08447659 -0.1596783 0.44490349
0.001058626 -0.170065 0.54626
0.056355391 -0.1759392 0.52110642
0.058607992 -0.1554947 0.41054499
0.063256823 -0.1788789 0.39864171
0.079241328 -0.2229525 0.4142237
0.01212209 -0.18738639 0.54109162
0.01143126 -0.18373629 0.52191043
0.05363122 -0.15249979 0.42069179
0.053645991 -0.19865739 0.3807275
-0.01082939 -0.1752083 0.51749462
0.0265132 -0.1626699 0.3916139
0.030278619 -0.1692989 0.52583653
0.082080796 -0.20282011 0.38453251
0.065645114 -0.1677274 0.41060981
0.01402349 -0.1903991 0.49566919
0.045496412 -0.14941519 0.42792061
0.099671111 -0.1956954 0.46434951
-0.0052762479 -0.1956733 0.53888369
0.02827972 -0.2528567 0.3901127
0.033709511 -0.1853736 0.38895279
-0.047538958 -0.14740179 0.54504418
-0.00375562 -0.18007091 0.54767579
0.075975128 -0.1689378 0.49151579
0.039228261 -0.20537829 0.37889531
0.061874181 -0.1496598 0.44967279
0.071893297 -0.170375 0.52663553
0.082696393 -0.1569048 0.47290209
0.02866867 -0.19383921 0.55721402
-0.028180759 -0.2533046 0.59513289
0.01147434 -0.1914368 0.55732572
0.038793951 -0.2279893 0.39772671
0.037220851 -0.1726497 0.47950181
-0.1237645 -0.2994011 0.4925338
