# .PCD v0.7 - Point Cloud Data file format
VERSION 0.7
FIELDS x y z normal_x normal_y normal_z curvature
SIZE 4 4 4 4 4 4 4
TYPE F F F F F F F
COUNT 1 1 1 1 1 1 1
WIDTH 584
HEIGHT 1
VIEWPOINT 0 0 0 1 0 0 0
POINTS 584
DATA ascii
-0.004481025 -0.30996749 0.52393687 -0.086393446 -0.98690689 0.13620204 0.054555725
0.007454413 -0.30996749 0.52398002 -0.069641188 -0.98897427 0.13069038 0.04431954
0.013325256 -0.30996749 0.52365541 -0.064461336 -0.99045962 0.12179674 0.040990043
0.023834193 -0.30996749 0.52272338 -0.051210195 -0.99489981 0.086901486 0.032544229
0.034815814 -0.30996749 0.52487153 -0.022077108 -0.99804133 0.058532622 0.026722182
0.048325978 -0.30996749 0.52711821 -0.01046274 -0.99940789 0.032776568 0.01994212
0.055483419 -0.30996749 0.52373493 -0.0053879381 -0.99992675 0.010846062 0.0062571988
0.064959876 -0.30996749 0.52620649 -0.0075492524 -0.99991548 0.010591645 0.0073950603
0.075361796 -0.30996749 0.52394819 -0.0004372604 -0.99999988 6.6796834e-05 7.5105054e-05
0.084057137 -0.30996749 0.5220722 -0.00018344156 -0.99999994 -9.9163153e-05 8.7446344e-05
0.093150482 -0.30996749 0.5250532 -0.00019849052 -1 -0.00016802603 9.7569231e-05
-0.1741513 -0.30978745 0.53091544 -0.013972688 -0.99976629 -0.016496252 0.0022177789
-0.17050743 -0.31011593 0.53593874 -0.0016052057 -0.99979216 -0.02032312 0.0045410446
-0.13245605 -0.31329831 0.5307197 0.27250049 -0.94972801 -0.1541438 0.071017422
-0.12937631 -0.31345898 0.531901 0.26380226 -0.95045328 -0.16445926 0.070637278
-0.10257749 -0.31509647 0.53435844 0.22156182 -0.96266079 -0.15554564 0.080424316
-0.092199303 -0.31278253 0.53485954 0.23900528 -0.95920384 -0.15101126 0.096903071
-0.084328525 -0.31083071 0.53508359 0.233114 -0.96276546 -0.13689615 0.09868069
-0.073170044 -0.31009689 0.5358842 0.19295618 -0.9729895 -0.12672529 0.10899257
-0.064267121 -0.30963871 0.53568709 0.13216357 -0.98512769 -0.10980062 0.10970653
-0.055721663 -0.31003141 0.53543997 0.086853683 -0.99139321 -0.097958744 0.1144509
-0.043618798 -0.30987889 0.53870058 -0.0040764855 -0.99950236 -0.031280924 0.10315391
-0.023209214 -0.30976257 0.53606677 -0.022530131 -0.99970669 0.0088840239 0.088271938
-0.014216593 -0.30988571 0.53423297 -0.040804882 -0.99783885 0.051502168 0.078420565
-0.0030808107 -0.30991709 0.53609622 -0.056943703 -0.99335152 0.10005036 0.068097852
0.006597321 -0.30996749 0.53630346 -0.069308594 -0.98755318 0.14119147 0.058361102
0.01652639 -0.30996749 0.53775817 -0.076820575 -0.98558891 0.15070803 0.056102902
0.024421563 -0.30996749 0.53760314 -0.069968663 -0.98858947 0.1333988 0.052397937
0.033637352 -0.30996749 0.53670365 -0.055252738 -0.9930256 0.10415034 0.04486043
0.045603156 -0.30996749 0.53441089 -0.012193935 -0.99871916 0.049106199 0.029934483
0.053366404 -0.30996749 0.53324592 -0.013640283 -0.99922675 0.036875464 0.024279248
0.065753452 -0.30996749 0.53434843 -0.0078910468 -0.99990702 0.011120692 0.0082949158
0.074410588 -0.30996749 0.53506064 -0.011992571 -0.99987715 0.010093343 0.0098201884
0.082933731 -0.30996749 0.5344826 -0.00035221642 -0.99999988 -9.1993943e-06 8.2190207e-05
-0.14689568 -0.31282413 0.54389811 0.097852118 -0.99223155 -0.076821901 0.014423287
-0.13547264 -0.31306374 0.54501069 0.20616968 -0.97132671 -0.11839998 0.038829546
-0.12261429 -0.31389934 0.54509133 0.22325952 -0.962493 -0.15415047 0.060452878
-0.10647212 -0.31512827 0.54480678 0.24026251 -0.95419616 -0.178279 0.079695269
-0.094638079 -0.31430721 0.54321873 0.24514252 -0.95600212 -0.16113693 0.08566872
-0.085443892 -0.31276655 0.54385155 0.24167605 -0.95806539 -0.15395896 0.096637018
-0.074156232 -0.31153074 0.544842 0.19791599 -0.9690395 -0.14762013 0.10099924
-0.064270258 -0.31090376 0.54611868 0.14842431 -0.97708744 -0.15254615 0.11267897
-0.054893255 -0.31044096 0.54588723 0.07922902 -0.98868275 -0.12739393 0.10961427
-0.045613207 -0.31001717 0.5454728 0.038326733 -0.99738389 -0.061289638 0.099746048
-0.035976186 -0.3096599 0.54644287 0.014730402 -0.99979818 -0.013662264 0.11004163
-0.023726193 -0.30950275 0.54358053 -0.021753788 -0.99967617 0.013203867 0.095429279
-0.015585026 -0.30944812 0.54528946 -0.012764691 -0.99848354 0.053551085 0.090455875
-0.0022197173 -0.3097018 0.54559714 -0.048044134 -0.99432266 0.09494292 0.077659674
0.0040907506 -0.30988365 0.54437041 -0.068110108 -0.99087465 0.11631177 0.067763649
0.0149265 -0.30996749 0.54410565 -0.07216654 -0.98455316 0.15952136 0.062926985
0.025095394 -0.30996749 0.54531944 -0.090474106 -0.98206979 0.1653887 0.061953884
0.035663635 -0.30996749 0.54570448 -0.070401743 -0.98906225 0.12961283 0.056561865
0.044898178 -0.30996749 0.54576498 -0.020621095 -0.99567163 0.090623952 0.047800094
0.054828197 -0.30996749 0.54547262 -0.018257093 -0.99816191 0.057787444 0.038946167
0.06724783 -0.30996749 0.54431933 -0.010149883 -0.99988884 0.010926085 0.010256911
0.075629793 -0.30996749 0.5453189 -0.014094234 -0.99983913 0.011091642 0.012274689
0.082504094 -0.30996749 0.54334837 -0.00088077725 -0.99999958 -7.0993947e-06 8.489882e-05
0.1018765 -0.30996749 0.54296541 -0.00023402646 -0.99999994 -0.00020998587 0.00011103335
-0.15793656 -0.31291744 0.55181277 0.0052281441 -0.99970937 -0.023536557 0.004645512
-0.14475523 -0.31294346 0.55329382 0.038777135 -0.99829847 -0.043550473 0.0058214827
-0.12653317 -0.31330517 0.55588251 0.19706927 -0.97111261 -0.13455121 0.041797526
-0.094160408 -0.31497183 0.55565661 0.24100013 -0.95440221 -0.17616846 0.07981398
-0.083222903 -0.31379214 0.55606437 0.24341735 -0.95416409 -0.17412318 0.091192931
-0.074611276 -0.3126376 0.55545616 0.20565113 -0.96417361 -0.16756116 0.098766543
-0.065860696 -0.31181422 0.55508238 0.15962043 -0.97951168 -0.12279335 0.095077872
-0.053065475 -0.31065604 0.55423295 0.084246404 -0.99127227 -0.10139941 0.097329296
-0.045497004 -0.31015423 0.5551675 0.065274194 -0.99458772 -0.080837369 0.1104354
-0.033185549 -0.30835763 0.55639803 0.041513875 -0.99912208 0.005635641 0.12703711
-0.024675569 -0.30857939 0.55492401 0.00038257748 -0.99919772 0.040046491 0.1224705
-0.015846692 -0.30875787 0.55619234 0.011247723 -0.99597418 0.088931702 0.11633281
-0.0055613951 -0.30935377 0.55595481 -0.01148417 -0.99605507 0.087991543 0.097552121
0.0049918871 -0.30957571 0.55574554 -0.032020144 -0.989631 0.14001803 0.079606742
0.013686452 -0.30985942 0.55772233 -0.043140981 -0.98424405 0.17147157 0.084039055
0.023140902 -0.30990511 0.55570376 -0.086461782 -0.97276443 0.21506685 0.077506632
0.034665659 -0.30996749 0.55491638 -0.086953834 -0.97939605 0.18227059 0.074749537
0.043709256 -0.30996749 0.55763841 -0.040945299 -0.99206781 0.11884841 0.062510774
0.056096509 -0.30996749 0.55507249 -0.023079617 -0.99573094 0.089370757 0.060559254
0.061300322 -0.30996749 0.55318266 -0.026610073 -0.99795693 0.058084354 0.046483502
0.076727003 -0.30996749 0.55591637 -0.017935634 -0.99979603 0.0092767132 0.015341962
0.080007821 -0.30996749 0.55721247 -0.020180078 -0.99974769 0.0098690595 0.016082056
-0.14868809 -0.31264564 0.56569195 0.006820403 -0.99970061 -0.023500565 0.0042364039
-0.12023335 -0.31335118 0.56228685 0.1853105 -0.97025096 -0.15579827 0.04204702
-0.12042197 -0.31321865 0.56711745 0.17283814 -0.97320062 -0.15168178 0.040026311
-0.083574243 -0.31433359 0.56599259 0.22818068 -0.96082389 -0.15732473 0.081090741
-0.074464932 -0.31344634 0.56578839 0.21556649 -0.9662376 -0.1411238 0.086480349
-0.065000571 -0.31214604 0.56586277 0.16846353 -0.97544605 -0.14186281 0.093675412
-0.058011122 -0.31154847 0.56448388 0.13466337 -0.98082244 -0.14090125 0.10065939
-0.045154579 -0.3096914 0.56617916 0.098976761 -0.98985535 -0.10193139 0.12472982
-0.036255691 -0.30855533 0.56512654 0.087921545 -0.99577254 -0.026588276 0.14106315
-0.027287811 -0.30818123 0.56317717 0.019470869 -0.99922168 0.034305219 0.1444733
-0.015004098 -0.30868331 0.56485534 0.017240582 -0.99419302 0.10622106 0.13421471
-0.0045049237 -0.30933401 0.56539905 -0.0051542814 -0.99595642 0.089689478 0.10155586
0.0067778169 -0.30952823 0.56668442 -0.010746214 -0.98699003 0.16042192 0.094640493
0.014079173 -0.30978715 0.56557691 -0.045618795 -0.98194897 0.18356231 0.096763588
0.024213586 -0.30991259 0.56507146 -0.075037457 -0.97633457 0.20283018 0.089991234
0.033485051 -0.30996749 0.5659532 -0.088736162 -0.97134548 0.22048564 0.087622873
0.04877454 -0.30996749 0.5617528 -0.029555073 -0.99287027 0.11547779 0.066422157
0.060668621 -0.30996749 0.56533277 -0.031320732 -0.9969703 0.071198367 0.061010305
0.074321717 -0.30996749 0.56628788 -0.018061901 -0.99977791 0.010858902 0.018280677
0.083255917 -0.30996749 0.56662416 -0.001476387 -0.99999893 -0.00013130544 7.537847e-05
-0.11788978 -0.31363589 0.57852834 0.12391684 -0.98533064 -0.11733731 0.033009075
-0.11362464 -0.3132847 0.57816005 0.15768515 -0.97661477 -0.14614756 0.042669468
-0.09932626 -0.31409112 0.57413924 0.25367713 -0.94965702 -0.1838465 0.069826819
-0.08320272 -0.31421331 0.57263935 0.24073462 -0.95440865 -0.17649634 0.086638585
-0.074284606 -0.3134973 0.57580364 0.22456028 -0.95404202 -0.19843507 0.095889054
-0.065284722 -0.31267092 0.57376647 0.18715627 -0.96697259 -0.17302197 0.10589118
-0.051237866 -0.31132162 0.57154644 0.12023684 -0.98410517 -0.1306912 0.1102491
-0.045338217 -0.31111369 0.57215172 0.098399922 -0.98697537 -0.12726782 0.11825399
-0.035072327 -0.31014928 0.57399601 0.097680636 -0.99332571 -0.06134041 0.1435135
-0.022778008 -0.30928144 0.57510018 0.047378682 -0.99874067 -0.01650073 0.15288664
-0.015183297 -0.30953592 0.57552379 0.029846089 -0.99900734 0.033069592 0.13640477
-0.0077788872 -0.30947611 0.57415879 0.020292144 -0.99870771 0.046596475 0.11900145
0.0053445739 -0.30965167 0.57471889 -0.0032494962 -0.98658627 0.16320837 0.099609911
0.015274754 -0.30985674 0.57466507 -0.040680114 -0.97492325 0.21879165 0.10726947
0.023355899 -0.3099089 0.57442504 -0.028970363 -0.97121167 0.23645018 0.10610553
0.034650397 -0.30996749 0.57667583 -0.096921302 -0.95211744 0.28996333 0.10257954
0.043918639 -0.30996749 0.57194465 -0.017568883 -0.98005658 0.19794068 0.08860632
0.069497541 -0.30996749 0.57262057 -0.031453524 -0.99908507 0.028978072 0.041122641
0.078109175 -0.30996749 0.57578623 -0.033530969 -0.99943608 0.0017725613 0.02392602
-0.1398281 -0.31237164 0.57928252 -0.0027125573 -0.99995786 -0.0087706437 0.0012676551
-0.1232046 -0.31377739 0.58759141 0.014248726 -0.9996739 -0.021187307 0.002159039
-0.115341 -0.31351182 0.58627641 0.11457966 -0.98621053 -0.11941682 0.030259497
-0.083862387 -0.31304184 0.58323699 0.26251224 -0.94225103 -0.20796739 0.093073465
-0.071004182 -0.31299433 0.58335501 0.21819468 -0.95615339 -0.19535011 0.1109526
-0.065784872 -0.31325373 0.58328557 0.21306449 -0.96073073 -0.17776349 0.11726224
-0.050886817 -0.3128098 0.58747154 0.15059608 -0.96814936 -0.20001917 0.12077373
-0.03525997 -0.31098586 0.58041167 0.074432597 -0.98271298 -0.16951382 0.13876414
-0.02228263 -0.30995375 0.58223593 0.05259192 -0.98726207 -0.15015934 0.15656778
-0.017543463 -0.30989349 0.5833329 0.024554435 -0.99138159 -0.1286847 0.13385051
-0.0075474451 -0.31007189 0.58410513 0.075050399 -0.97861594 0.19151585 0.12664552
0.003772696 -0.31011122 0.58493042 0.035217058 -0.95943952 0.2797063 0.13151088
0.016220143 -0.310022 0.58339375 -0.03609477 -0.96316934 0.26646188 0.12105141
0.024229849 -0.30996749 0.58164793 -0.030848982 -0.96619064 0.25597677 0.11466299
0.039972391 -0.30996749 0.58265322 -0.018108079 -0.96069098 0.27702883 0.10557924
-0.11429107 -0.31344733 0.5904246 0.092029393 -0.99101877 -0.097017139 0.025283748
-0.10687295 -0.31230366 0.59433186 0.11309022 -0.98582149 -0.12396203 0.034027286
-0.053001307 -0.3133029 0.59093803 0.16724536 -0.95594442 -0.24124515 0.11732484
-0.049705237 -0.3130309 0.58992559 0.1410248 -0.95558244 -0.25879362 0.11495429
-0.027780226 -0.30996943 0.59481221 0.085541829 -0.8824535 -0.46255645 0.13272357
0.02859406 -0.30996749 0.59954458 0.079194799 -0.51170272 0.85550475 0.12903357
0.040254928 -0.30996749 0.59427178 0.082358718 -0.79206467 0.6048559 0.13631564
0.10045074 -0.19834539 0.45674527 0.8906185 0.44572482 -0.090155803 0.069942452
-0.0092423698 -0.14123689 0.53098428 0.065236762 0.99625415 0.056761526 0.059169915
0.088227302 -0.17502794 0.48640716 0.27018023 0.95834839 0.092579752 0.082794964
0.078842439 -0.1522931 0.55858302 0.38004091 0.81351823 0.44017839 0.095420919
0.069497541 -0.1512261 0.57262057 0.42167726 0.71157849 0.56200033 0.086460046
0.069610357 -0.16049457 0.44684711 0.26661685 0.96324581 -0.032755472 0.071957685
0.067732267 -0.18367574 0.43392846 0.40392753 0.89527982 -0.18792714 0.10835385
0.023452621 -0.18978937 0.4023906 0.14110494 0.72064549 -0.67879266 0.12624261
0.016289178 -0.18463419 0.41201407 0.03878127 0.89181072 -0.45074338 0.11947149
0.039819375 -0.18780835 0.59270024 0.35345605 0.46810478 0.80990535 0.11630038
0.0030040957 -0.18481736 0.41511655 -0.092014037 0.90647757 -0.41210663 0.11296733
-0.004451253 -0.15537815 0.39541572 -0.10340033 0.89767045 -0.42836457 0.074313015
0.009135318 -0.15727162 0.40853131 -0.029238487 0.95916086 -0.28134581 0.07950756
0.034005001 -0.17237848 0.43030232 0.093205325 0.98458439 -0.14800785 0.088671722
0.074501581 -0.21245706 0.42982745 0.88124084 0.18158261 -0.43639696 0.10665546
0.092794597 -0.18331349 0.47788993 0.63614893 0.76984304 0.051537428 0.090312101
0.056200031 -0.15485683 0.45193318 0.10396459 0.99390936 0.036545087 0.053993512
0.098397993 -0.18794291 0.45910662 0.85299075 0.51748556 -0.067937955 0.068013251
0.039180666 -0.15921023 0.42543009 0.11106937 0.98338455 -0.14359087 0.082151622
0.070331581 -0.19952787 0.4294008 0.78740466 0.4325262 -0.43922099 0.12812027
0.022871522 -0.16144694 0.43137565 -0.0056034271 0.99639767 -0.08461839 0.063405313
0.077141903 -0.15817811 0.56381899 0.41917661 0.74660742 0.51659304 0.093443237
-0.02007214 -0.15254232 0.43870485 -0.14349544 0.98465723 -0.099293329 0.047457658
0.094938777 -0.18463914 0.47774827 0.70125943 0.71109945 0.050722271 0.090624794
-0.070703618 -0.16174869 0.44805592 -0.46252581 0.87116265 -0.16475861 0.063983053
0.00051978836 -0.15532909 0.42520568 -0.063108213 0.98960227 -0.1292468 0.057296187
0.028068719 -0.18969475 0.59969288 0.26535717 0.34528899 0.90020061 0.12690192
-0.019544333 -0.19473363 0.41391805 -0.33240378 0.69240469 -0.64037764 0.13716373
-0.056354266 -0.13969351 0.51774424 -0.17238075 0.98388422 0.047505055 0.072776705
-0.053311381 -0.14871082 0.5348525 -0.21567836 0.95603859 0.19867836 0.08983589
0.070219465 -0.28631827 0.43292084 0.46463153 -0.7519654 -0.4676168 0.1625586
0.011632704 -0.16380873 0.57112586 0.12980904 0.94285178 0.30688772 0.09944047
0.02667826 -0.249338 0.40751779 0.23774776 -0.17913477 -0.95466578 0.060218811
-0.052005164 -0.17502114 0.403761 -0.48753786 0.69566029 -0.52760178 0.092745207
-0.011212392 -0.1622778 0.5663709 0.014801713 0.95505887 0.29604653 0.099032171
-0.057541162 -0.26887164 0.42888036 -0.74382877 -0.2023703 -0.63699687 0.10594692
-0.012471084 -0.16266467 0.56643796 -0.00098213146 0.94814605 0.31783342 0.10000669
0.043533087 -0.14867419 0.41550171 0.16225193 0.95785505 -0.23704013 0.08689215
-0.0089061018 -0.17079006 0.47913262 0.099055313 0.99507982 0.0020408505 0.03650064
-0.07458128 -0.29521585 0.42885992 -0.78902787 -0.1785657 -0.58783448 0.17003474
0.083151214 -0.19893143 0.40248829 0.74828893 0.26086622 -0.60992825 0.085916676
-0.044592127 -0.12768644 0.52288198 -0.075280525 0.99619609 0.043887805 0.075965174
-0.044608161 -0.3051022 0.40471792 -0.40828869 -0.53638095 -0.7386446 0.14092895
0.00055789849 -0.15525255 0.57220942 0.084600404 0.96351647 0.2539266 0.095223837
0.022219598 -0.15535659 0.55616194 0.12271076 0.96797395 0.21901721 0.081186324
-0.021669159 -0.1412885 0.54615319 -0.005626685 0.985704 0.16839238 0.078844264
0.10092213 -0.15447648 0.49668056 0.53122187 0.83694893 0.13160497 0.083018966
-0.039010338 -0.16441913 0.52283335 -0.15858491 0.97492647 0.15610646 0.082504988
-0.00973377 -0.14306864 0.54537463 0.049757224 0.99166894 0.1188146 0.071432941
-0.042373303 -0.14013381 0.53631723 -0.096077986 0.98391259 0.15061603 0.080931306
0.034536567 -0.28721187 0.39198926 0.248492 -0.42550668 -0.87017 0.11970115
0.092220701 -0.25418901 0.45415559 0.9931885 -0.085261784 -0.079417028 0.058624104
0.063721634 -0.14966077 0.42444861 0.30988994 0.92805761 -0.20658512 0.094979934
0.094536044 -0.17575021 0.46164489 0.6917454 0.72143865 -0.031851117 0.072894819
0.081045225 -0.20476979 0.39720583 0.72475386 0.19824509 -0.6598717 0.073094726
-0.056868795 -0.15702726 0.5266766 -0.26088756 0.9464913 0.18997867 0.08835078
0.075798362 -0.19213597 0.39440382 0.63964742 0.3499147 -0.68440551 0.083119914
-0.053211045 -0.1496028 0.53839624 -0.23802337 0.9399026 0.24480192 0.092074148
0.086345792 -0.2090286 0.40425137 0.78238362 0.17341518 -0.59816635 0.075134426
0.079991803 -0.267239 0.42085022 0.70292342 -0.29666737 -0.64644194 0.086180538
0.094496652 -0.17649467 0.46042377 0.74130434 0.66965032 -0.045126952 0.071235277
0.071076155 -0.20278285 0.38826323 0.6104514 0.27752545 -0.74184144 0.077702746
-0.042265445 -0.16498627 0.47338718 -0.20150316 0.97796857 -0.054534011 0.055256445
-0.061943293 -0.15616873 0.51517123 -0.27666 0.95335865 0.12069183 0.085595235
-0.06121492 -0.1579062 0.51547843 -0.26720053 0.95605952 0.12064013 0.086480215
0.062498383 -0.15419294 0.41850746 0.32734764 0.90297633 -0.27834758 0.10132886
-0.056777738 -0.13951401 0.52359843 -0.17638369 0.98116726 0.078736641 0.076155692
0.034463268 -0.27710533 0.39077356 0.25147063 -0.29817256 -0.92079073 0.091008455
-0.018521709 -0.18749064 0.53508407 -0.076833971 0.96301514 0.25826034 0.10185855
-0.0033273243 -0.30905497 0.38354564 -0.1210491 -0.57045299 -0.812361 0.12355834
0.052954275 -0.15447187 0.40935206 0.27420548 0.90161389 -0.33452001 0.099931613
0.0091570858 -0.16094138 0.38871557 -0.0097071165 0.80071813 -0.59896266 0.085434318
-0.031547312 -0.16267438 0.3968392 -0.28063759 0.82166016 -0.49610198 0.084994495
-0.044770326 -0.14835468 0.54175645 -0.13923472 0.96269041 0.23203628 0.086742654
-0.10538808 -0.31548312 0.4733687 0.28286186 -0.95908767 0.011829469 0.11628525
-0.069640651 -0.23814163 0.41278592 -0.7227385 0.0065387385 -0.69109058 0.02645853
-0.049737439 -0.26297092 0.40272003 -0.57648396 -0.12807016 -0.80700946 0.059495144
-0.10631184 -0.3142845 0.51642638 0.26410985 -0.95746702 -0.11620142 0.086532041
-0.10656331 -0.31464908 0.48022425 0.31019667 -0.95051819 -0.017120546 0.11706492
0.071223982 -0.16002181 0.51689917 0.1179742 0.98779446 0.1017064 0.066420339
-0.016198929 -0.30895695 0.38681188 -0.14668982 -0.57214755 -0.80692583 0.12331969
-0.024634266 -0.2819123 0.38705033 -0.2778714 -0.22424372 -0.93407828 0.088550121
-0.10034778 -0.31119466 0.48428419 0.27844074 -0.9600141 -0.029047374 0.12766014
-0.085193053 -0.29586619 0.45024386 0.51323998 -0.84078872 0.17221805 0.18744472
0.013350254 -0.16564132 0.50166607 0.074455641 0.99722433 -9.303868e-06 0.040604945
0.012274845 -0.18609336 0.54602396 0.091083162 0.97709525 0.19232461 0.090700097
-0.049511198 -0.16900806 0.40594018 -0.42307943 0.77991354 -0.46123603 0.086465046
0.054282576 -0.14910896 0.41704789 0.25471136 0.93045044 -0.26340845 0.098972537
0.031756077 -0.16670971 0.50132817 0.051353432 0.99784899 0.04074705 0.048852347
-0.079560667 -0.1813083 0.43089536 -0.68914479 0.64835733 -0.32359275 0.084719248
-0.084575213 -0.31448865 0.56520194 0.22951712 -0.96180379 -0.14918236 0.08068426
-0.088232189 -0.25528723 0.45773706 -0.95897955 0.0027984183 -0.28346118 0.066017941
-0.098918863 -0.31496832 0.54152578 0.23075059 -0.96008772 -0.15806869 0.082633466
-0.10328192 -0.31477767 0.52925783 0.2165844 -0.96910918 -0.11797695 0.076587968
-0.094039313 -0.31312034 0.53489184 0.23806484 -0.95932525 -0.15172398 0.09461429
-0.088645749 -0.29846036 0.4718824 0.40201434 -0.9154247 0.019548589 0.17000957
-0.13892876 -0.31241095 0.48323518 0.31791395 -0.94778645 -0.025132356 0.080877379
0.0069862008 -0.16607636 0.38607699 -0.02233948 0.75386846 -0.6566456 0.087713875
0.0062171631 -0.16488293 0.51098198 0.080875926 0.99645376 0.023217445 0.042452015
-0.075275838 -0.18425997 0.42014766 -0.67245108 0.61150986 -0.41697147 0.08636418
-0.082095191 -0.16981195 0.5187043 -0.60580474 0.77383518 0.18487775 0.10186541
-0.10631626 -0.31391245 0.46687475 0.30508912 -0.95168447 0.034888361 0.11472483
-0.14848733 -0.31238136 0.51637185 0.18708359 -0.98047245 -0.060610715 0.034983966
-0.10569961 -0.31483713 0.53900427 0.23539276 -0.95667112 -0.17137854 0.079713896
-0.0036262567 -0.16987722 0.48891354 0.11083114 0.99327052 -0.033616908 0.034769643
-0.060882781 -0.17132539 0.414197 -0.54446232 0.72705632 -0.41827008 0.089218482
-0.066369511 -0.31314719 0.57939798 0.20248051 -0.95978814 -0.19444394 0.11260363
-0.089736916 -0.20324968 0.43465462 -0.87732977 0.29117143 -0.38145992 0.078485169
-0.021773949 -0.17404287 0.47492021 -0.0055616964 0.99993914 -0.0095261782 0.041516639
-0.004417134 -0.16307841 0.52487153 0.036234435 0.99617183 0.079554521 0.051068813
-0.019804798 -0.27237263 0.385481 -0.26831922 -0.19299892 -0.94379884 0.068999678
-0.072531424 -0.19581898 0.40992773 -0.72602153 0.34413937 -0.59536624 0.079760022
-0.077169418 -0.24086174 0.41939002 -0.7825377 0.0041297777 -0.62258947 0.02841411
-0.10637026 -0.31238335 0.49599564 0.28152001 -0.95455265 -0.097855285 0.11708456
-0.12090876 -0.31337929 0.56245047 0.17946607 -0.97169757 -0.15360919 0.038861673
-0.14018244 -0.31303397 0.51155013 0.26107079 -0.96337664 -0.061217349 0.065735437
-0.063529007 -0.15892777 0.43963009 -0.40663797 0.89673764 -0.1746632 0.065623999
0.026281191 -0.16474812 0.48362133 0.0080765812 0.99349409 0.11359719 0.038570192
-0.066897847 -0.16167605 0.43677077 -0.44099525 0.87666023 -0.19232811 0.069372781
-0.004874975 -0.18910544 0.37720215 -0.12862922 0.4242571 -0.89635956 0.086443931
-0.024472101 -0.30616006 0.38177568 -0.21692836 -0.40366563 -0.88881725 0.11088681
-0.058835629 -0.16057035 0.46068084 -0.3444978 0.93219239 -0.11107945 0.061640188
-0.027602969 -0.14840741 0.5506447 -0.05035127 0.97468102 0.21785726 0.081673384
-0.096259676 -0.22763552 0.49499202 -0.98826671 0.10769118 0.10831188 0.047978044
-0.14370762 -0.31252962 0.5225572 0.20263647 -0.97448361 -0.096540429 0.045876771
-0.13240527 -0.31351668 0.51904637 0.27490011 -0.95813721 -0.080019303 0.067444056
-0.14245492 -0.31197909 0.48472017 0.29035643 -0.95644659 -0.030051516 0.070880041
-0.091374315 -0.25107035 0.46935374 -0.98132288 0.016389815 -0.19166811 0.06763722
-0.13156478 -0.31294414 0.50867116 0.29506761 -0.95237237 -0.076953158 0.075230218
-0.052901246 -0.1604227 0.41898161 -0.34871233 0.90278453 -0.25175366 0.073318943
-0.13687123 -0.31299773 0.54430705 0.20117407 -0.97261083 -0.11643436 0.038268771
-0.13321538 -0.31317782 0.54589456 0.2016494 -0.97209102 -0.11990235 0.040407222
0.038983963 -0.15864645 0.54898918 0.14829025 0.97036135 0.19081077 0.078363433
0.00014926233 -0.16994219 0.52617598 0.060048472 0.99538141 0.074899308 0.051526703
-0.081029125 -0.31126034 0.41073069 -0.64918745 0.076367803 -0.75678509 0.16944166
-0.087253533 -0.28364149 0.49251568 0.68875903 -0.71728778 -0.10540037 0.2145981
-0.087660179 -0.30387518 0.50253958 0.28482378 -0.94893706 -0.13562402 0.1443999
-0.13276301 -0.31289983 0.49799803 0.316825 -0.94674653 -0.05738432 0.090832174
-0.13566774 -0.31264651 0.4925397 0.33864483 -0.93995392 -0.042500395 0.090747759
-0.14069137 -0.30470699 0.5806784 -0.0084836977 -0.99995959 -0.002957867 0.0011769643
-0.10754047 -0.31215131 0.50431037 0.27843827 -0.95338941 -0.11627875 0.10237852
-0.11279442 -0.31343251 0.44169977 0.29875833 -0.94957209 0.095165074 0.084426604
-0.07899496 -0.16719419 0.45099059 -0.56377327 0.80789101 -0.17167367 0.07249222
-0.078927137 -0.16722965 0.45062488 -0.5656991 0.80615199 -0.1735038 0.072260231
-0.039780751 -0.17693278 0.39349508 -0.38874418 0.62351125 -0.67831534 0.092550568
-0.073744513 -0.20309766 0.41011593 -0.75124526 0.24409023 -0.61322957 0.064832792
-0.1356397 -0.3132236 0.52445024 0.27215302 -0.95519638 -0.11632962 0.068844706
0.022821769 -0.15443291 0.41236019 0.02815539 0.96405566 -0.26420465 0.081096232
-0.012202504 -0.16717303 0.45111987 -0.086843833 0.99559182 -0.035427101 0.040271495
0.0093236687 -0.16540046 0.49477246 0.073867545 0.99713105 -0.016530909 0.038084675
0.058182247 -0.1482856 0.42731738 0.23006868 0.96235794 -0.14469157 0.090029456
-0.065125905 -0.17161664 0.41878372 -0.57133442 0.72808212 -0.37877876 0.084261708
-0.087327018 -0.2972039 0.50509983 0.3646116 -0.91767442 -0.15789898 0.1598642
-0.064576171 -0.21792941 0.401113 -0.67814064 0.1025428 -0.72774327 0.041120823
-0.057480142 -0.19881102 0.39737633 -0.59688348 0.28734151 -0.74910945 0.077395156
-0.016713522 -0.3072027 0.37794119 -0.17800942 -0.38229248 -0.90673321 0.11305733
-0.030347845 -0.23582441 0.39021134 -0.3880108 0.012134781 -0.92157495 0.02513019
0.047284562 -0.17269118 0.46787739 0.058062598 0.99419463 0.090586409 0.045828763
-0.024739027 -0.25981912 0.38553804 -0.30656871 -0.13227071 -0.94261342 0.039353132
-0.0763098 -0.31049958 0.39431885 -0.59463114 0.042143688 -0.80289334 0.11994227
0.074707948 -0.1713503 0.46948308 0.22153635 0.97248459 0.072079442 0.068949625
-0.064289212 -0.21752258 0.40074986 -0.67566878 0.10531265 -0.72964436 0.041199695
-0.018832363 -0.15646054 0.56072295 -0.032118957 0.96333474 0.2663731 0.085952178
-0.020309363 -0.17070153 0.49110711 0.0034102374 0.99998516 -0.0042327046 0.044684388
-0.017504446 -0.17200901 0.48381612 0.028117254 0.99948609 -0.015393561 0.041309088
-0.06124945 -0.31259438 0.57549435 0.17009634 -0.96911824 -0.1785412 0.114245
0.055508718 -0.17912054 0.54652208 0.14422923 0.97375315 0.17607565 0.084069885
0.019756991 -0.26053017 0.56151867 0.15574037 -0.12045578 0.98042613 0.083920822
-0.062929235 -0.15972486 0.5035668 -0.28799531 0.9566558 0.043226056 0.082954034
-0.033974487 -0.17389624 0.4755694 -0.14746054 0.98810047 -0.04373664 0.057797626
0.070520692 -0.15422609 0.52275896 0.12085069 0.98774648 0.098751679 0.066832945
0.090117082 -0.18657155 0.51263249 0.24399185 0.95783567 0.15171929 0.092991114
0.087157227 -0.17307037 0.51105684 0.19465625 0.97073418 0.14065576 0.082525656
0.074405462 -0.15718278 0.51597393 0.12090527 0.98666972 0.10892535 0.06862247
0.079710104 -0.20117192 0.53972828 0.27179247 0.91717774 0.2913999 0.12066717
-0.036746364 -0.21075639 0.57154965 -0.31110284 0.24737395 0.91761708 0.09151613
-0.05572379 -0.16385685 0.48639676 -0.269568 0.96256089 -0.028453542 0.070942514
-0.039265063 -0.17695875 0.56890875 -0.23146039 0.80792737 0.54192197 0.1045263
-0.059572209 -0.152293 0.52500707 -0.25611299 0.95299894 0.16186139 0.083097525
0.027870733 -0.18342072 0.56694406 0.19499671 0.8713491 0.45025215 0.11063817
0.0078714052 -0.15708277 0.56323254 0.083634436 0.9711116 0.22348954 0.084632687
0.022980578 -0.19554676 0.5748868 0.24083543 0.79217744 0.56076133 0.14030658
0.041386385 -0.14910106 0.41634884 0.14589928 0.96274626 -0.2276686 0.084411487
0.051718559 -0.15046683 0.41248047 0.24458984 0.92255634 -0.29843864 0.10012792
0.087214909 -0.16672416 0.47475439 0.33650944 0.93788725 0.084432796 0.068261907
-0.070909455 -0.1577526 0.50645357 -0.37562045 0.92447066 0.065293364 0.091243125
-0.012582084 -0.14120018 0.4337368 -0.11719844 0.98967248 -0.082540356 0.042433582
-0.05569024 -0.15912463 0.42609122 -0.34107232 0.91643989 -0.20930269 0.0639541
-0.049159959 -0.16603549 0.51058733 -0.20694068 0.9718551 0.1125752 0.079517215
0.067067072 -0.16400145 0.50797528 0.089393519 0.99103898 0.099250406 0.061253708
0.076449282 -0.17986216 0.52749228 0.13726003 0.98347104 0.11808675 0.081274837
0.0029289972 -0.1689456 0.46799797 0.0019154113 0.9927839 0.11990253 0.02553596
0.085504286 -0.27609479 0.42928687 0.78145164 -0.34255248 -0.52152777 0.11436801
0.097230218 -0.18641171 0.45512122 0.84727067 0.52345246 -0.090165362 0.069162332
0.082154348 -0.18751533 0.52213913 0.14078768 0.98066628 0.13591363 0.090572417
-0.025522413 -0.20961834 0.58330464 -0.16448808 0.16878745 0.97183049 0.085696422
-0.05637864 -0.17510962 0.44245276 -0.43945897 0.8733021 -0.21028395 0.082147591
-0.081314333 -0.16842024 0.47374496 -0.57902902 0.80984902 -0.094180323 0.078566678
0.014802897 -0.23652178 0.57760286 0.11733235 0.076504603 0.99014145 0.070371546
0.066340968 -0.15202673 0.43152815 0.28597468 0.94991708 -0.12599973 0.088448137
0.089003295 -0.16808721 0.46755657 0.4946779 0.86880827 0.021583075 0.07293383
0.079229027 -0.16126066 0.49574 0.1292146 0.98579991 0.10724783 0.062617451
0.041668609 -0.16447753 0.46066672 0.049094293 0.9962101 0.071799263 0.044718511
0.090168834 -0.18503456 0.51202309 0.24962071 0.95677495 0.14923489 0.091696985
-0.019268129 -0.19749321 0.57931346 -0.13444266 0.39819831 0.90739363 0.12279949
0.089082077 -0.16803503 0.44760573 0.59065801 0.80304497 -0.079005457 0.074633479
-0.061159942 -0.16272384 0.48301187 -0.31355801 0.94873047 -0.03989793 0.072590575
-0.04630306 -0.15859985 0.55406499 -0.19300978 0.91671985 0.34981716 0.096972562
-0.057926204 -0.15131502 0.52690136 -0.23937087 0.95651174 0.1666941 0.084560961
0.0056040473 -0.16726792 0.4685553 -7.1822338e-05 0.99132127 0.13146177 0.024993859
0.021868482 -0.15892333 0.55675858 0.11819456 0.9680717 0.22105929 0.082221463
0.084079064 -0.16781935 0.47905549 0.22450826 0.96812862 0.11100907 0.066028945
0.081581466 -0.16152705 0.4989728 0.13206241 0.98477 0.1130821 0.066124164
0.054412872 -0.14987884 0.41568473 0.25497711 0.92836958 -0.27040067 0.099094264
0.043534819 -0.14856817 0.41602018 0.16092609 0.95904571 -0.23309679 0.087309286
0.070487738 -0.1850874 0.53352964 0.13417977 0.98265117 0.12803301 0.088664167
0.016026285 -0.15765113 0.39240739 0.042338055 0.83618933 -0.54680419 0.086968698
0.084453471 -0.17402488 0.50883365 0.16662912 0.97697276 0.13326265 0.079864457
0.024716012 -0.15603979 0.39437866 0.10217779 0.84127843 -0.53085792 0.08814586
0.016555371 -0.17721349 0.57400906 0.18604302 0.87586868 0.44524384 0.12229701
-0.030958351 -0.2326085 0.56523252 -0.22385776 0.047254018 0.97347558 0.072353795
-0.003529669 -0.16684772 0.55311477 0.039285373 0.97646272 0.21207809 0.084184088
0.06695202 -0.18284753 0.53986418 0.14439148 0.97949767 0.14048244 0.089616373
-0.065058112 -0.18371536 0.48340014 -0.54065889 0.84034181 -0.038904335 0.11182708
0.054032616 -0.22107175 0.55284327 0.42563632 0.61268127 0.66592437 0.13186739
-0.053169187 -0.25124562 0.55777979 -0.67086881 0.014724636 0.74142987 0.092145324
-0.016549211 -0.30856118 0.56223047 0.014592817 -0.99618596 0.086026989 0.12444155
-0.022227341 -0.2736232 0.57019717 -0.047215469 -0.14929225 0.98766518 0.16023877
-0.072123207 -0.3132495 0.57313263 0.20393392 -0.96112072 -0.18616639 0.093964897
0.080074422 -0.15824603 0.45667249 0.37702769 0.92620063 0.0015336405 0.069512658
0.098556705 -0.19721167 0.4586733 0.88153899 0.46603706 -0.075488478 0.070858441
0.097589456 -0.20044318 0.48157924 0.86379206 0.49736872 0.080546029 0.098874658
0.097451933 -0.19488128 0.48361376 0.82145965 0.56440789 0.081533559 0.10110345
0.084713064 -0.20563376 0.53690809 0.39958084 0.83216846 0.38448778 0.13203365
0.087010413 -0.26039091 0.44876829 0.95344079 -0.19218124 -0.23241603 0.080101997
-0.043463614 -0.30904555 0.55840898 0.072790876 -0.9945544 -0.07458473 0.11615328
0.082814932 -0.15688573 0.45936096 0.38347718 0.92334324 0.019558446 0.067182489
0.041329477 -0.17461616 0.55450606 0.1655824 0.95617902 0.2414626 0.089103363
0.023122253 -0.15790007 0.56093699 0.12587723 0.9574998 0.25951695 0.084512979
-0.047831822 -0.31022486 0.55435389 0.073259056 -0.99321657 -0.090299927 0.10683056
0.097772665 -0.2014451 0.48966399 0.89094836 0.43526644 0.12943783 0.10297129
0.044930719 -0.15183583 0.40572077 0.1989419 0.898996 -0.39016446 0.090308979
0.094496019 -0.19672769 0.51989228 0.46911013 0.85479474 0.22194956 0.11327313
0.078496993 -0.20895876 0.3959944 0.71111822 0.1862433 -0.67795604 0.070017509
0.015333951 -0.220908 0.56848329 0.2562865 0.17874356 0.94993049 0.16088194
0.066493191 -0.17523777 0.52335268 0.11838541 0.98626059 0.11521696 0.071831755
0.016771097 -0.17090341 0.53083456 0.090213098 0.99246287 0.08293964 0.0637649
-0.076403484 -0.22129053 0.56355542 -0.68163317 0.071891427 0.72815371 0.067131504
-0.04768743 -0.17184037 0.44165531 -0.36980593 0.90919912 -0.19131276 0.077685505
-0.07500314 -0.31294599 0.55786467 0.21247098 -0.96765172 -0.13603772 0.089776695
-0.061855797 -0.16139725 0.49748889 -0.28690019 0.95787466 0.01282433 0.08022128
-0.049744703 -0.14767581 0.47350648 -0.18496738 0.98125362 -0.054114018 0.053448658
-0.053100485 -0.16853146 0.45111018 -0.35751566 0.92356682 -0.13858888 0.067230575
0.085957557 -0.28767559 0.43846637 0.57099837 -0.72467905 -0.38574746 0.15828694
-0.084318817 -0.31448421 0.56429762 0.22573753 -0.96337461 -0.14474797 0.079479933
0.070792362 -0.15493739 0.5217582 0.12292235 0.98711389 0.102451 0.066542663
0.093382895 -0.19167334 0.50708985 0.38679105 0.90866268 0.1572413 0.10227296
0.077498473 -0.1744678 0.51043969 0.096295498 0.98867106 0.11513846 0.072386943
0.077386416 -0.1645018 0.50809062 0.10674991 0.98619568 0.12658016 0.070042975
0.043570071 -0.17966805 0.55162823 0.17625892 0.95170516 0.25137633 0.095321596
0.087345831 -0.17370482 0.51001471 0.19909996 0.97010416 0.13877018 0.083219789
0.091334291 -0.19288597 0.51831442 0.27935046 0.94585854 0.16527238 0.10413475
-0.01631524 -0.30868319 0.56704891 0.026545871 -0.99503082 0.095963307 0.13764711
0.031479798 -0.18229435 0.56653023 0.22314598 0.87144184 0.43680063 0.10300852
-0.050965745 -0.31304055 0.58953494 0.15591349 -0.95870525 -0.23785524 0.11674552
0.07355845 -0.16163805 0.48300925 0.13543773 0.98417908 0.11422884 0.054368202
-0.014058924 -0.17831232 0.57532722 -0.06234223 0.81921017 0.57009476 0.12068594
0.083378352 -0.20458934 0.53872943 0.33780974 0.87598878 0.34427938 0.1283804
0.067137875 -0.18198904 0.54196692 0.15121606 0.9775089 0.14700337 0.091461986
0.093127668 -0.19621097 0.51950186 0.43303558 0.87558573 0.21407881 0.11155742
0.08911369 -0.17888983 0.51130116 0.23256062 0.96129078 0.14776902 0.086222939
-0.035094559 -0.2326055 0.56321138 -0.29618335 0.036997672 0.95441425 0.07389579
-0.0025793607 -0.15691461 0.56597221 0.064094856 0.97349954 0.2195234 0.087347589
0.060054105 -0.15901941 0.53268343 0.13505055 0.98430705 0.11358237 0.072007217
0.073542088 -0.15574148 0.51866817 0.12579727 0.98616338 0.10796663 0.068282157
0.09103056 -0.23987316 0.44165462 0.97826326 0.043983672 -0.20264886 0.051612414
-0.018130764 -0.19698299 0.57961106 -0.1144573 0.4273451 0.89681423 0.12731238
0.024490571 -0.1575392 0.56226873 0.13219315 0.95540261 0.26406583 0.08496467
0.080779798 -0.17234705 0.5091511 0.11214411 0.98610646 0.12254695 0.075045884
0.057397928 -0.18212359 0.55197525 0.15908992 0.9625023 0.21972644 0.090439379
-0.027037526 -0.15767512 0.39961922 -0.24127676 0.87474567 -0.42024454 0.083540782
0.081313975 -0.16161479 0.48090386 0.19650973 0.97435611 0.10960828 0.063056633
-0.072956979 -0.16086645 0.4713065 -0.46794239 0.87799048 -0.10080987 0.072610818
-0.010282844 -0.17669521 0.57561326 -0.023179248 0.85465384 0.51868057 0.12548099
0.030565189 -0.15968114 0.55268496 0.15274709 0.96563327 0.21028757 0.077036187
0.074114695 -0.16151032 0.51487756 0.11879607 0.98674154 0.11058338 0.068209343
0.018790599 -0.19240418 0.57839924 0.23802312 0.74940842 0.61784464 0.14260013
0.066223346 -0.18447192 0.54874754 0.20672749 0.95043707 0.23223498 0.10019096
-0.055156544 -0.24147876 0.55875885 -0.63379127 0.062567033 0.77096945 0.066891968
0.043996714 -0.21608791 0.5555861 0.25521004 0.83050114 0.49511185 0.11666483
0.0064824745 -0.1540266 0.40153137 -0.055270173 0.9384504 -0.34096333 0.078045502
0.093916044 -0.18807364 0.4276619 0.84939176 0.43076846 -0.3049134 0.099938557
-0.011109958 -0.15814878 0.39104834 -0.15911616 0.83111721 -0.53284734 0.080906525
0.028244967 -0.15489994 0.3961941 0.12729958 0.85274911 -0.50657058 0.088158332
0.092978247 -0.2214517 0.4871535 0.96645641 0.20974708 0.1482169 0.098658986
0.095214792 -0.2077515 0.49747187 0.89406091 0.41663408 0.16453353 0.11675186
0.088801056 -0.16759509 0.46715635 0.49347892 0.86956072 0.0185134 0.072161138
0.014162661 -0.25193432 0.56638861 0.12563592 -0.054633226 0.9905709 0.068940774
-0.031125367 -0.3084155 0.55197293 0.024922457 -0.99961913 0.011856009 0.11780718
0.021405021 -0.18341589 0.57409984 0.20648877 0.83646166 0.50763589 0.12605156
-0.090525076 -0.31439877 0.55046844 0.23893344 -0.95455563 -0.17814122 0.091420151
0.041022304 -0.17320547 0.55457187 0.16471502 0.9565894 0.24042799 0.087068044
0.020316334 -0.20644325 0.57788175 0.28706175 0.41727778 0.86224979 0.15767813
-0.013967155 -0.15952061 0.56359148 0.00023126639 0.96431744 0.26474845 0.093569376
-0.013525735 -0.19983698 0.57036042 -0.10907844 0.48830888 0.86582696 0.14448947
-0.010200998 -0.17158185 0.57250702 -0.0063127065 0.90423197 0.42699516 0.11134292
-0.077648088 -0.31354168 0.57908088 0.23985684 -0.95228338 -0.18874592 0.098599292
-0.029178858 -0.1691809 0.5679422 -0.13641733 0.8971383 0.42015848 0.094244935
-0.06564045 -0.20748615 0.57108128 -0.56456131 0.23408243 0.7915023 0.07429219
0.071537822 -0.17046471 0.45863804 0.24695121 0.9688825 0.016787723 0.074126728
-0.068480842 -0.17691712 0.54995328 -0.49991971 0.72367793 0.47578412 0.10454305
0.0021907417 -0.15676086 0.56915992 0.093843646 0.96472502 0.24596538 0.091826692
-0.10137469 -0.3114036 0.49089473 0.27365312 -0.95928669 -0.069878049 0.1248639
-0.080018833 -0.31391308 0.57328027 0.24018827 -0.95346582 -0.1822429 0.089889787
-0.0095765777 -0.17514178 0.57506752 -0.014930623 0.88750756 0.46055114 0.12059775
-0.11294647 -0.31323516 0.5787794 0.16647203 -0.97428644 -0.15183245 0.045366291
-0.0571917 -0.17045394 0.41163746 -0.51360232 0.74549043 -0.42480192 0.08884567
-0.090973526 -0.258872 0.47070515 -0.97580177 0.04085061 -0.2148072 0.11286615
-0.091292404 -0.30643722 0.45904756 0.38310131 -0.92244941 0.04817054 0.16220868
-0.10460022 -0.31456017 0.47974589 0.2962507 -0.9550423 -0.011389594 0.11589296
-0.10454558 -0.31429854 0.52372521 0.23449333 -0.96511978 -0.11643292 0.081885546
-0.099698871 -0.31249899 0.51920933 0.23609965 -0.96324712 -0.12810855 0.093813203
-0.1059674 -0.31210676 0.50247622 0.27096197 -0.95587897 -0.11346818 0.10238729
0.023064086 -0.1596342 0.57197142 0.15415418 0.9118613 0.38045415 0.094303079
-0.13390246 -0.31320724 0.53111964 0.28197539 -0.94654179 -0.15667957 0.071473025
-0.077929072 -0.16484769 0.45947903 -0.54209548 0.82746953 -0.14637843 0.069414862
-0.026536137 -0.15497707 0.55848628 -0.079334758 0.95151722 0.29718843 0.087363288
-0.1191262 -0.31456146 0.59167129 0.014722789 -0.99979794 -0.013681114 0.0018124536
-0.13343376 -0.31300449 0.50589073 0.30757925 -0.94835132 -0.077619165 0.079661049
-0.040409837 -0.15538174 0.55460733 -0.15301313 0.925632 0.34611017 0.092619099
0.044960514 -0.1610017 0.46658838 0.063246697 0.9939751 0.089517511 0.045238949
-0.060901556 -0.24843042 0.55327338 -0.76446199 0.0081464127 0.6446172 0.076100826
-0.068276741 -0.15844354 0.52595681 -0.36759847 0.90625787 0.20872992 0.09209384
-0.035157505 -0.15459765 0.41171333 -0.24490394 0.92325962 -0.29599625 0.071024664
-0.0072808377 -0.17913778 0.57761157 0.0032958551 0.83881205 0.54441118 0.13019264
-0.10295912 -0.31545815 0.5375461 0.21906951 -0.96272874 -0.15862513 0.080030829
-0.10400566 -0.31543779 0.53503984 0.22716339 -0.96131796 -0.15577111 0.079772353
-0.068793006 -0.16810244 0.54290152 -0.46196568 0.79357886 0.39600536 0.10091303
-0.070466295 -0.24882118 0.54161775 -0.86399895 -0.0029829179 0.50348485 0.068334155
-0.072424948 -0.30763486 0.52657175 0.17505734 -0.97534633 -0.13436669 0.12105959
-0.13522248 -0.31273335 0.49584779 0.32687747 -0.94385082 -0.047923535 0.08959882
-0.091341034 -0.17761929 0.48333168 -0.79291797 0.60812563 -0.038266424 0.082578562
-0.063750647 -0.16146246 0.43242559 -0.43240967 0.87428772 -0.22055154 0.069930874
-0.10177074 -0.19840807 0.48593798 -0.91590112 0.40137267 0.0050032777 0.073174901
-0.099554941 -0.20570956 0.50838226 -0.94387853 0.28897443 0.15995978 0.075026393
-0.087214716 -0.25097907 0.45133325 -0.95839351 0.00016255544 -0.28545028 0.051031318
-0.073530033 -0.30545625 0.42909241 -0.34421408 -0.86943048 -0.35441127 0.17425649
-0.053263359 -0.16081437 0.41939297 -0.35043707 0.90274292 -0.24949743 0.072089657
-0.13589336 -0.31292635 0.50164241 0.31627187 -0.94629496 -0.067066938 0.080825791
-0.065409258 -0.170541 0.42030615 -0.56787491 0.7344045 -0.37170959 0.085301407
-0.014493113 -0.188095 0.57722747 -0.086700603 0.6782369 0.7297107 0.13224591
-0.099809222 -0.31011492 0.45334271 0.40218064 -0.9101671 0.099229589 0.14335926
-0.069179863 -0.19224715 0.40831062 -0.69063592 0.40140194 -0.60158002 0.083029494
-0.14418446 -0.31544197 0.5685426 0.0092828367 -0.99967307 -0.023825711 0.0040702978
-0.072589926 -0.17765938 0.42232502 -0.61915267 0.6865918 -0.38110575 0.083569221
-0.028782301 -0.26361233 0.56947368 -0.15665095 -0.08170633 0.98426855 0.11222625
-0.11463808 -0.313301 0.45324436 0.31129229 -0.94744742 0.073759168 0.084110245
-0.14611433 -0.31288549 0.54455185 0.097612709 -0.99222273 -0.077237941 0.014770591
-0.14538866 -0.31254414 0.51915175 0.20330906 -0.9754886 -0.084186174 0.043286216
-0.083843946 -0.1998409 0.42516378 -0.82431245 0.30629301 -0.47612357 0.075831398
-0.076309226 -0.17586018 0.43065503 -0.63367575 0.70732278 -0.31328827 0.081746899
0.078130044 -0.16578773 0.46933955 0.23252732 0.96959144 0.076311916 0.067263603
-0.062270045 -0.16579334 0.5498054 -0.37474903 0.84073526 0.39080334 0.10175703
-0.091555342 -0.24799432 0.46841839 -0.98093599 0.012096502 -0.19395415 0.052863117
-0.079547569 -0.31382802 0.57487655 0.23893887 -0.95217025 -0.19047327 0.092786282
0.019257307 -0.22485141 0.58388197 0.22816168 0.054511901 0.97209615 0.1088075
0.01404833 -0.24756998 0.56933194 0.11975732 -0.017603723 0.99264705 0.062764376
-0.013720023 -0.27623555 0.57815075 0.020632423 -0.1459963 0.98907 0.14142443
-0.085860252 -0.30888635 0.52074885 0.23219985 -0.96310157 -0.13608289 0.10308103
0.065988101 -0.17530458 0.51280481 0.087987542 0.99169564 0.093797602 0.065172397
-0.082884461 -0.18658522 0.53904831 -0.7293703 0.51764125 0.44728792 0.10104766
-0.088686198 -0.18792328 0.52836335 -0.8188796 0.48068112 0.31365883 0.1041178
-0.085986525 -0.29676083 0.49776724 0.33658841 -0.93539184 -0.10839885 0.16649257
-0.077830359 -0.3088145 0.42063698 0.03194201 -0.99326557 -0.11136986 0.1739486
-0.052697033 -0.31311598 0.5918656 0.16409205 -0.95338267 -0.25324956 0.11911342
-0.15150887 -0.31092557 0.47346079 0.22870819 -0.97345322 -0.0090242596 0.039599996
-0.045782879 -0.17169501 0.56322777 -0.23916093 0.84958309 0.47011778 0.1028602
-0.082757883 -0.17901358 0.53221089 -0.68947971 0.6317637 0.35424888 0.10353447
-0.073111832 -0.31067395 0.40057516 -0.57804251 -0.16517279 -0.79911506 0.13954681
-0.1157249 -0.31343025 0.45130104 0.32028154 -0.94364387 0.083401777 0.083939493
-0.088178523 -0.17495243 0.46054706 -0.71025205 0.68548572 -0.16016023 0.078714959
-0.088152975 -0.31164005 0.4123989 -0.62183154 0.51043361 -0.5939554 0.16940708
-0.0058502713 -0.30925831 0.56439692 -0.0028723818 -0.99678099 0.080121823 0.10387228
0.0045141778 -0.16723526 0.45859513 -0.025793791 0.99765801 0.06334985 0.026301267
0.014874188 -0.16623628 0.4623147 -0.0057348236 0.99551517 0.094428323 0.026593287
-0.079523981 -0.17008683 0.52691126 -0.57254434 0.77448064 0.26902175 0.096871562
-0.034224786 -0.16562016 0.56456876 -0.147678 0.90656853 0.39537919 0.091300577
-0.084223956 -0.22316697 0.53890127 -0.86420435 0.10552196 0.49195111 0.073218077
-0.081883818 -0.28064075 0.51359183 -0.76021928 0.55881178 0.33135474 0.21669266
-0.066247143 -0.27748808 0.53906029 -0.78351843 0.22974364 0.57733583 0.2341523
-0.066211812 -0.21806501 0.57253277 -0.58841419 0.10542614 0.80165708 0.065327689
0.018612366 -0.24213938 0.57259607 0.16029562 0.02586415 0.98673022 0.063885637
-0.066642188 -0.27626097 0.53837061 -0.80906051 0.20887499 0.54935628 0.22663245
-0.035189606 -0.26954135 0.56320643 -0.2347561 -0.10652015 0.96620029 0.1574153
-0.092521653 -0.19814369 0.44165441 -0.87033415 0.40664059 -0.27778023 0.081760392
-0.060364988 -0.30964768 0.53537214 0.10536955 -0.98915362 -0.10233467 0.11050314
-0.061464123 -0.16088998 0.46148244 -0.36238131 0.92467648 -0.11684725 0.063046165
-0.13962498 -0.31246093 0.49275556 0.31894836 -0.94684112 -0.041997444 0.082332611
-0.035786759 -0.27329785 0.56133604 -0.26725328 -0.16971973 0.9485625 0.18634714
-0.12952134 -0.31338692 0.44802684 0.31257844 -0.94651574 0.080017872 0.076014198
-0.13677903 -0.31298834 0.49942073 0.32358113 -0.94435948 -0.058995083 0.086168528
-0.080525257 -0.16855338 0.52089953 -0.57543939 0.79058081 0.20940723 0.099268824
-0.029095717 -0.29860058 0.56160045 0.03510268 -0.99882996 0.033265438 0.14954093
-0.046681434 -0.27610147 0.55397797 -0.57491964 -0.16003701 0.80240613 0.19610789
-0.10734782 -0.31241608 0.59445566 0.11309022 -0.98582149 -0.12396203 0.034027286
-0.12627019 -0.31323311 0.55944306 0.18966925 -0.97192061 -0.1392692 0.038866013
-0.053228356 -0.31309709 0.59163946 0.16724536 -0.95594442 -0.24124515 0.11732484
-0.08645431 -0.20848703 0.43040556 -0.8684262 0.23156413 -0.43842205 0.068435401
-0.084582165 -0.31448933 0.56519228 0.22951712 -0.96180379 -0.14918236 0.08068426
-0.099508964 -0.31025156 0.49537808 0.2782917 -0.95429611 -0.10896214 0.12703712
-0.030209746 -0.16135864 0.39716065 -0.27389517 0.82704645 -0.49089265 0.084436513
-0.069386393 -0.21725513 0.40615857 -0.71882778 0.099705689 -0.68800098 0.040746059
0.0075270603 -0.1629528 0.51763767 0.082417808 0.99588478 0.037694454 0.04736881
-0.021192532 -0.15120375 0.55484164 -0.033701647 0.97338432 0.22668736 0.080620512
-0.048813649 -0.16399652 0.41027412 -0.37245378 0.84422785 -0.38543156 0.084604144
-0.018282041 -0.15747251 0.39492449 -0.21029352 0.83969712 -0.50068492 0.080706067
0.078404658 -0.16524906 0.50861824 0.10821956 0.98644096 0.12338015 0.071085833
-0.013711113 -0.30990797 0.39184299 -0.13885887 -0.63383532 -0.76090139 0.12634452
-0.010807306 -0.25174555 0.38463378 -0.23680623 -0.096755832 -0.96672696 0.03309321
-0.083142258 -0.31073117 0.42257878 0.24858572 -0.96379387 0.096470624 0.18152103
-0.019538682 -0.20267887 0.37926507 -0.30459404 0.18373093 -0.93459368 0.060887851
0.08208432 -0.18207389 0.50890869 0.11948679 0.98443389 0.12889038 0.078384571
-0.09151683 -0.23594205 0.45571774 -0.96088392 0.0013752554 -0.276948 0.022419212
-0.087135591 -0.28041682 0.46252733 -0.88171327 0.41581926 -0.22288108 0.19658238
-0.06047735 -0.2832762 0.41427544 -0.61436564 -0.17134781 -0.77019137 0.12519428
0.025528556 -0.16644117 0.50050282 0.04803982 0.99831647 0.032502983 0.04559331
-0.021784142 -0.17411722 0.38504162 -0.26734704 0.63174474 -0.72761536 0.090469658
-0.052454844 -0.26291201 0.41115806 -0.63217074 -0.13809988 -0.76242292 0.065874279
-0.020217011 -0.2656455 0.38545284 -0.28557363 -0.16614075 -0.94384587 0.050152775
-0.039413895 -0.1514717 0.55144638 -0.13625459 0.94310248 0.30330253 0.088584617
-0.010918614 -0.21527228 0.37877211 -0.2234329 0.10691375 -0.96883816 0.045369916
0.029449698 -0.19239463 0.3786892 0.21024004 0.3381241 -0.91731739 0.073734082
-0.10189293 -0.31449941 0.53013784 0.20803745 -0.96986496 -0.12681627 0.081374444
-0.10436419 -0.31214085 0.49282151 0.2768876 -0.95751089 -0.080661267 0.11724889
-0.09099517 -0.31423992 0.54773599 0.23978361 -0.9551897 -0.17354131 0.089788765
-0.092779227 -0.31496984 0.5577963 0.23391281 -0.96038878 -0.15145329 0.075249478
-0.10329101 -0.31314075 0.48105586 0.28236538 -0.9591018 -0.01983704 0.11605
0.071147002 -0.16157727 0.51636147 0.11669488 0.98789239 0.10223044 0.065921292
-0.030464953 -0.16057615 0.39812809 -0.26992774 0.83909971 -0.47228241 0.084006049
-0.035201833 -0.15672854 0.4093461 -0.25680858 0.90654701 -0.33499524 0.07671082
-0.079762086 -0.17553309 0.43816468 -0.66069895 0.70502043 -0.25772661 0.082293853
-0.043588415 -0.19153269 0.39186007 -0.47042999 0.37859187 -0.79709715 0.083897099
-0.069339626 -0.16036601 0.45506954 -0.46863896 0.87023515 -0.15188317 0.06368804
