# .PCD v0.7 - Point Cloud Data file format
VERSION 0.7
FIELDS x y z normal_x normal_y normal_z curvature
SIZE 4 4 4 4 4 4 4
TYPE F F F F F F F
COUNT 1 1 1 1 1 1 1
WIDTH 582
HEIGHT 1
VIEWPOINT 0 0 0 1 0 0 0
POINTS 582
DATA ascii
0.025153005 -0.34092173 0.83551675 -0.19915546 0.032343205 0.97943407 0.028713185
0.039243389 -0.24011706 0.83399838 -0.051953264 0.25042289 0.96674156 0.036850341
0.015445489 -0.37150249 0.83618647 -0.30676425 0.023661498 0.95149136 0.043265399
0.093086764 -0.19056991 0.82342684 0.013902934 0.84713972 0.53118843 0.07708966
-0.021512844 -0.21738397 0.83293432 -0.60357791 0.40589646 0.68625194 0.092813097
0.051512074 -0.22399983 0.83349168 0.00019423035 0.43497181 0.90044403 0.049858578
0.044885874 -0.19787005 0.61913872 0.048945211 0.81606936 -0.57587773 0.059216142
0.18337846 -0.21148589 0.8275224 0.32316479 0.56532961 0.75892484 0.14734076
0.15647922 -0.41817456 0.83171147 0.12773123 -0.060750604 0.98994648 0.0069802692
-0.0022828192 -0.19102745 0.66147119 -0.32056707 0.93282449 -0.16454561 0.061360009
0.052095439 -0.18822891 0.75093102 -0.024410404 0.99968922 0.005068609 0.00064734329
-0.019945003 -0.4250243 0.83169907 -0.60789734 -0.012098597 0.79392344 0.072667129
0.047181815 -0.18907697 0.77283287 -0.035918038 0.9972477 0.064861141 0.0065425565
0.15734877 -0.3741841 0.83134788 0.094977342 0.035030518 0.99486285 0.0013272119
0.052727811 -0.19955492 0.83058971 -0.012579542 0.78819054 0.6153028 0.064620167
-0.029611031 -0.19230391 0.71513683 -0.63580477 0.77183187 -0.0052795801 0.075800367
0.015453797 -0.35466921 0.83600664 -0.25562471 0.03378113 0.96618569 0.037716158
0.041622221 -0.35575217 0.8345325 -0.055327278 0.02772581 0.99808329 0.0072665093
0.051354025 -0.18908477 0.82334977 -0.016009901 0.86706722 0.49793378 0.061989184
0.046536919 -0.25238508 0.83482486 -0.0066881799 0.12558156 0.99206072 0.011150016
0.071189702 -0.47245446 0.83688349 0.05113579 -0.46998617 0.88119131 0.080111377
0.035832223 -0.19117427 0.66925699 -0.054862164 0.98311198 -0.17458844 0.020825166
0.13124181 -0.43208385 0.83381724 0.087180354 -0.13860315 0.9865033 0.036117073
0.014763009 -0.42230302 0.83772403 -0.22566608 -0.037713021 0.97347444 0.035464019
0.038181037 -0.33109665 0.83483326 -0.081595771 0.0054798229 0.99665046 0.009033422
0.18158095 -0.21205929 0.83074534 0.27238926 0.51754344 0.81114298 0.14082451
0.071091108 -0.20227723 0.83145124 -0.019519432 0.69845223 0.71539038 0.075722426
0.1536938 -0.19169037 0.69074452 0.17273737 0.97936088 -0.10494798 0.018776106
0.074743144 -0.19056733 0.66610378 -0.022143481 0.97802699 -0.20729904 0.020358043
-0.0086083952 -0.40557596 0.83663404 -0.52200615 0.045408193 0.85173219 0.056285631
0.042949099 -0.1886356 0.73908108 -0.069057986 0.99755299 -0.010907713 0.0035369759
0.12536268 -0.18772165 0.78446192 0.05104376 0.97597462 0.21182097 0.035349745
0.11277086 -0.42126426 0.83629596 0.062410872 -0.079854786 0.99485075 0.012992666
0.1193076 -0.19100539 0.66455472 0.1119361 0.96397191 -0.24130565 0.041419681
0.039579231 -0.48165098 0.83174646 0.0053434032 -0.80672544 0.59090233 0.076182134
0.012463532 -0.22851229 0.83483434 -0.32537749 0.37536645 0.86788791 0.074181713
0.11093213 -0.45721 0.8359493 0.028496485 -0.34155655 0.93942916 0.08284381
-0.011081411 -0.19307686 0.81074584 -0.46544316 0.77618927 0.42531511 0.076630868
-0.0028519784 -0.19121854 0.73407549 -0.41924971 0.90737319 -0.030059475 0.057864461
-0.029987274 -0.19861761 0.7866388 -0.80613858 0.55865669 0.19504702 0.071434878
0.040343381 -0.20476487 0.83119261 -0.083720349 0.73164892 0.67652106 0.067518145
-0.017914673 -0.36011434 0.83175802 -0.65499049 -0.02263237 0.75529808 0.066703014
0.15499742 -0.19005299 0.76584768 0.054589927 0.99144042 0.11859955 0.026558546
0.0053501553 -0.19337183 0.83341199 -0.31465486 0.67945439 0.66282272 0.079036385
-0.021325493 -0.27063653 0.83735126 -0.71627289 0.018920753 0.69756377 0.084940851
-0.012359457 -0.28133789 0.83887422 -0.6053201 0.0097766491 0.79592216 0.081639081
-0.023121784 -0.35200721 0.83295947 -0.67851573 -0.0022343695 0.73458236 0.059281666
0.041584756 -0.19146539 0.64672959 -0.00080320734 0.95847368 -0.28517985 0.035193592
0.15129328 -0.19185032 0.80655128 0.14975925 0.89746606 0.41488183 0.10158768
-0.016998008 -0.33044839 0.83693004 -0.61860836 -0.045752704 0.78436631 0.05106692
-0.01065405 -0.24098386 0.83555406 -0.60003477 0.24193929 0.76251137 0.080170572
0.024320355 -0.19351758 0.82644182 -0.18374453 0.77874899 0.59982318 0.070448332
0.16813914 -0.190484 0.770706 0.052568931 0.99015045 0.12976332 0.027875287
0.0055352589 -0.18847626 0.78548735 -0.32474652 0.9218809 0.21136536 0.054182317
0.14095624 -0.18557714 0.81781799 0.12482432 0.89074898 0.43701845 0.092811815
-0.01647014 -0.41917521 0.83222413 -0.59939605 0.0081260987 0.80041134 0.071613602
0.04146643 -0.19507931 0.82792515 -0.071641974 0.79132909 0.60717851 0.068671398
0.048415862 -0.21648838 0.83205855 -0.020305188 0.56376308 0.82568687 0.059084401
0.13924982 -0.18903846 0.75317276 0.03398025 0.99919164 0.021479251 0.0050045052
0.13836411 -0.188794 0.74187791 0.032541346 0.99922556 -0.0221201 0.0013863214
0.010931256 -0.18845136 0.80921924 -0.29953 0.8703596 0.39084002 0.071441859
0.068553343 -0.19370772 0.83014512 -0.037029818 0.76490647 0.64307618 0.073470958
0.11782204 -0.35960191 0.8332507 0.063859433 0.020352846 0.99775136 0.00089774001
0.074441023 -0.24908902 0.83520949 0.031749781 0.18912834 0.98143899 0.023929432
0.12011135 -0.22295754 0.83135647 0.013806477 0.39526787 0.9184621 0.079435036
0.14874691 -0.28152043 0.83189934 0.092789143 -0.0054639992 0.99567074 0.0015882772
0.13358875 -0.19146779 0.64719349 0.21397591 0.87555742 -0.43314382 0.065102018
0.067769788 -0.18822585 0.70234346 -0.005383316 0.99960715 -0.027505256 0.00021116761
-0.018090064 -0.19359769 0.77034295 -0.64503962 0.7560994 0.1106235 0.073288359
0.031150825 -0.19522421 0.8277607 -0.13186771 0.80919445 0.57255143 0.066207908
0.08846242 -0.20713548 0.83243763 -0.0060779639 0.61667311 0.78719586 0.08292266
0.089344002 -0.18879703 0.77348697 0.0061626197 0.99336958 0.11479904 0.015001418
-0.024108605 -0.23726444 0.83266664 -0.69490808 0.26305532 0.66925681 0.085712798
-0.018852176 -0.19588152 0.81080574 -0.55677146 0.72049677 0.41338834 0.087998904
0.061352622 -0.42733139 0.83692151 0.019682264 -0.10937276 0.99380594 0.022380261
0.06120025 -0.4000394 0.83496195 0.019415723 0.020518761 0.99960089 0.00015761613
0.018764343 -0.31753013 0.83520508 -0.2164226 0.0053860848 0.97628504 0.031162212
0.088774562 -0.40767464 0.83591944 0.036024529 -0.010339174 0.99929738 0.0020105215
0.065435424 -0.34116715 0.83339113 0.016895374 0.010090749 0.99980634 0.00031989653
0.091182463 -0.32613793 0.83478332 0.036643114 -0.0039609717 0.99932063 0.00046551105
0.095143795 -0.24909364 0.83417863 0.010564117 0.1617181 0.98678046 0.019893698
0.14413038 -0.19170974 0.66761285 0.2250848 0.9510771 -0.21163461 0.045693904
0.1569944 -0.25629315 0.83155197 0.082367845 0.068839982 0.99422157 0.014295164
0.16057311 -0.25680271 0.8313446 0.09224318 0.065104946 0.99360579 0.014096552
0.1599641 -0.20285088 0.82952756 0.146933 0.63609612 0.75749081 0.13640836
0.14742532 -0.21424833 0.83090746 0.10565007 0.47646207 0.87282413 0.11927318
0.15568738 -0.19007328 0.81648493 0.15372688 0.88728267 0.43485352 0.10653657
0.1399636 -0.28044993 0.83263576 0.089498706 -0.0017147848 0.99598545 0.0017479974
0.082390048 -0.29023996 0.83586872 0.027182309 -7.2263691e-07 0.99963045 0.00024754083
0.12535204 -0.28108963 0.83343929 0.080865256 -0.0018781619 0.99672329 0.0018548695
-0.01743532 -0.2537744 0.83606893 -0.64697081 0.13627633 0.7502383 0.082322031
0.077123545 -0.31675628 0.83560354 0.024647582 -0.0031262266 0.99969131 0.00013074682
0.041537549 -0.33429343 0.83492202 -0.054865178 0.0040469463 0.99848562 0.0057797506
-0.024724126 -0.33248073 0.83411235 -0.64971596 -0.047892734 0.75866693 0.048692323
0.064782925 -0.26958147 0.83532006 0.0168903 0.040076576 0.99905384 0.0014343582
0.11056044 -0.19157565 0.81915003 0.048223641 0.89655352 0.44030243 0.072078981
-0.021366738 -0.22721748 0.83166403 -0.62920743 0.3384234 0.69969112 0.088663824
0.070570886 -0.20515308 0.83344239 -0.011927682 0.65872788 0.75228673 0.074568123
0.047224943 -0.18907948 0.77527696 -0.046764638 0.9943251 0.095554225 0.013683869
0.084151939 -0.19023399 0.65325755 -0.021347584 0.96014482 -0.27868646 0.030258458
0.13451141 -0.19626541 0.82610136 0.12056019 0.80039483 0.58722514 0.10962133
0.12682213 -0.19083112 0.8178497 0.10080536 0.87720788 0.46940884 0.090510815
0.10395809 -0.25787649 0.83418292 0.027486384 0.11518464 0.99296379 0.0081220306
0.087782785 -0.18734293 0.75232565 0.0031238534 0.99995571 0.0088762715 0.00066578464
0.12290693 -0.19075103 0.68109518 0.12895341 0.98736978 -0.092043824 0.018413451
0.11897282 -0.28738061 0.83413196 0.076351233 -0.0095408652 0.99703532 0.0016477358
0.1432891 -0.47903964 0.82922667 0.12741278 -0.72210103 0.67995292 0.11767744
0.12389984 -0.26473311 0.83332229 0.045001339 0.070036143 0.99652886 0.0072309352
0.13084128 -0.22073862 0.83087981 0.075180277 0.45276481 0.88845479 0.10063738
0.18120982 -0.19674671 0.82916909 0.26826954 0.66381562 0.69812626 0.14097302
-0.01211644 -0.19845097 0.82987475 -0.46968696 0.60083014 0.64683634 0.086078838
0.1365187 -0.1921995 0.8227725 0.11421004 0.83353812 0.54052776 0.10712387
-0.031680804 -0.19956438 0.64184648 -0.62956995 0.69702059 -0.34322578 0.10086331
0.092634484 -0.24261975 0.83430409 0.015928492 0.20182329 0.97929245 0.030476002
-0.02087149 -0.25973007 0.83413845 -0.74743772 0.09340106 0.65773326 0.076681033
0.13045211 -0.18914647 0.74962717 0.027334515 0.99959427 0.0080083944 0.0030157953
0.043363273 -0.43963075 0.8367117 -0.041850518 -0.19266778 0.98037118 0.042558886
0.18248245 -0.19101442 0.80132645 0.17684914 0.89913082 0.40035996 0.11144204
0.14441732 -0.20280936 0.82851714 0.14410478 0.66864991 0.72948003 0.12047661
0.17609082 -0.19965068 0.83050412 0.26745462 0.643417 0.71727443 0.14068016
0.12764958 -0.41292346 0.83393312 0.077882975 -0.046328299 0.99588543 0.0052618934
0.15595637 -0.23191394 0.83221537 0.12966914 0.28867334 0.94860619 0.087767027
0.039396539 -0.19832017 0.83014429 -0.081230938 0.74472725 0.66240686 0.068494752
-0.01359346 -0.40993598 0.83536458 -0.55046064 0.043237548 0.83374071 0.054815851
0.03389103 -0.1889344 0.75817126 -0.10384521 0.99396992 0.035212461 0.0091111111
0.17091757 -0.1904936 0.77126288 0.045932509 0.98934788 0.13813414 0.025301849
0.1289407 -0.20033935 0.82661921 0.085889928 0.73346817 0.67427546 0.10795218
0.066141598 -0.18750034 0.71290553 -0.0074626436 0.9997437 -0.021374537 0.0001867477
0.10153239 -0.18918949 0.80544823 0.048222739 0.9362002 0.34814343 0.059786048
0.014178573 -0.19432229 0.62988973 -0.13087711 0.87052047 -0.47441047 0.06783504
-0.010277839 -0.19088009 0.66911644 -0.4251034 0.89829677 -0.11113086 0.066975579
0.022159522 -0.18995988 0.70941091 -0.19212973 0.98121774 -0.01725799 0.025376745
-0.026755879 -0.19646655 0.63386142 -0.58759087 0.7031554 -0.40038657 0.10316408
-0.0014834498 -0.189825 0.77162796 -0.42603999 0.89796036 0.11025881 0.063463576
0.13775311 -0.19136631 0.66790736 0.21068747 0.96059966 -0.18127073 0.042967811
0.17668152 -0.18841501 0.74965578 0.056201078 0.99816853 -0.022383235 0.0026405847
0.1220412 -0.21881841 0.83020598 0.023431955 0.45263493 0.891388 0.090456598
0.12123033 -0.19585635 0.82341063 0.084182598 0.80719376 0.58425301 0.097066663
0.10911202 -0.18788056 0.78136748 0.031670429 0.98573112 0.16532117 0.020628143
0.00015505754 -0.19014253 0.68934137 -0.33290637 0.94291234 -0.009469917 0.045027483
-0.021370681 -0.37838292 0.83246595 -0.70275563 0.026173485 0.71094966 0.068170205
0.078139901 -0.18777223 0.75542897 -0.0066849631 0.99984002 0.016588692 0.00094760308
-1.2202583e-05 -0.19044349 0.75773299 -0.41628858 0.90886354 0.025900697 0.06016583
0.035336889 -0.41900298 0.83695322 -0.080218963 -0.048769306 0.99558342 0.01492941
0.074271739 -0.25244635 0.83538318 0.032446604 0.14621295 0.98872089 0.014025066
0.013618537 -0.19062443 0.8202104 -0.25842884 0.79254138 0.55235195 0.077329688
-0.0096634757 -0.27199259 0.83842003 -0.58865488 0.0058877296 0.80836296 0.08670982
0.12024748 -0.18793899 0.78758514 0.056293968 0.96904874 0.24036565 0.039797232
0.17400537 -0.188412 0.74689144 0.050643258 0.99835467 -0.026894109 0.002376887
0.12426292 -0.18817723 0.74632841 0.024652915 0.99965966 -0.0085268598 0.0016089618
0.12250474 -0.18820417 0.76586872 0.035753436 0.99216837 0.11968159 0.018098971
0.19015998 -0.19336338 0.82783926 0.33678707 0.67384177 0.65765625 0.14488588
0.18270095 -0.38082537 0.82894558 0.10344736 0.04230734 0.99373478 0.0014414465
0.17159694 -0.20589997 0.83039743 0.25394127 0.59625286 0.76157492 0.1429448
0.17351121 -0.19270372 0.82462639 0.2345327 0.77843815 0.5822615 0.13411373
0.090610228 -0.27536768 0.83465391 0.028504195 0.0125028 0.99951553 0.00046258303
0.0340648 -0.25806567 0.83488899 -0.072388478 0.075658135 0.99450278 0.015120768
0.019266332 -0.18997227 0.71093446 -0.2349304 0.97172266 -0.023723125 0.035629984
-0.021839429 -0.23759882 0.83255947 -0.68005526 0.26186743 0.68479937 0.086006537
0.025026944 -0.18994948 0.82011431 -0.16476455 0.82410246 0.54194814 0.065727897
0.057940297 -0.19157845 0.82674634 -0.027303638 0.83343422 0.55194372 0.071103163
0.068388574 -0.29931399 0.83502811 0.018589854 -0.003683974 0.99982041 0.00017344908
0.12235452 -0.19132937 0.65715069 0.11400036 0.95310891 -0.28033412 0.046468485
0.14039151 -0.19058625 0.81327194 0.1164355 0.87292808 0.47375026 0.10068398
0.19239196 -0.19146323 0.82402241 0.38781813 0.68877298 0.61252666 0.14202347
0.099954665 -0.18789682 0.76960897 0.015115522 0.9948234 0.10048863 0.012649738
0.1635288 -0.18951347 0.75552386 0.063212596 0.99743646 0.033536248 0.0069448119
0.17118007 -0.38181338 0.83042628 0.097679012 0.039886691 0.99441838 0.0012685044
0.12574217 -0.18851902 0.75745696 0.016038772 0.99853945 0.051591441 0.0066843485
0.045949534 -0.18992613 0.81739014 -0.0536086 0.90116048 0.43015799 0.059482306
0.13234772 -0.38108233 0.83340061 0.065884762 0.029152526 0.9974013 0.00061747612
0.076281026 -0.18970913 0.68391937 -0.0057790028 0.99818343 -0.059970625 0.0014280238
0.017940238 -0.19022477 0.72633994 -0.22122359 0.97508866 -0.016191721 0.033460602
-0.02246666 -0.2053332 0.82966089 -0.61451632 0.52516061 0.58870697 0.09076421
0.18014389 -0.1889939 0.73908025 0.072635204 0.99541634 -0.062213257 0.010483651
0.10646944 -0.1877782 0.7570163 0.0091326693 0.99946707 0.03134058 0.0025893652
0.12627994 -0.24886498 0.83302397 0.02496881 0.14737867 0.98876488 0.025033353
0.08785598 -0.40649825 0.83596122 0.033404391 -0.0086689042 0.99940437 0.0017174553
-0.0072407229 -0.31163806 0.83442855 -0.50606263 -0.027246092 0.86206627 0.061752256
0.15247789 -0.37108159 0.83165461 0.093036033 0.035121597 0.9950431 0.0012276763
0.013664649 -0.22906853 0.83444726 -0.31405684 0.39536771 0.86316437 0.073536627
-0.038575366 -0.47356233 0.8221156 -0.75924432 -0.46009278 0.46028554 0.16088702
0.0070132758 -0.39720488 0.83782655 -0.39497802 0.0048060128 0.91867805 0.04972484
-0.026866654 -0.22144052 0.83327252 -0.64097524 0.34322107 0.68654937 0.090755194
0.066193178 -0.39472228 0.8341307 0.02164791 0.02179837 0.99952799 0.00023853099
0.12440166 -0.29165336 0.83324319 0.078425437 -0.0080845878 0.99688727 0.0015734938
0.18302703 -0.35212997 0.82811481 0.12094913 0.037941474 0.99193335 0.0019547516
0.055452514 -0.286136 0.83434749 0.017403971 0.0046941023 0.99983752 0.00039772748
0.17986344 -0.37892982 0.82905918 0.1025515 0.042352773 0.99382567 0.0013757286
0.11406054 -0.27831388 0.83423924 0.060886141 0.0033190346 0.9981392 0.0013304438
0.11208092 -0.29011792 0.83482295 0.058785483 -0.0064235376 0.99824995 0.00097544253
0.10625525 -0.37701252 0.83542454 0.046962231 0.026839865 0.99853599 0.00050085876
0.0071627581 -0.44642055 0.83907628 -0.21542165 -0.15228191 0.96457434 0.091902219
0.016724713 -0.18716905 0.81192821 -0.22678505 0.86041999 0.45633981 0.06995023
-0.020692622 -0.42946765 0.82979381 -0.63973105 -0.060852531 0.76618612 0.08513169
0.16001834 -0.19055872 0.76244092 0.06219982 0.99548632 0.071681134 0.012419078
0.12503381 -0.19141461 0.65717584 0.13650581 0.94570708 -0.29496503 0.050526652
-0.034863081 -0.47446015 0.8148514 -0.7955783 -0.44201297 0.41434246 0.1484483
0.017032648 -0.35643956 0.83554482 -0.25695261 0.045853119 0.96533561 0.040318746
-0.015436901 -0.35433722 0.83076531 -0.66849083 -0.013949338 0.74358952 0.060205013
-0.0083583137 -0.40890491 0.83659416 -0.50913811 0.041374691 0.85968971 0.054182705
-0.023299629 -0.35064363 0.8324244 -0.6808781 -0.0045423009 0.73238266 0.060736556
0.037028141 -0.41641134 0.83644724 -0.057143863 -0.047913119 0.99721563 0.012282905
-0.016163006 -0.19282277 0.78635567 -0.60783911 0.76454931 0.21446663 0.080032498
-0.028465342 -0.19452375 0.71847373 -0.6502111 0.75967258 0.011094988 0.077105567
-0.02173481 -0.20682685 0.82587564 -0.63820517 0.52977252 0.55860108 0.087823123
0.0015059288 -0.30772641 0.83488828 -0.3698177 -0.0049988902 0.92909092 0.050244749
0.16429681 -0.20419145 0.83003408 0.21233952 0.65082258 0.72893202 0.14070863
-0.0052747508 -0.19394001 0.82333916 -0.39386824 0.71671283 0.57549161 0.084346734
0.170819 -0.31938544 0.8262763 0.11728196 0.0034287549 0.99309272 0.0016512442
0.035987992 -0.18847367 0.76028144 -0.087210581 0.99539518 0.039782841 0.0073295366
0.1373526 -0.19515824 0.82603681 0.12696324 0.80912465 0.57375747 0.10788008
0.0034165143 -0.39549845 0.83761245 -0.43622601 0.003557184 0.89983004 0.052025732
-0.036721233 -0.41762453 0.81258804 -0.91749406 0.015367688 0.39745241 0.054936346
-0.030390924 -0.20134251 0.79999352 -0.80803496 0.51880401 0.279145 0.070339866
-0.026443793 -0.25001606 0.82922173 -0.77632105 0.16639265 0.6079796 0.079632625
-0.033450462 -0.28171599 0.81614488 -0.92993391 0.018770516 0.3672474 0.050799452
0.070598923 -0.19460322 0.82832885 -0.038090333 0.81275362 0.58136106 0.075052597
0.16442402 -0.25660294 0.83085746 0.098031856 0.062178716 0.99323887 0.01374536
0.16725424 -0.33463603 0.827277 0.11288998 0.0077208485 0.99357748 0.0016902209
0.15184201 -0.28795573 0.83086473 0.098576657 -0.0040752003 0.99512112 0.0016087786
0.11374917 -0.388237 0.83519703 0.049905188 0.02109755 0.99853116 0.00049537781
0.040458597 -0.2644183 0.83503324 -0.050855424 0.0559205 0.99713916 0.0081859231
0.048638735 -0.3682467 0.83413273 -0.011006687 0.026404887 0.99959069 0.0017756828
0.049073875 -0.3467167 0.83369452 -0.0053317342 0.014417974 0.99988186 0.0010120004
0.17368771 -0.30691829 0.82469195 0.11919528 -0.0020803988 0.99286866 0.0016306512
-0.042593017 -0.34482223 0.69451362 -0.99975872 0.014712046 0.016315386 0.00041486105
-0.034069136 -0.44684336 0.82074422 -0.805484 -0.17934638 0.56482768 0.12311472
0.021849696 -0.18984829 0.72251368 -0.18107855 0.98343772 -0.0077882088 0.023689972
-0.031474724 -0.20063089 0.72574353 -0.74440038 0.66753203 0.016399547 0.073210955
0.0048951088 -0.18979421 0.82329792 -0.32502708 0.74791729 0.57877213 0.077167682
-0.042610966 -0.36605081 0.72197437 -0.99907535 0.02598824 0.034250293 0.00012784576
-0.037474785 -0.25799885 0.76146126 -0.98399323 0.1482065 0.098954909 0.010935786
0.092558019 -0.18950927 0.69392258 0.014965909 0.99912691 -0.039004575 0.0006226041
-0.042176384 -0.30371779 0.63274109 -0.92805219 0.064345829 -0.36684969 0.056791663
-0.042763103 -0.24841629 0.65394443 -0.94808066 0.1759892 -0.26489776 0.049802866
-0.018444991 -0.25252008 0.83554488 -0.67749554 0.14946575 0.72018045 0.082291998
-0.027961211 -0.30626395 0.82776809 -0.8366313 -0.022438195 0.54730666 0.054729268
0.041615658 -0.19147696 0.6465193 -0.00080320734 0.95847368 -0.28517985 0.035193592
-0.040450092 -0.27111721 0.63717121 -0.90587503 0.080331765 -0.41585732 0.050856616
-0.031652227 -0.19885805 0.77968341 -0.81619257 0.54847533 0.18167165 0.064380266
-0.043000348 -0.37891448 0.71546882 -0.9990564 0.027824361 0.03334922 0.00012757258
-0.03498308 -0.29819623 0.81252062 -0.94796145 -0.0066225389 0.31831622 0.03434772
0.068171173 -0.19231553 0.81887859 -0.034752581 0.8615002 0.50656658 0.073030643
0.10375545 -0.19289339 0.821343 0.041244 0.88493091 0.46389243 0.07767605
0.048653148 -0.20141919 0.8298524 -0.035768006 0.76070797 0.64810801 0.063690007
0.12282037 -0.36152646 0.83309805 0.064801179 0.022714516 0.9976396 0.00089173298
0.056315653 -0.18845199 0.80078584 -0.012251621 0.94153428 0.33669442 0.052595969
0.13048436 -0.28951991 0.83266532 0.084578335 -0.0051244311 0.99640363 0.0015798454
0.051286168 -0.25475729 0.83479297 0.011896717 0.127662 0.99174643 0.010198489
-0.032908041 -0.22278525 0.80384481 -0.91700011 0.31091645 0.24988331 0.044702262
0.026372291 -0.32782906 0.83477235 -0.18725538 0.024355624 0.98200923 0.024554094
-0.035070933 -0.33798927 0.8075819 -0.90677196 -0.0011570225 0.42162001 0.041799162
0.12155454 -0.46303362 0.83360416 0.037224535 -0.46164429 0.88628381 0.10424982
-0.044931833 -0.43661466 0.73751909 -0.98586679 -0.15365796 0.066752903 0.02970258
-0.044841398 -0.38234675 0.65646249 -0.98618108 -0.03784474 -0.16129054 0.028095255
-0.044298448 -0.34365159 0.66355562 -0.99126738 0.035803385 -0.12691401 0.027800772
-0.041645553 -0.36814582 0.62705642 -0.85673106 -0.016367758 -0.51550359 0.074116528
-0.043124422 -0.41840264 0.77000922 -0.98926133 -0.056942776 0.13460894 0.015848381
-0.033304095 -0.20815103 0.7507301 -0.86319828 0.50216788 0.052117009 0.059544038
-0.029765194 -0.26551908 0.82657927 -0.86543906 0.065518908 0.49671167 0.064722069
-0.031712614 -0.24372332 0.81675142 -0.90650523 0.2397427 0.3475222 0.060841095
-0.03769381 -0.21320714 0.63449657 -0.75669956 0.47409961 -0.45015031 0.095966697
-0.037097 -0.38037241 0.61843145 -0.70916283 0.018952215 -0.70478988 0.077667892
-0.0085855369 -0.19176577 0.81073987 -0.43957752 0.79541367 0.4172394 0.07404919
-0.023803467 -0.24048147 0.83310604 -0.69329226 0.24158609 0.67895651 0.086103842
-0.041538145 -0.3935847 0.77373105 -0.98401654 0.026108408 0.17615281 0.013032013
-0.036432505 -0.36661357 0.80490291 -0.91259509 0.0060293428 0.40882009 0.045919195
-0.03997818 -0.29051661 0.76209319 -0.99533141 0.039304089 0.088150673 0.0014817019
-0.029902199 -0.37407106 0.82590747 -0.75264901 0.0005425507 0.65842181 0.063281864
-0.038121633 -0.37907445 0.8053636 -0.91779506 0.018076463 0.3966426 0.047648426
-0.030200943 -0.23906992 0.82574099 -0.80216509 0.25804523 0.53846437 0.081628397
-0.04430636 -0.39376527 0.67600882 -0.99798989 -0.0044114259 -0.063218854 0.0070182495
-0.036563866 -0.45496041 0.61077547 -0.63812685 -0.26583254 -0.72258371 0.12042408
-0.032548212 -0.29052547 0.61706114 -0.70548213 0.066645458 -0.70558715 0.058568124
-0.040909663 -0.23901446 0.69233721 -0.96453291 0.26205954 0.031636853 0.032109868
-0.040958032 -0.28956008 0.74341393 -0.99798828 0.035869479 0.052274812 0.00033183536
-0.030081119 -0.25996318 0.82438427 -0.88853365 0.10249911 0.44721559 0.057259154
-0.043517955 -0.41082335 0.74069285 -0.99807572 -0.037499871 0.049383033 0.0052025551
-0.042981792 -0.38482016 0.73854482 -0.99810261 0.030985987 0.053207532 0.00038102624
-0.0040544029 -0.19858825 0.82933033 -0.37838998 0.6409753 0.66781104 0.085102595
-0.039942421 -0.24357085 0.71297079 -0.97022188 0.23352225 0.064317927 0.029056504
0.15562412 -0.1969543 0.63438606 0.34516123 0.79395467 -0.50049961 0.079507366
-0.031310286 -0.21606416 0.7474947 -0.89390922 0.4449386 0.054368936 0.059624713
0.01575244 -0.47563502 0.83689165 -0.1605626 -0.53976715 0.82636017 0.11706806
0.050256804 -0.41614005 0.83775914 -0.007387876 -0.044239789 0.99899364 0.007545549
-0.029530328 -0.42811292 0.61322081 -0.66460258 -0.085015997 -0.7423448 0.076628156
-0.035924561 -0.22674924 0.76189494 -0.94495207 0.30996978 0.10480587 0.032128908
-0.038447633 -0.22422276 0.72129762 -0.91737264 0.39375505 0.058175527 0.05117752
-0.032666292 -0.20322093 0.76083601 -0.84628397 0.52654415 0.080961317 0.055019174
-0.04107561 -0.26325965 0.70905018 -0.99596596 0.081793547 0.036900599 0.0022403295
-0.04284383 -0.32811314 0.69604832 -0.99957937 0.019417701 0.021543039 0.00025270367
-0.031818464 -0.30347228 0.82428336 -0.88838375 -0.016139481 0.45881784 0.044780347
0.14123818 -0.47397393 0.83132541 0.11914283 -0.70861411 0.69546473 0.11769426
-0.00091821066 -0.19101118 0.73092663 -0.41213155 0.91096991 -0.016773162 0.060023278
-0.041133899 -0.43913773 0.79755163 -0.95230436 -0.15187457 0.26467043 0.077464774
-0.03560707 -0.24671035 0.79106909 -0.9540506 0.23474111 0.18623662 0.029449187
-0.040935852 -0.3898769 0.78448731 -0.96944916 0.041610289 0.24173735 0.025965612
-0.04033104 -0.45231068 0.80725396 -0.91330725 -0.22573388 0.33898994 0.10830418
-0.039130885 -0.3629801 0.78494269 -0.96784329 0.0044245971 0.25151512 0.026809527
-0.043677509 -0.39100358 0.70937651 -0.99929482 0.02397503 0.028896408 0.00014192544
0.15401025 -0.36413848 0.83138669 0.096271262 0.029482979 0.99491841 0.0012461992
-0.033039898 -0.21698099 0.78919816 -0.91315156 0.34617406 0.21521567 0.045447018
-0.039277077 -0.22504035 0.70457697 -0.9060359 0.41630983 0.076060317 0.052971706
-0.043597132 -0.47058293 0.71356374 -0.89166367 -0.45023042 0.047206677 0.077249981
-0.041722856 -0.30909041 0.71977156 -0.99885505 0.026433846 0.03987246 0.00010193016
-0.032928318 -0.42869392 0.60941124 -0.65035015 -0.077185936 -0.75570291 0.073913954
-0.033765487 -0.29521054 0.61973029 -0.72376066 0.060089301 -0.6874299 0.056781206
-0.038592786 -0.34462535 0.61356521 -0.71525723 -0.050841819 -0.6970095 0.069927976
-0.044128526 -0.31842723 0.66200191 -0.99124181 0.041932382 -0.12522469 0.023854028
-0.038905624 -0.21665356 0.67571419 -0.8233732 0.56410325 -0.062000819 0.066438146
-0.039164342 -0.2947326 0.78626198 -0.98321497 0.021211758 0.18121374 0.0116868
-0.041963115 -0.31480312 0.72714108 -0.9987554 0.024849847 0.043245703 0.00013599488
-0.040955652 -0.2911323 0.73686713 -0.99817061 0.035532095 0.048917416 0.00028853607
-0.044904534 -0.30369544 0.64903146 -0.9695673 0.06236938 -0.23674704 0.044965334
-0.040337939 -0.36525875 0.77509773 -0.98725212 0.029175673 0.15646747 0.00949133
0.12746365 -0.43494761 0.83394575 0.066189587 -0.14855219 0.98668694 0.038664125
0.14445749 -0.19368728 0.82599801 0.11529393 0.80870789 0.57680053 0.11299866
0.087210208 -0.18982407 0.82239932 -0.010100053 0.88631314 0.46297628 0.07254649
-0.041615795 -0.40389663 0.784504 -0.96857595 0.027866108 0.24715202 0.025198689
-0.034423634 -0.28974694 0.81361806 -0.94823545 0.017137872 0.31710526 0.037585862
0.1472383 -0.32678127 0.83084965 0.090663716 0.0020201397 0.99587959 0.0015863143
-0.030743843 -0.35844997 0.82281697 -0.79958618 0.0001772723 0.60055137 0.056621052
0.10832965 -0.34396839 0.8336218 0.06068401 0.012856168 0.99807423 0.00098058349
0.13961111 -0.19185354 0.64562815 0.23246735 0.86740929 -0.43995473 0.068177007
0.14431228 -0.46206906 0.83187789 0.16004284 -0.42641059 0.89025855 0.10568001
-0.023744719 -0.26324034 0.83396971 -0.78313631 0.05880807 0.61906308 0.077754579
0.14114232 -0.43045655 0.8333075 0.10872032 -0.12795261 0.98580325 0.030322846
-0.045074999 -0.45390403 0.6722669 -0.961896 -0.25868732 -0.088526443 0.057085715
-0.024743671 -0.19322604 0.68561095 -0.59503609 0.80356163 -0.014857702 0.066466555
-0.042239424 -0.32909924 0.71788645 -0.99913007 0.019259339 0.036988277 9.125068e-05
0.13084473 -0.33681795 0.83272469 0.090371825 0.015893811 0.99578124 0.0016840156
-0.045187443 -0.36731708 0.65743357 -0.98385745 -0.0063496791 -0.17884134 0.037916493
-0.038004678 -0.32070434 0.79237175 -0.96533179 0.006558157 0.26094329 0.027644644
0.099217221 -0.18811789 0.77425873 0.030442268 0.990686 0.13271962 0.01794224
0.037002366 -0.30704299 0.83492678 -0.092634454 0.013000852 0.99561524 0.011124616
0.081404731 -0.1912006 0.64485866 -0.02432547 0.93898916 -0.34308538 0.039251134
-0.038835559 -0.27472427 0.76264095 -0.99375951 0.053250011 0.098012872 0.0020919128
-0.037785754 -0.24818173 0.74577922 -0.97738779 0.19836648 0.073237874 0.018748563
-0.035993982 -0.24795659 0.77753782 -0.96607846 0.21276651 0.14636576 0.025079768
-0.03737339 -0.27157864 0.79339707 -0.97895801 0.061304014 0.19463573 0.015546128
0.11632154 -0.27246439 0.83365536 0.06148418 0.018147901 0.9979431 0.0018848821
0.080286548 -0.44833571 0.83653766 0.070313528 -0.28923833 0.95467126 0.059842374
0.1137825 -0.19111991 0.82141101 0.047081515 0.88690823 0.45954001 0.078400739
0.14900601 -0.24114345 0.83226067 0.07187143 0.19716328 0.97773266 0.053426266
0.11372615 -0.30863008 0.83347863 0.068092667 -0.0084978892 0.99764287 0.0016210945
0.063962638 -0.1886808 0.78445131 -0.012089642 0.98853254 0.15052314 0.029113719
0.13661849 -0.25261545 0.83278048 0.017698223 0.11517625 0.99318743 0.020028038
0.022900116 -0.42668262 0.8377499 -0.17312531 -0.074246645 0.98209727 0.035389453
-0.042444598 -0.37261188 0.75220782 -0.99638551 0.037437782 0.076251768 0.0011364478
0.16305578 -0.45466435 0.83156836 0.27262974 -0.28810787 0.91796887 0.07968431
0.039202113 -0.47110999 0.83663571 -0.049721554 -0.49983045 0.86469495 0.074104764
-0.029677171 -0.36188903 0.82288224 -0.76863259 -0.0166543 0.63947362 0.064697571
-0.042391013 -0.25559267 0.66921389 -0.98902148 0.12296062 -0.081958309 0.020125534
-0.025983071 -0.25416002 0.83092475 -0.7842139 0.12705116 0.60734391 0.075296782
-0.031228868 -0.35449216 0.81997836 -0.8198753 0.00078756356 0.57254159 0.057656772
-0.021931732 -0.31320241 0.83400697 -0.71220469 -0.014125005 0.70182967 0.063285366
0.11602798 -0.41689742 0.83513874 0.064721592 -0.065269172 0.99576658 0.0096060233
-0.046318255 -0.44004962 0.71464002 -0.98138535 -0.18608133 0.047503907 0.042168338
0.15453152 -0.38743854 0.83209258 0.090285487 0.021705326 0.99567938 0.00075388787
-0.044226512 -0.35592234 0.66539097 -0.99544007 0.02220656 -0.092768058 0.020786727
-0.010859488 -0.20638461 0.61829752 -0.40272161 0.60363126 -0.6880731 0.103526
-0.029334303 -0.29233688 0.82496107 -0.84533042 0.01172297 0.53411525 0.055901255
-0.046634682 -0.42879868 0.65657437 -0.97811824 -0.095528431 -0.18482201 0.029300924
0.042121068 -0.1892291 0.71458519 -0.045704667 0.99885589 -0.01406931 0.001117346
-0.037852719 -0.23414987 0.73868066 -0.95605707 0.28738189 0.058021106 0.039225932
-0.044845644 -0.39085019 0.64520979 -0.95468867 -0.028324751 -0.29625541 0.05961591
-0.043934438 -0.39958206 0.71852428 -0.9993546 0.021014469 0.029134287 0.00022855526
-0.036644232 -0.38588008 0.81352443 -0.89389092 0.015133837 0.44802907 0.055229295
-0.045913469 -0.41355139 0.65765196 -0.98476779 -0.042007886 -0.16872348 0.023467712
-0.028250443 -0.19945121 0.63926661 -0.61718768 0.70404506 -0.35128334 0.10113158
-0.034455836 -0.32833418 0.81652313 -0.88395077 -0.024930533 0.46691483 0.047624752
-0.0378443 -0.26232252 0.62998402 -0.87598115 0.089949414 -0.47388399 0.051957436
-0.023388071 -0.195301 0.73378116 -0.63354838 0.7736361 0.010179538 0.074392766
-0.020249199 -0.19807597 0.6255644 -0.48236826 0.68253708 -0.54905736 0.10372702
0.17335066 -0.19078013 0.70616335 0.25288752 0.95938444 -0.12501799 0.019936005
0.15345876 -0.19678602 0.62202668 0.32695067 0.74710017 -0.57874393 0.084662966
-0.039740991 -0.35163784 0.61570591 -0.78039896 -0.021110743 -0.62492537 0.074032068
0.16952598 -0.19578974 0.68514556 0.34068576 0.92862868 -0.14690812 0.030656999
0.12100767 -0.19525713 0.62888032 0.157306 0.81497115 -0.55774271 0.068358697
0.036984827 -0.19091856 0.67677343 -0.053889625 0.99118501 -0.12102987 0.010352307
0.018298171 -0.23723035 0.60954893 -0.20246552 0.27961168 -0.93852276 0.047701228
-0.016523927 -0.25086093 0.61451185 -0.53765088 0.18385983 -0.82287735 0.068782099
0.078123346 -0.32598042 0.60643923 -0.047931511 0.013002526 -0.99876601 0.00040736605
0.15384293 -0.20680675 0.61436516 0.33240983 0.64875209 -0.68456149 0.093148373
0.10656796 -0.2328075 0.60579592 0.052110605 0.43481234 -0.89901209 0.040511828
0.088305578 -0.23545533 0.60747057 0.035541996 0.46034512 -0.88702828 0.045984857
0.013141127 -0.231911 0.60957801 -0.21858631 0.30429578 -0.92715919 0.052010506
0.051677052 -0.24897911 0.60888273 -0.045204721 0.29646215 -0.95397419 0.03489377
0.17646027 -0.19029307 0.78548139 0.047921132 0.97299737 0.22578686 0.056902405
0.011245464 -0.27351832 0.60952282 -0.27944237 0.038516816 -0.95938957 0.023611773
-0.01939832 -0.27593467 0.61260343 -0.5482291 0.044246539 -0.83515692 0.057156902
0.02920356 -0.21824762 0.61078161 -0.071571276 0.5200932 -0.85110557 0.064606003
0.15650101 -0.25406051 0.60521334 0.34916094 0.25203386 -0.90253288 0.05275514
0.021659946 -0.29392418 0.61057383 -0.20516014 0.012076866 -0.97865391 0.016664136
-0.028012568 -0.2583091 0.61584306 -0.70417488 0.13308407 -0.69744271 0.065069504
0.10556253 -0.27184433 0.60459203 0.010051859 0.068613216 -0.99759269 0.0076518375
-0.008429734 -0.41884953 0.60680962 -0.32661423 0.011951244 -0.94508213 0.042290334
0.1594978 -0.30842534 0.60624409 0.19324675 0.0091956174 -0.98110718 0.021136872
0.019246211 -0.36158589 0.60779488 -0.18481736 0.022912115 -0.9825058 0.021957655
-0.013563107 -0.20414811 0.61918229 -0.40652752 0.60163093 -0.68758678 0.10499942
-0.0093428176 -0.19852793 0.61976188 -0.3151857 0.66268826 -0.67933953 0.091758616
0.11499608 -0.22705832 0.60682249 0.069021828 0.47130102 -0.87926751 0.050313488
0.16755204 -0.2974132 0.60793209 0.26352963 0.039609589 -0.96383774 0.03320194
-0.033072624 -0.47035775 0.61034006 -0.53530478 -0.51378328 -0.67042935 0.13529097
-0.028845977 -0.20001495 0.72347653 -0.69690603 0.71710795 0.0088481661 0.075697131
-0.02648587 -0.41389319 0.60932136 -0.54409009 0.032390378 -0.83840132 0.056760639
-0.023217332 -0.47659373 0.61124462 -0.43174455 -0.607292 -0.66692811 0.12636369
-0.015768295 -0.44329688 0.6060766 -0.39280093 -0.18944156 -0.8998996 0.091802195
-0.028900562 -0.23837425 0.61495143 -0.66875136 0.2433217 -0.70254266 0.079036072
0.13016622 -0.24147096 0.60577446 0.16625181 0.34724948 -0.92291826 0.05441251
0.072046325 -0.20395498 0.61701733 0.043584041 0.73647356 -0.67506081 0.064118184
0.11412963 -0.25363269 0.60365486 0.076237351 0.24805841 -0.96574056 0.024791772
0.052846372 -0.23361266 0.60779804 0.014604077 0.43128324 -0.90209836 0.048496496
0.10519342 -0.28028712 0.6041255 -0.0027535306 0.020032754 -0.9997955 0.004468862
0.085626394 -0.19032352 0.65861666 -0.017628476 0.96760398 -0.25185645 0.024446417
0.042926513 -0.19121893 0.66042274 -0.0054946425 0.96621639 -0.25767374 0.032858599
0.13190179 -0.25872019 0.60440135 0.17096591 0.24247022 -0.9549759 0.044991195
0.13619721 -0.47117484 0.60437167 0.14875782 -0.523274 -0.83908015 0.13364033
0.0064353584 -0.26850489 0.60977072 -0.30318913 0.042686611 -0.9519738 0.029882181
0.14639232 -0.43781203 0.60264373 0.16370672 -0.12310947 -0.97879726 0.054920781
0.014560071 -0.19533229 0.62484568 -0.13834353 0.83515072 -0.5323385 0.072606273
0.13808163 -0.3837336 0.60387617 0.090315178 0.026558306 -0.99555904 0.012801121
-0.037097983 -0.46544433 0.612881 -0.63135976 -0.43380317 -0.64280605 0.13794181
-0.026096513 -0.26904392 0.61428308 -0.6801191 0.070449494 -0.72970879 0.060067434
0.044852279 -0.24874264 0.60863733 -0.049753752 0.2621161 -0.96375287 0.034810543
0.1431836 -0.19397467 0.63153398 0.25357667 0.81888676 -0.51490128 0.072935298
0.1236258 -0.22540653 0.60788262 0.13355687 0.50129485 -0.85490704 0.065987445
0.10799418 -0.37505507 0.60340148 0.019996492 0.032579407 -0.99926913 0.0031706779
0.098527409 -0.43318656 0.60212404 -0.021008825 -0.15199883 -0.98815739 0.045524213
0.13621201 -0.29843983 0.60244536 0.10302275 0.0087342681 -0.99464065 0.019139582
0.10206579 -0.42738256 0.60212326 -0.0011172618 -0.10124592 -0.99486077 0.028426386
0.12489773 -0.43925783 0.6021567 0.056940582 -0.16754045 -0.98421949 0.06074059
0.15326694 -0.47113267 0.60445362 0.29069421 -0.46752575 -0.83481532 0.14317288
0.084810585 -0.43754244 0.6027087 -0.043817393 -0.17021447 -0.98443234 0.049732618
0.10343785 -0.32097033 0.60397023 0.00317043 -0.011404698 -0.99992996 0.003351799
0.11125345 -0.46841007 0.6022858 0.01508951 -0.4065212 -0.9135167 0.097461805
0.13367654 -0.27897406 0.60338777 0.083495751 0.051887427 -0.99515635 0.016100746
0.10446873 -0.41454875 0.60249799 -0.002015139 -0.029940372 -0.99954963 0.01085126
0.095687665 -0.34128916 0.603652 -0.011278561 0.0091098277 -0.99989486 0.0018342019
0.076213233 -0.2696164 0.60752553 -0.051328525 0.073000126 -0.99601024 0.0034127508
0.13077512 -0.40198484 0.60387897 0.060704198 0.02390925 -0.99786937 0.0056170463
0.17028758 -0.44565824 0.60353762 0.3255482 -0.19192266 -0.92584234 0.083946325
0.16314034 -0.40819964 0.60848194 0.15635942 0.0041078818 -0.9876917 0.014060765
0.076812908 -0.19048533 0.66900676 -0.027392039 0.98226988 -0.18546033 0.018598966
0.027486756 -0.42003092 0.60663378 -0.063563846 -0.079312675 -0.99482113 0.016390355
0.048217993 -0.45963109 0.60550421 -0.036439996 -0.39211437 -0.91919446 0.087884873
0.032875028 -0.33101124 0.60907882 -0.078334749 0.025457863 -0.996602 0.0019874945
0.05039259 -0.39471334 0.60583997 -0.044133443 0.020095844 -0.99882358 0.00032376093
0.05791086 -0.4429141 0.60419619 -0.067872025 -0.26280195 -0.96245968 0.070185572
0.0069621289 -0.22044961 0.61063528 -0.24533068 0.42705238 -0.87030983 0.07457608
-0.0043378538 -0.42649621 0.60648566 -0.30461293 -0.040040292 -0.95163429 0.051373888
-0.0015944199 -0.46698263 0.60440862 -0.2276191 -0.44042552 -0.86845541 0.095606245
-0.0032993541 -0.40688908 0.60678685 -0.34647834 0.050673462 -0.9366883 0.043360818
-0.012132736 -0.30129027 0.61030483 -0.49800661 0.049930632 -0.86573452 0.062723666
0.023862433 -0.45594355 0.60682058 -0.083474286 -0.38714164 -0.91823381 0.081867762
0.021401929 -0.38946903 0.60734552 -0.1293712 0.030468863 -0.99112809 0.010306108
0.04518576 -0.29399997 0.60957879 -0.062501296 0.013557459 -0.99795282 0.00064815884
0.054352164 -0.38568607 0.6060881 -0.040619917 0.023552371 -0.99889702 0.00021823036
0.065260708 -0.26807582 0.60950291 -0.055139869 0.079237364 -0.99532968 0.0043082093
0.052515566 -0.43748257 0.60464787 -0.075830504 -0.18980809 -0.97888845 0.05284391
0.017886754 -0.27110365 0.60887921 -0.23435469 0.059532378 -0.97032666 0.017119018
0.026090723 -0.20617293 0.61391038 -0.087543666 0.68696165 -0.72140121 0.062343832
0.036566712 -0.39681917 0.60705131 -0.064363606 0.022245845 -0.99767852 0.0013780795
0.067621045 -0.42353866 0.60383534 -0.058621846 -0.08600124 -0.99456888 0.024774591
0.065911256 -0.35949075 0.60746318 -0.036269311 0.030617779 -0.99887294 0.00028154193
0.12538379 -0.46880054 0.60443091 0.073683441 -0.4758226 -0.87644947 0.11681024
0.035987735 -0.2095657 0.61404747 -0.0049018911 0.66955674 -0.74274468 0.062155239
0.013038146 -0.19931462 0.61661154 -0.13805366 0.74777293 -0.64944345 0.067968935
0.030121462 -0.37843218 0.60716677 -0.099290624 0.0293152 -0.99462652 0.0045346892
0.090340361 -0.43919072 0.60254949 -0.022391573 -0.20766717 -0.97794324 0.059478592
0.016251337 -0.45522836 0.60698974 -0.11755463 -0.33305404 -0.93555111 0.075595602
0.023111336 -0.19036135 0.69805455 -0.17322978 0.98471141 -0.018301627 0.020502808
-0.0043313494 -0.19022091 0.77716208 -0.4607065 0.87299156 0.16011012 0.06606251
0.054823976 -0.23448204 0.60746068 0.012905842 0.43659902 -0.89956367 0.049583334
-0.037299678 -0.4675456 0.61393994 -0.61848432 -0.51228839 -0.59585047 0.14001529
0.10697876 -0.26674488 0.60471684 0.019302905 0.095490463 -0.99524319 0.0085416734
-0.0057931743 -0.35510159 0.60904831 -0.44580126 0.042254634 -0.89413416 0.062950373
0.1485554 -0.37653825 0.60402411 0.12143873 0.0099891713 -0.9925487 0.013909033
0.077903442 -0.33213019 0.60635066 -0.047731709 0.014137428 -0.99876016 0.00039986722
0.025960976 -0.42295128 0.60655034 -0.057351813 -0.097978339 -0.99353462 0.022968298
0.15788029 -0.45863736 0.60361981 0.34697098 -0.29153055 -0.89141518 0.12034038
0.11317443 -0.19953807 0.6172893 0.076458491 0.7288667 -0.68037295 0.059210576
0.13305354 -0.29508421 0.60257965 0.088792965 0.0091158468 -0.99600846 0.018457768
0.11953498 -0.43598592 0.60279709 0.048527963 -0.15707992 -0.98639286 0.0591368
0.12307528 -0.19067198 0.67569888 0.13549776 0.98142701 -0.13579889 0.025723813
-0.027746094 -0.37404451 0.61225319 -0.67638749 -0.0062077316 -0.73651975 0.072776571
0.14927773 -0.4773891 0.60608971 0.21663705 -0.55584174 -0.80256361 0.14593217
0.037541855 -0.42318404 0.60622871 -0.058540758 -0.089096971 -0.99430114 0.020152785
0.057393618 -0.28173202 0.61224198 -0.055859361 0.024986008 -0.99812597 0.00081603514
0.04137272 -0.38860801 0.60747153 -0.053827308 0.027734378 -0.99816507 0.00058784278
-0.026196422 -0.19671273 0.73614401 -0.65348303 0.75693756 0.002341242 0.075023152
0.14111571 -0.41812205 0.60369617 0.10664525 -0.054116856 -0.9928233 0.020184748
0.17090207 -0.24835078 0.61019397 0.39216894 0.26013494 -0.88234538 0.056476168
0.085687332 -0.19185598 0.63070238 0.017595418 0.8729564 -0.4874807 0.050626837
0.077349991 -0.47390166 0.60100216 -0.051208131 -0.47949809 -0.87604761 0.085952766
0.045669712 -0.18989384 0.703991 -0.033289406 0.9992575 -0.019397439 0.00062413845
0.15726072 -0.18922909 0.75546604 0.059804492 0.99738693 0.040529795 0.0073440806
0.11250709 -0.36169171 0.60355377 0.045569599 0.01780027 -0.99880254 0.0088653015
-0.011568802 -0.31407768 0.61090535 -0.52217329 -0.00070841226 -0.85283917 0.062362045
0.12508669 -0.25316581 0.60460889 0.14372841 0.26665646 -0.95301443 0.041784115
0.014682509 -0.21171696 0.6116088 -0.16936751 0.56932664 -0.8044762 0.072533809
-0.013146237 -0.30187181 0.61393088 -0.52837324 0.063481197 -0.84663558 0.064662717
-0.014173187 -0.42940757 0.60655051 -0.3794252 -0.05458435 -0.92361087 0.063247591
0.029923409 -0.37237918 0.60774058 -0.10433751 0.026401654 -0.99419147 0.0048173009
0.10172645 -0.36684853 0.60382169 0.013114811 0.025297467 -0.99959391 0.0031472784
0.1551422 -0.42205435 0.60379124 0.15708156 -0.075925171 -0.98466277 0.029311845
0.041098293 -0.47122049 0.60789466 -0.035919484 -0.61534965 -0.78743535 0.082384251
0.089266986 -0.47980526 0.60486132 -0.030645983 -0.63564128 -0.77137601 0.10030846
0.12740076 -0.1914078 0.65402645 0.15343532 0.93283671 -0.3259958 0.053194754
0.099331029 -0.37395793 0.60419643 -0.0008523328 0.025279339 -0.9996801 0.0017265393
0.019674348 -0.28836715 0.61075318 -0.22715822 0.0092107113 -0.97381431 0.017721353
0.054199915 -0.47083572 0.60667491 -0.018027574 -0.49024999 -0.87139541 0.096770875
0.0085527562 -0.39037573 0.60711575 -0.28650916 0.041669276 -0.9571709 0.047137227
-0.013287724 -0.38471282 0.60935026 -0.531717 0.030650144 -0.84636736 0.079799145
-0.012477078 -0.39155328 0.6084224 -0.49257037 0.023072494 -0.86996669 0.064880423
0.1727155 -0.22311758 0.61078155 0.48103678 0.45357391 -0.75024945 0.083019398
0.16720657 -0.35483968 0.60763121 0.19307414 -0.0081041036 -0.98115063 0.019256704
0.11414359 -0.34678566 0.60309011 0.054114901 -0.0043365667 -0.99852532 0.0085614417
0.0079587167 -0.42303762 0.6059981 -0.19921456 -0.039754894 -0.97914916 0.037033305
0.033449456 -0.44993418 0.60655183 -0.047593262 -0.31005129 -0.9495278 0.07030087
0.046556268 -0.20908271 0.61208141 0.013985636 0.65025932 -0.75958365 0.059132349
0.1191861 -0.19377697 0.81939834 0.075847469 0.86137974 0.50226688 0.090114981
0.086507387 -0.40396193 0.60400581 -0.022761872 0.020567155 -0.9995293 0.0011553521
0.16985957 -0.42231235 0.61165959 0.2586244 -0.073171385 -0.96320266 0.029129745
0.13177235 -0.27446267 0.60345483 0.09470544 0.088978812 -0.99152082 0.019635402
0.032460731 -0.22161402 0.60960132 -0.044340312 0.50351232 -0.86284947 0.0650215
0.084177054 -0.23335753 0.60679781 0.04065036 0.47659692 -0.87818164 0.045346007
0.0067485576 -0.38792968 0.60739398 -0.3100782 0.040890966 -0.94983125 0.050708205
0.17151257 -0.23753421 0.60836244 0.38473958 0.33549276 -0.85989535 0.068981051
0.087977611 -0.35785645 0.60628903 -0.030279106 0.019497998 -0.99935126 0.00054268108
0.059151679 -0.33535725 0.60780096 -0.048153348 0.022138217 -0.99859458 0.00030641811
-0.017677076 -0.23849598 0.61566055 -0.58363706 0.25357902 -0.77140492 0.08136528
0.0031699846 -0.32735607 0.60904676 -0.38708177 -0.022987248 -0.92175883 0.056233242
0.067256525 -0.44877326 0.60346204 -0.055784684 -0.31866241 -0.94622529 0.084000163
-0.016398503 -0.26122746 0.61255467 -0.50761443 0.082165323 -0.85765755 0.058973879
0.056213401 -0.4148013 0.60546279 -0.04454238 -0.041245967 -0.99815571 0.0081669036
0.05335265 -0.34431705 0.6072675 -0.046371479 0.027246445 -0.99855262 0.00030164525
0.0098172342 -0.24639992 0.60904253 -0.22341485 0.23711123 -0.94544381 0.040026054
0.13301133 -0.20180446 0.61596197 0.19125523 0.6975041 -0.69058639 0.082325727
0.12057881 -0.18853655 0.79285377 0.052301873 0.96263653 0.26569796 0.048101515
0.17191444 -0.35056242 0.60874784 0.21621595 -0.015005459 -0.97623026 0.018631672
0.15447558 -0.25340191 0.60524637 0.32101196 0.2601099 -0.91065592 0.053839363
0.15758337 -0.31384972 0.60518956 0.18546759 0.0054815845 -0.98263508 0.020339889
0.15615563 -0.35547122 0.60536724 0.18386883 -0.012142199 -0.98287582 0.016961467
0.13910449 -0.40672937 0.60384208 0.095660403 0.0034286384 -0.99540812 0.006493065
0.0048633316 -0.18973246 0.77568561 -0.35286722 0.92612928 0.13330181 0.054583501
0.034572568 -0.20498301 0.6128844 -0.016500896 0.68106639 -0.73203576 0.059705824
0.10921132 -0.19081657 0.66010541 0.077488653 0.96535724 -0.24916027 0.035071582
0.069605827 -0.18869834 0.79565966 -0.019649323 0.94955426 0.31298673 0.05364266
0.15251666 -0.46294427 0.60354197 0.26266024 -0.41422334 -0.87145203 0.13870119
0.1237834 -0.37063178 0.60364687 0.065739065 0.017057935 -0.99769104 0.011504497
0.14349391 -0.20017155 0.61519682 0.2580688 0.69816989 -0.66780186 0.082364358
-0.026513482 -0.30129316 0.61161715 -0.64361441 0.035629656 -0.76452011 0.056076143
0.011924991 -0.33524358 0.60739833 -0.3007943 0.010838734 -0.95362747 0.045119096
0.02602151 -0.47332609 0.607822 -0.090972036 -0.61390191 -0.78412277 0.080331177
0.013553355 -0.34868076 0.60746932 -0.29414895 0.026090588 -0.95540345 0.040858049
0.010158871 -0.30240431 0.60978556 -0.28610113 0.017729033 -0.95803535 0.040699385
0.061132424 -0.35447574 0.60736239 -0.04199408 0.030158779 -0.99866253 0.00023650585
0.019122962 -0.47056684 0.60725284 -0.10267688 -0.62280172 -0.77561289 0.083835065
0.013036313 -0.31877095 0.60866851 -0.2991375 0.025187718 -0.95387751 0.0387992
0.044433869 -0.18904735 0.7707845 -0.045997418 0.9969601 0.062886924 0.0066066738
0.12113159 -0.26750806 0.60312933 0.064625815 0.10432393 -0.99244148 0.016313488
-0.030066911 -0.19867302 0.66158444 -0.63906223 0.75718528 -0.13516629 0.081782646
-0.039025351 -0.35106564 0.61399263 -0.7500056 -0.035076786 -0.66050071 0.069984756
0.028854148 -0.20332365 0.61469829 -0.069400728 0.69816965 -0.71256059 0.062260468
-0.042814087 -0.33902758 0.61498201 -0.79885739 -0.022483097 -0.60110027 0.068244211
0.15024479 -0.18921211 0.76095098 0.056426626 0.9950614 0.081663527 0.014746983
0.17319344 -0.18923019 0.74190855 0.064201929 0.9965629 -0.052348722 0.0086942203
-0.016514143 -0.19373524 0.74280101 -0.56352842 0.82601202 0.011826843 0.071597911
0.021574508 -0.18961018 0.8132869 -0.20932731 0.85813504 0.46881387 0.066223755
0.069281943 -0.19405676 0.62425828 0.035484172 0.83587581 -0.54777062 0.05852966
0.035396393 -0.18920936 0.75473505 -0.093598492 0.99546248 0.017140128 0.0058717956
0.068321377 -0.19125162 0.8187629 -0.031873494 0.87677521 0.47984293 0.068592206
0.033285245 -0.19101517 0.65247858 -0.031568807 0.96368259 -0.26517785 0.034500189
-0.041338317 -0.44041315 0.80062711 -0.94054687 -0.15695679 0.30122441 0.084592439
-0.0053728693 -0.19118266 0.76140088 -0.47121552 0.88140857 0.032784469 0.062670402
0.16598848 -0.19234811 0.6819464 0.32645622 0.93332368 -0.14944325 0.032299519
-0.037586641 -0.27200383 0.62279111 -0.85472441 0.080911659 -0.51273721 0.049883045
0.1235524 -0.43022886 0.60246247 0.070466772 -0.11967573 -0.99030918 0.047577381
-0.033528436 -0.19870773 0.70625842 -0.68930995 0.7244395 0.0062618554 0.07031431
-0.019352611 -0.4149031 0.60844636 -0.44766349 0.03303789 -0.89359152 0.053204019
