# .PCD v0.7 - Point Cloud Data file format
VERSION 0.7
FIELDS x y z
SIZE 4 4 4
TYPE F F F
COUNT 1 1 1
WIDTH 1407
HEIGHT 1
VIEWPOINT 0 0 0 1 0 0 0
POINTS 1407
DATA ascii
0.144292 -0.4362337 0.60404563
0.1434864 -0.39972219 0.60437417
0.1125213 -0.4237403 0.60314763
0.154052 -0.46274841 0.60464132
0.1603165 -0.39853331 0.60660797
0.1697025 -0.30370709 0.60447723
0.067965537 -0.47768819 0.60345137
0.1542626 -0.3226808 0.60599083
0.089334823 -0.43488449 0.6028471
0.1540897 -0.3070088 0.60576808
0.1024372 -0.46637321 0.6074847
0.1580085 -0.30098209 0.60592997
0.1629795 -0.24381261 0.60672802
0.1374111 -0.35887429 0.60488588
0.16609649 -0.48861611 0.60362083
0.154231 -0.4327375 0.60591882
0.1541926 -0.34615251 0.60612547
0.16341589 -0.29079849 0.60625881
0.1562707 -0.2864373 0.6097331
0.16301119 -0.2683059 0.60298741
-0.09453921 -0.5008359 0.4295629
-0.089068957 -0.49816939 0.41984391
-0.01251304 -0.4915911 0.38058379
0.023080589 -0.4997606 0.39987051
0.25951871 -0.49778739 0.55658197
-0.059770521 -0.498945 0.3956508
-0.068522394 -0.5046072 0.40949959
0.1743241 -0.23440979 0.61017358
0.1335175 -0.29247549 0.60928518
0.122446 -0.2638959 0.60609281
0.046229959 -0.47940409 0.60511291
0.1408343 -0.50053543 0.59698713
0.165471 -0.33507511 0.60711312
0.026282329 -0.49511719 0.60399652
0.01703766 -0.4857311 0.60424632
0.0981206 -0.18735661 0.61126691
-0.0486794 -0.49557379 0.37836301
0.1393241 -0.49444789 0.41525799
0.03067985 -0.439776 0.6087749
0.085285842 -0.4705551 0.6043148
-0.03967689 -0.49511269 0.36689389
0.1634676 -0.34647721 0.605142
-0.03117701 -0.49361619 0.3929368
0.1675556 -0.407857 0.60465479
-0.01204167 -0.49521339 0.38237119
0.0078627616 -0.49355781 0.41844001
0.03579247 -0.49583581 0.43637189
0.118749 -0.50528502 0.58983588
0.1532166 -0.49073189 0.60460877
0.1203639 -0.46190849 0.60302258
0.1687647 -0.41376811 0.60665452
0.13086741 -0.48979911 0.6022746
0.1740126 -0.2487018 0.60676861
0.033972438 -0.50164312 0.35765299
-0.01903167 -0.49651891 0.37268671
-0.059904691 -0.49790159 0.37361121
-0.0051597361 -0.497078 0.40204221
0.0040522069 -0.49661231 0.388298
0.089011431 -0.50178993 0.29386309
0.1625172 -0.19272961 0.67548972
0.081284553 -0.18510149 0.68368542
0.040544029 -0.1880184 0.71366549
0.022800479 -0.19149441 0.70264661
0.01273686 -0.18514469 0.62346989
0.01124179 -0.1879963 0.6140849
0.0002810359 -0.1930337 0.76024228
-0.0099932253 -0.18630341 0.65971351
-0.01364218 -0.18658739 0.61643988
-0.031974752 -0.1849805 0.70259738
-0.042305019 -0.1863264 0.66632187
0.02309248 -0.19759899 0.61353493
0.1140702 -0.18906499 0.61677343
0.037864011 -0.2039907 0.6175729
0.123475 -0.2196621 0.61111468
0.1132539 -0.2319908 0.61238372
-0.04093096 -0.3396022 0.69394058
0.06676662 -0.18941399 0.81515282
-0.046381179 -0.3744567 0.72191411
-0.039373159 -0.2156616 0.73572117
-0.056068718 -0.45435059 0.70292431
-0.03979665 -0.2642557 0.67634028
-0.04129982 -0.26084921 0.67949921
-0.045981169 -0.2443278 0.68915939
-0.048373759 -0.45514429 0.70481402
-0.037007689 -0.2250537 0.71930981
0.1220139 -0.1887112 0.64311731
-0.040665809 -0.34492961 0.6111145
-0.0238511 -0.1924907 0.81123191
-0.036938552 -0.24858961 0.81628442
0.013138 -0.1897307 0.78963321
-0.038733959 -0.3009021 0.80900031
-0.041656729 -0.3412874 0.69195777
-0.04411751 -0.33874109 0.65192783
-0.044318318 -0.4174909 0.64691907
-0.046401139 -0.30116361 0.63553852
-0.042877201 -0.3346118 0.70658833
-0.046805318 -0.35740671 0.64732528
-0.043516491 -0.36397231 0.65393019
-0.045233011 -0.4740403 0.6858145
-0.043238159 -0.44338951 0.7064594
-0.040565912 -0.3001641 0.720505
-0.043222129 -0.2821877 0.80392653
0.122203 -0.1895515 0.81969541
-0.042627811 -0.36804149 0.62542927
-0.045770049 -0.22895589 0.63548583
-0.041388631 -0.21052229 0.64589697
-0.038337111 -0.27437711 0.76693052
-0.03592658 -0.2582604 0.82985651
-0.04168326 -0.2418617 0.70004487
-0.042368889 -0.36560759 0.77212358
-0.038512651 -0.3597596 0.78956938
-0.044646978 -0.39466459 0.78341109
-0.041941341 -0.3145664 0.71054667
-0.044114649 -0.44102001 0.71277589
-0.043239441 -0.30067381 0.71799648
-0.045471191 -0.45651811 0.69110042
-0.042199079 -0.28393191 0.66188937
-0.039509948 -0.33023229 0.79867947
-0.042585131 -0.26525959 0.62609428
-0.03626287 -0.19957121 0.79994792
-0.044704199 -0.30793861 0.63916111
-0.039760891 -0.194159 0.68909848
-0.044551551 -0.3695088 0.64259022
-0.034522239 -0.33001891 0.81682652
-0.05389607 -0.2191332 0.64865339
-0.04552174 -0.2168197 0.631145
-0.037342131 -0.47924569 0.60493439
-0.044273611 -0.205394 0.62121338
-0.036011159 -0.20642219 0.83120948
-0.043046951 -0.33315319 0.62285829
-0.021597501 -0.19343039 0.67294759
-0.043286622 -0.38628411 0.66522157
-0.039772868 -0.25370571 0.74675018
-0.01346868 -0.1922213 0.8104775
-0.0426929 -0.1971277 0.73018801
-0.041585799 -0.34490499 0.74416697
-0.041364972 -0.4436807 0.79803872
-0.04188728 -0.35905769 0.76802093
-0.04458439 -0.4363485 0.73688459
-0.037497099 -0.37070179 0.81306618
-0.041784611 -0.44103271 0.79386181
-0.043395098 -0.38959619 0.73994172
-0.04429597 -0.41594589 0.80936158
-0.04212594 -0.36697739 0.75965202
-0.043612119 -0.31348661 0.74489993
-0.04534382 -0.39797091 0.73432332
-0.039376318 -0.3299458 0.69512659
-0.044555601 -0.46787909 0.67855293
-0.042355239 -0.25065511 0.68594569
-0.03812271 -0.2727775 0.7811169
-0.036504392 -0.21012349 0.80096811
-0.045781609 -0.20394979 0.63101631
-0.04293495 -0.32735631 0.65544951
0.058440801 -0.187171 0.71167582
0.048125919 -0.1881959 0.77001822
-0.044287499 -0.38264021 0.73856503
-0.046115398 -0.27059999 0.6351589
-0.039642159 -0.3257322 0.7211675
-0.03822428 -0.1964521 0.77971178
-0.038004521 -0.2837626 0.81768668
-0.043282811 -0.41556421 0.76827008
-0.042395528 -0.40098119 0.78511238
-0.047832489 -0.46814221 0.7099402
-0.03598344 -0.2266825 0.72328287
-0.008544147 -0.1906238 0.73314911
0.036366578 -0.1917652 0.70181322
-0.04438382 -0.38016129 0.65320462
-0.04617637 -0.39202851 0.67797071
-0.04655749 -0.3371155 0.65717942
-0.03811669 -0.245253 0.78991538
-0.03891027 -0.29229549 0.7824012
-0.037936211 -0.2445931 0.77432412
-0.037944201 -0.280269 0.78660733
-0.03922379 -0.36159739 0.78420639
-0.03759915 -0.4499405 0.8195793
-0.035646979 -0.43818131 0.82639712
-0.04686147 -0.3593255 0.6595698
-0.044529911 -0.20136841 0.64940768
-0.043556452 -0.1974598 0.72914243
0.01124048 -0.192276 0.72190827
-0.037464801 -0.24407069 0.73439163
-0.04130077 -0.230066 0.68799663
-0.03868705 -0.2064383 0.75033319
-0.04112279 -0.2557494 0.68916202
-0.045126971 -0.43875089 0.68634832
-0.03959626 -0.24652161 0.7449398
-0.036405321 -0.2483522 0.81968802
-0.04312199 -0.47175661 0.8100214
-0.043679301 -0.32392949 0.74209768
-0.04864639 -0.48046669 0.74824947
-0.043945551 -0.30700299 0.72955358
-0.040904701 -0.28556591 0.76633751
-0.037556231 -0.20410509 0.74025363
-0.04009369 -0.30211371 0.83050662
0.1596387 -0.18620659 0.6666801
-0.0406335 -0.32581189 0.69958478
-0.044120491 -0.2637701 0.6695807
-0.04520154 -0.25882289 0.71224922
-0.04092532 -0.24974041 0.67458612
-0.03932941 -0.20899829 0.70378423
-0.041221078 -0.3683072 0.60964441
-0.04182547 -0.25391069 0.71161163
-0.043308441 -0.46290389 0.71700138
-0.043401059 -0.32296261 0.70574659
-0.041844491 -0.3974981 0.71719462
-0.035020351 -0.26784381 0.80064708
-0.03774571 -0.36544219 0.80219859
-0.039542139 -0.42112681 0.80786932
-0.037665781 -0.38740459 0.81159598
-0.038345221 -0.2878271 0.7925334
-0.044098731 -0.4740451 0.76225293
-0.03782576 -0.1992006 0.76861447
-0.042392079 -0.4504092 0.61803371
-0.039770659 -0.2187424 0.68557853
-0.04019862 -0.2302735 0.69864702
-0.040435791 -0.37102759 0.82009017
0.046101931 -0.190163 0.74107838
-0.0088610649 -0.1915103 0.75997663
-0.027838711 -0.1874359 0.70165318
-0.039585471 -0.29527131 0.78458071
-0.04343963 -0.39237881 0.77157938
-0.02939087 -0.43028799 0.83068103
-0.041291531 -0.37059551 0.71084952
-0.036254998 -0.26861551 0.7837317
0.088424683 -0.18025389 0.7298407
-0.04195362 -0.47910979 0.85792023
-0.043485459 -0.44170609 0.76516658
0.1449315 -0.1870804 0.6465354
-0.044971731 -0.40859941 0.62128222
-0.01648551 -0.19201189 0.77307099
-0.034022208 -0.19100121 0.79847813
-0.041919172 -0.29168719 0.73535877
-0.03578889 -0.27575469 0.74471581
-0.041463912 -0.3978762 0.79119003
-0.04007506 -0.37603709 0.76550013
-0.045634329 -0.2464412 0.65195578
-0.03984439 -0.2134081 0.74589109
-0.041065101 -0.38210231 0.77240932
-0.042088151 -0.4228203 0.74490458
-0.038745221 -0.2330268 0.7381779
-0.036853909 -0.2370716 0.78578383
-0.039952159 -0.45960489 0.81289011
-0.04399747 -0.1936018 0.61939442
0.06040591 -0.19202121 0.61231953
-0.032035168 -0.1910305 0.74383688
-0.039608601 -0.28453529 0.81351918
-0.04044557 -0.3095499 0.73860592
-0.034557879 -0.3858349 0.80464411
-0.037851039 -0.26513761 0.77913362
-0.02479261 -0.1923686 0.68509328
-0.042262141 -0.44617349 0.74565142
-0.039111018 -0.2258039 0.702788
-0.042001311 -0.26146391 0.71702647
-0.035999481 -0.1881943 0.78813338
0.075309627 -0.18899859 0.65145439
-0.046676461 -0.39640701 0.66045779
-0.04535282 -0.31440011 0.66349238
-0.044872399 -0.41701561 0.75193179
-0.039199408 -0.33273011 0.72037482
-0.018027371 -0.1964286 0.62547302
-0.03423715 -0.2484407 0.78074002
-0.037843529 -0.2621958 0.76565897
-0.036517859 -0.2100333 0.81247342
-0.036326349 -0.22110149 0.81169921
-0.040462609 -0.24156921 0.71620739
-0.02194446 -0.193083 0.66422671
-0.039323211 -0.43754509 0.6105125
-0.041838471 -0.29356831 0.6186797
-0.04388487 -0.28714851 0.61184722
-0.02992898 -0.1887847 0.71935087
-0.048116092 -0.42772391 0.65918863
-0.044225629 -0.32442471 0.61061841
-0.03980118 -0.4547008 0.59974903
-0.041570481 -0.44654751 0.78432912
-0.038447142 -0.20052209 0.70437461
-0.04798305 -0.21643449 0.62514502
-0.04135406 -0.22044051 0.67570949
-0.04044557 -0.2041865 0.62867969
-0.044233561 -0.34327751 0.61431861
0.078380167 -0.1889939 0.79851812
-0.0200246 -0.1887686 0.79261547
-0.044415411 -0.4086059 0.73839498
-0.04357731 -0.29074961 0.7610178
-0.0474534 -0.4592407 0.73476559
0.64615452 -0.34848011 0.2262338
-0.04144758 -0.3062056 0.72978061
-0.043769419 -0.44879621 0.80868709
-0.046917021 -0.37691489 0.62126201
-0.03990889 -0.379693 0.82306027
-0.044363439 -0.47265929 0.7904166
-0.036771599 -0.2385259 0.79781651
0.070439279 -0.1895164 0.62356663
-0.038774069 -0.1904557 0.71732241
0.66753042 -0.3347232 0.2191997
-0.045590159 -0.30055371 0.64807081
0.1408208 -0.18960661 0.82529712
-0.039255559 -0.3999792 0.80805308
-0.035206139 -0.37419251 0.68095249
-0.03592664 -0.34161639 0.74594551
-0.041466359 -0.3282378 0.74925637
-0.038349271 -0.42436561 0.60873902
-0.037208319 -0.353701 0.81237757
-0.04274869 -0.3527253 0.6407609
-0.037184302 -0.25665811 0.80817097
-0.036380772 -0.27382919 0.79224801
-0.04228067 -0.30700871 0.80347729
-0.039310221 -0.33748949 0.79964292
0.0899719 -0.18625911 0.69318378
-0.0464595 -0.38008299 0.65719312
-0.044569019 -0.3832365 0.75603551
-0.037163079 -0.40751421 0.7761578
0.095060349 -0.45163789 0.85798198
-0.040946901 -0.35768229 0.71344978
-0.048031271 -0.3300575 0.7325297
0.5928064 -0.3127521 0.26355329
-0.042748749 -0.4158791 0.76778227
-0.038865749 -0.28526571 0.79870379
-0.041546341 -0.35973889 0.82371032
-0.032596171 -0.3868027 0.60903758
0.64128071 -0.36461601 0.2290159
-0.020555681 -0.18994559 0.65604079
0.04814643 -0.1941203 0.75386661
-0.043793142 -0.29460531 0.75997841
-0.0514847 -0.3338913 0.67030162
-0.045838591 -0.34100991 0.7140739
-0.044331972 -0.29468149 0.77654302
-0.043161601 -0.48061129 0.82652789
0.092914551 -0.47883651 0.83453947
0.081118397 -0.45068079 0.83525121
0.1540017 -0.2073794 0.8315289
0.1555686 -0.26001579 0.83252329
0.1533889 -0.3783288 0.8316254
0.15410469 -0.3014816 0.83044761
0.1784741 -0.32323369 0.82909667
0.1463194 -0.24867161 0.83082563
0.1157022 -0.36590531 0.83273369
0.1152981 -0.4655543 0.83275628
0.17239749 -0.46611741 0.83611327
0.1247747 -0.2170331 0.83054048
0.1428882 -0.2189296 0.83091861
0.1273271 -0.194134 0.82677019
-0.0283134 -0.43096411 0.82700378
0.035233349 -0.48060721 0.83522308
0.1637677 -0.40667689 0.83174092
-0.027002539 -0.41506001 0.83312172
0.096714079 -0.4395065 0.83477598
-0.02777129 -0.37267041 0.83257842
0.1176912 -0.43051091 0.8352505
0.083716393 -0.4154273 0.83600068
0.14635 -0.3874245 0.83318561
0.12785511 -0.3893567 0.83231139
0.1413921 -0.2768122 0.83175153
0.1667206 -0.36811441 0.82925183
0.17394599 -0.31154519 0.82141459
0.1349726 -0.2297491 0.83266288
0.1180579 -0.2244276 0.83083212
0.1573768 -0.38140741 0.82754922
0.1529727 -0.47795531 0.83171582
0.1462452 -0.45894721 0.8334434
0.1720569 -0.4768661 0.83475941
-0.0106447 -0.40845531 0.84056759
-0.02308568 -0.26321709 0.83242238
0.00050002342 -0.34614921 0.83230603
0.1541639 -0.42392021 0.83291793
0.1092616 -0.4645122 0.83468407
0.14690711 -0.30108351 0.83186102
0.1793272 -0.36052001 0.82596898
0.065004051 -0.40843889 0.83420658
0.14681169 -0.45457479 0.83412331
0.01693636 -0.46298599 0.83442217
-0.022309329 -0.22199249 0.82816988
0.17138191 -0.37506589 0.83042151
0.1236761 -0.3142606 0.83241838
-0.01527166 -0.35745159 0.8357681
0.0016129609 -0.44735011 0.83852142
0.12692741 -0.4667373 0.83450902
0.14543051 -0.197219 0.77928758
0.030374801 -0.2163783 0.82956868
0.1263231 -0.43669879 0.83429122
0.1821817 -0.39543259 0.82211912
0.1317976 -0.2055102 0.82607871
-0.01261279 -0.44057289 0.84058958
0.08176589 -0.1919581 0.65065968
0.1173596 -0.36371481 0.83222133
0.1215239 -0.18630379 0.81097591
0.0088948011 -0.23552901 0.83203417
0.01173061 -0.4270753 0.83661622
-0.038387749 -0.4454712 0.8221671
-0.015949279 -0.24411459 0.83478111
-0.01137975 -0.47157449 0.83690119
0.02447987 -0.4541975 0.83389193
0.15889759 -0.33838961 0.82911259
0.1775735 -0.46191621 0.83009762
0.123124 -0.4169659 0.83192581
0.14728861 -0.2700969 0.83215457
0.04140484 -0.2111349 0.83277249
-0.030721631 -0.2184184 0.83332729
0.13966089 -0.18698899 0.82071149
0.17814229 -0.32086161 0.81982172
0.1493634 -0.3613272 0.83752412
0.1401017 -0.33439669 0.83098149
0.1366082 -0.28307161 0.83186859
0.14698949 -0.25679341 0.83082843
0.12714569 -0.2250925 0.8334493
0.1367152 -0.1908489 0.7613827
0.1601356 -0.413286 0.83320981
0.1174506 -0.1935264 0.83049089
0.1535489 -0.2337005 0.82705748
0.117178 -0.44879439 0.83416802
0.15895671 -0.2060315 0.82838857
0.1428594 -0.2031951 0.83203429
-0.007371455 -0.18989161 0.66144067
-0.024087669 -0.30658439 0.83248889
-0.020829201 -0.3502523 0.83741277
-0.03423008 -0.33657169 0.83223259
0.00318414 -0.40574381 0.83698982
0.0043383539 -0.3685784 0.83591467
0.1370002 -0.192237 0.61750227
0.081696182 -0.18879721 0.62578899
0.138972 -0.19253279 0.83307058
0.1584812 -0.2608566 0.83218348
0.1095591 -0.43121859 0.82996023
0.14277589 -0.24520651 0.83549207
0.1194549 -0.1895155 0.67097747
0.01203689 -0.39504439 0.83395028
0.165457 -0.19448911 0.77002913
-0.05139095 -0.4325698 0.83118582
0.17885789 -0.34099749 0.82618761
0.1205916 -0.1880912 0.76842278
0.1179743 -0.1902077 0.70518249
0.1249981 -0.31317931 0.83599031
0.1083431 -0.4076902 0.83291203
0.1693722 -0.29503691 0.83140409
0.048794478 -0.18816601 0.64024949
0.18007649 -0.2663078 0.82218617
0.09810254 -0.18770149 0.81256819
0.1300645 -0.19150829 0.64353722
0.094890296 -0.18949179 0.76462477
0.175791 -0.25961459 0.83218151
0.091274172 -0.3611958 0.82988262
0.13604391 -0.1925271 0.7204442
0.024986209 -0.465808 0.83840072
0.080883473 -0.1947369 0.7128517
0.1235316 -0.2035607 0.82919401
0.1481797 -0.1866647 0.74799508
0.3035875 -0.4760972 0.2870656
-0.033076849 -0.2445031 0.83275872
0.065871209 -0.1911013 0.83295089
0.1622881 -0.186758 0.67968398
0.34302881 -0.4781206 0.37049079
0.1653221 -0.1986513 0.78997338
0.1093134 -0.18819261 0.81729478
0.1570638 -0.35283551 0.82731777
0.1023195 -0.41122621 0.8374666
0.1407173 -0.1956774 0.69979489
0.073216923 -0.19236641 0.66513687
0.075323097 -0.19450711 0.69640791
0.1183101 -0.1876795 0.62742072
0.095071413 -0.1888539 0.76644439
0.1696749 -0.19230209 0.75600243
0.1855018 -0.1908488 0.82419091
0.1152216 -0.18817189 0.80990613
0.1766402 -0.1908204 0.78588903
0.1255236 -0.18742581 0.60265082
0.1705447 -0.19102199 0.68755472
0.086657152 -0.33053789 0.83307362
0.1449127 -0.21828011 0.83113992
0.072855532 -0.34883109 0.83155131
0.097604513 -0.39095601 0.8301751
0.17600781 -0.3311961 0.82568258
0.1653877 -0.32861209 0.82360059
0.1703172 -0.35731059 0.81753153
0.1443955 -0.35885891 0.82550561
0.1560154 -0.43335849 0.81886762
0.099056013 -0.1894557 0.74551558
0.1834863 -0.1979668 0.7877726
0.068740517 -0.46555501 0.82870078
0.18581221 -0.4779391 0.80819792
0.1720155 -0.1886491 0.84062058
0.1610581 -0.2499506 0.82981282
0.03425014 -0.3842155 0.83676159
0.096691191 -0.47862181 0.83688402
0.1865208 -0.33876491 0.73041171
0.1829302 -0.3005771 0.72996092
0.1842106 -0.417557 0.66980898
0.1776467 -0.34111631 0.6152029
0.18726809 -0.41837031 0.7202909
0.18728849 -0.3071681 0.81023759
0.1890589 -0.4654465 0.79858762
0.032071531 -0.1899434 0.70045477
0.1594369 -0.19101471 0.70764232
0.18013 -0.1957583 0.69144541
-0.0054325461 -0.18842749 0.7145173
0.18261459 -0.35140419 0.70501697
0.1771238 -0.28705361 0.69951612
0.18660539 -0.3241176 0.7091853
0.19046929 -0.42928189 0.72570568
0.1943385 -0.46325439 0.72690618
0.183273 -0.4554897 0.70912588
0.1834266 -0.43526551 0.72100109
0.06583631 -0.18939491 0.62454182
-0.032670472 -0.19396611 0.61260051
0.1398997 -0.19144391 0.6170451
0.084926903 -0.1896621 0.66715932
0.099036098 -0.1926941 0.65152311
0.021855179 -0.1927052 0.64657152
-0.030828601 -0.1895401 0.66352242
0.093383849 -0.19521651 0.66209942
0.058229681 -0.1905724 0.69367701
0.1652247 -0.19982269 0.67912579
0.1788118 -0.1976961 0.6924845
0.1107131 -0.1909156 0.68080992
0.1124173 -0.19458491 0.64515412
0.001147568 -0.1929244 0.6515224
0.076893874 -0.1940058 0.68002999
0.1167774 -0.187391 0.63747138
0.1230404 -0.1957147 0.64666808
0.057687461 -0.189254 0.66209233
0.031769339 -0.1950974 0.63673443
-0.0043688421 -0.1905241 0.63966513
0.1772197 -0.2268676 0.65482002
0.18333299 -0.20695961 0.61151809
0.1783035 -0.2299943 0.6342895
0.1780742 -0.2489485 0.63249701
0.1763517 -0.20039061 0.62590861
0.17538489 -0.22859029 0.6746493
0.17604899 -0.19654331 0.6442517
0.17816789 -0.2358539 0.65754437
0.1769148 -0.1958724 0.65295148
0.1745223 -0.2267345 0.6608215
0.1750277 -0.2255581 0.64595932
0.1815183 -0.2316348 0.66728061
0.1767222 -0.2571052 0.65172678
0.1773303 -0.20181701 0.63670993
0.1747335 -0.35397401 0.60641998
0.1776337 -0.37538189 0.61310029
0.1736017 -0.32751659 0.61130148
0.17088699 -0.45509279 0.60666221
0.1745514 -0.327618 0.60686302
0.1799572 -0.3491742 0.61767912
0.1721992 -0.3765226 0.60676569
0.1807863 -0.33356929 0.6502257
0.1814817 -0.29858771 0.6850729
0.1746861 -0.34111539 0.64645022
0.178335 -0.40514231 0.63928288
0.1803436 -0.28762889 0.62899429
0.1190968 -0.19201981 0.72236979
0.1243133 -0.19270229 0.7459957
0.1769803 -0.1809994 0.74062812
0.1732612 -0.1911193 0.78100628
-0.03311291 -0.1878439 0.74735773
0.16040529 -0.37379831 0.83529967
0.1661794 -0.3350879 0.83384877
0.1745974 -0.2865878 0.70607787
0.18194389 -0.1833681 0.82918823
0.1170171 -0.35601249 0.83886588
0.1007133 -0.479651 0.84018749
0.1353281 -0.2072362 0.82948792
0.15626431 -0.20158321 0.83391678
0.077359878 -0.1840612 0.8308602
0.14589401 -0.1879396 0.62357938
0.0181545 -0.36277279 0.8397454
0.04878917 -0.24707671 0.83605242
0.096935213 -0.47588351 0.83664447
0.025410101 -0.34093091 0.83728051
0.03936803 -0.23989099 0.83796668
0.0155835 -0.37148029 0.83968538
0.093198977 -0.18168069 0.82444549
-0.026398821 -0.2163799 0.8357302
0.051538691 -0.22395509 0.83422732
0.045223121 -0.19001471 0.61374748
0.1843452 -0.2117012 0.83270031
0.1569798 -0.41810271 0.83602488
-0.002374172 -0.18683951 0.66135311
0.052093081 -0.1879307 0.75093079
-0.02304071 -0.42537719 0.83827507
0.04719162 -0.18552969 0.77287102
0.157691 -0.3740578 0.83533221
0.052277621 -0.1954316 0.83719778
-0.037785921 -0.188289 0.71574491
0.01559848 -0.35467499 0.83827847
0.041996568 -0.35587949 0.83742571
0.05106388 -0.18034659 0.83061779
0.046556398 -0.25236389 0.83614838
0.070987262 -0.47340989 0.83944088
0.035799351 -0.18993521 0.66923147
0.13140491 -0.43202221 0.83744359
0.01483396 -0.42224979 0.84018731
0.03866915 -0.33109891 0.83855748
0.18158451 -0.2120437 0.83087867
0.071338497 -0.1999394 0.83661687
0.1537192 -0.18839531 0.69077682
0.074742809 -0.19087911 0.66611528
-0.009048298 -0.40560049 0.84026188
0.04283208 -0.18564139 0.73908639
0.1253899 -0.17640141 0.78430319
0.1136303 -0.42066431 0.84140128
0.1193283 -0.18857209 0.66454083
0.039548419 -0.48034361 0.83134341
0.01248559 -0.2283306 0.83753198
0.1112129 -0.45743641 0.83765292
-0.01280382 -0.18848521 0.81144607
-0.003007978 -0.1893523 0.73408788
-0.034690361 -0.19058239 0.78765368
0.040281139 -0.20355789 0.83529258
-0.02229004 -0.36303839 0.84167397
0.1551172 -0.18789519 0.7660622
0.004934005 -0.1855105 0.83598769
-0.025036691 -0.27049541 0.84103018
-0.01091873 -0.2812098 0.83653551
-0.02991385 -0.3519896 0.83886999
0.041605089 -0.1920495 0.6467647
0.1513866 -0.190622 0.80685288
-0.019160749 -0.33046451 0.83958417
-0.01100334 -0.24094459 0.83685958
0.02313531 -0.1908675 0.83366942
0.16822191 -0.1916171 0.77063102
0.005197518 -0.18475521 0.78526431
0.14072859 -0.18209749 0.82215762
-0.01959924 -0.4187099 0.8396399
0.04133527 -0.1927904 0.83114552
0.048551761 -0.2163174 0.83344269
0.139117 -0.1908581 0.7531755
0.1384103 -0.1845656 0.74194461
0.0108723 -0.1858184 0.8092494
0.067870893 -0.1874443 0.83212417
0.1178667 -0.3595131 0.8350094
0.074394129 -0.2491062 0.83661199
0.1200217 -0.2224862 0.83450472
0.14890011 -0.28153369 0.83550167
0.1335827 -0.1910058 0.6471864
0.067549102 -0.1827368 0.70176309
-0.019476591 -0.1887141 0.77003539
0.031079769 -0.19278359 0.832057
0.088621587 -0.2067247 0.83330381
0.089320779 -0.1885258 0.77347922
-0.028895481 -0.23711459 0.83819211
-0.022877101 -0.1894888 0.81255829
0.061363239 -0.42735109 0.84005749
0.061182119 -0.3999483 0.83547109
0.01876648 -0.31743321 0.83691502
0.088972963 -0.40778351 0.84099519
0.06558457 -0.34176159 0.83699429
0.091165394 -0.3262234 0.83654648
0.095054612 -0.2490568 0.83264011
0.1441175 -0.1923714 0.66763532
0.157254 -0.25630209 0.83516002
0.160799 -0.256798 0.83461922
0.15985771 -0.2020819 0.8325693
0.1471186 -0.213368 0.83632118
0.155727 -0.18526199 0.81960261
0.1399831 -0.28043491 0.83472371
0.082358077 -0.29025021 0.8394503
0.1254033 -0.28109571 0.83414358
-0.018494081 -0.25390679 0.83779192
0.077115059 -0.31669739 0.83465749
0.041598901 -0.33430719 0.83553189
-0.030125169 -0.33277559 0.83742028
0.064780816 -0.269613 0.83439678
0.1105725 -0.18317389 0.822824
-0.023680249 -0.2270582 0.83754981
0.070517562 -0.2028937 0.83864969
0.047223318 -0.1907374 0.77526128
0.084147573 -0.1905788 0.65325367
0.1340595 -0.19485269 0.82987398
0.1273552 -0.1820261 0.82294858
0.1044473 -0.25765589 0.84029412
0.08781112 -0.18491229 0.75249398
0.1227344 -0.1950841 0.68123502
0.1190365 -0.2873753 0.83477747
0.1432682 -0.4796941 0.83054239
0.1238022 -0.26467529 0.83004308
0.1305308 -0.2202858 0.83463871
0.18086851 -0.19190019 0.83422488
-0.018762739 -0.188352 0.83716542
0.29296461 -0.46832299 0.28708699
0.30609381 -0.47621781 0.3624562
0.13650919 -0.1921633 0.82284242
-0.038730059 -0.1897029 0.64071041
0.09262085 -0.2426125 0.83401412
-0.02188332 -0.2597588 0.83529311
0.34966111 -0.48028779 0.35320449
0.3235226 -0.4760178 0.36124021
0.1305669 -0.1864408 0.74956381
0.043336201 -0.43961999 0.83635402
0.1819122 -0.1828395 0.80139971
0.14406431 -0.2016037 0.83271879
0.1758408 -0.195363 0.83594912
0.1277218 -0.41294381 0.83489448
0.1559727 -0.23188449 0.83380771
0.039215472 -0.1951603 0.83459008
-0.01503043 -0.41047311 0.84219998
0.033784341 -0.1862209 0.75810009
0.17151891 -0.1969396 0.77060992
0.1281569 -0.19732469 0.83394182
0.066019543 -0.1849523 0.71262872
0.1015554 -0.19098739 0.80524838
0.01445955 -0.1869607 0.62757027
-0.0102979 -0.1889918 0.66904157
0.022117149 -0.1891488 0.70938343
-0.033957381 -0.18647119 0.63109338
-0.001554123 -0.18908431 0.7715947
0.1377534 -0.19095279 0.66790211
0.17660619 -0.1860155 0.74983519
0.1217398 -0.2179303 0.83547062
0.1209784 -0.19381469 0.82722962
0.109112 -0.1878434 0.78136718
0.00018396971 -0.1865534 0.68930042
-0.029726099 -0.37968591 0.83993357
0.078156903 -0.19005729 0.75531149
3.6880369e-06 -0.1906223 0.75773531
0.035303351 -0.4190484 0.836254
0.074345812 -0.2525737 0.83272052
0.01385487 -0.184498 0.82144147
-0.009754546 -0.27202559 0.83859771
0.120337 -0.1774479 0.78724867
0.173869 -0.1813478 0.74745011
0.1245355 -0.1801738 0.74609768
0.1225706 -0.18627 0.76587671
0.1898919 -0.1918028 0.8293367
0.18315899 -0.3806752 0.83303303
0.1715965 -0.2059384 0.83028829
0.1736261 -0.1891381 0.82841098
0.090781808 -0.2753332 0.83693671
0.034065951 -0.2580663 0.83535337
0.019764891 -0.1972305 0.71125931
-0.026185781 -0.2372759 0.84037292
0.025255259 -0.1811908 0.82251781
0.057874329 -0.184304 0.83430082
0.06847503 -0.29925331 0.83396798
0.1223537 -0.1909589 0.65715009
0.1414638 -0.1829536 0.81666231
0.1920502 -0.18995801 0.82439029
0.099837117 -0.1855765 0.76950723
0.16353939 -0.1908561 0.75532693
0.1720465 -0.38123989 0.83807099
0.36677259 -0.47401091 0.34781229
0.1256903 -0.1896982 0.75751698
0.046136789 -0.1836832 0.81972313
0.1326092 -0.38107741 0.83860987
0.076281473 -0.1978084 0.68414521
0.01750182 -0.1845945 0.72630107
-0.03224133 -0.19490319 0.83562088
0.1800122 -0.18386211 0.73935688
0.1064212 -0.1853707 0.75695097
0.12633941 -0.2488379 0.83546841
0.08820042 -0.40667659 0.84426498
-0.0082334727 -0.3120963 0.83917588
0.15244479 -0.37108979 0.8312757
0.01365431 -0.2290182 0.83524811
-0.0510276 -0.47408831 0.82254392
0.0070520272 -0.397183 0.84049988
-0.03550401 -0.2214521 0.83780491
0.06629467 -0.3953113 0.83081383
0.1240965 -0.29193521 0.82764077
0.183687 -0.35137689 0.83429879
0.055242319 -0.28615671 0.8376106
0.18021099 -0.3787961 0.83199209
0.1140226 -0.27832419 0.83379698
0.1122211 -0.29009169 0.8362447
0.1063159 -0.37671939 0.83913523
0.0071108192 -0.4460001 0.84421402
0.016256001 -0.17914151 0.81250101
-0.020835459 -0.42951351 0.8300488
0.1600475 -0.19365411 0.76201338
0.1250484 -0.1935847 0.65717202
-0.038405389 -0.47661239 0.81529713
0.017122511 -0.35647589 0.83747983
-0.01650786 -0.35418919 0.83281791
-0.0083971024 -0.40891409 0.83678007
-0.030761899 -0.35052589 0.83972061
0.036974311 -0.41647291 0.83485132
-0.0170747 -0.1892471 0.78645152
-0.03483358 -0.1866897 0.72012371
-0.02715886 -0.2030381 0.82928109
0.001538157 -0.30775529 0.83198643
0.1641546 -0.20311619 0.83424753
-0.0064687729 -0.1905396 0.8243199
0.1715536 -0.31936869 0.82937002
0.03595883 -0.18758979 0.76028371
0.1359821 -0.19091199 0.83739179
0.003408551 -0.39558819 0.83350939
-0.038590789 -0.4174383 0.81333441
-0.03255764 -0.1984043 0.80070961
-0.02396214 -0.25010651 0.82786578
-0.036141869 -0.28155741 0.81681663
0.070149839 -0.18982901 0.83086628
0.1647587 -0.2565935 0.83412439
0.1677842 -0.33458129 0.83003879
0.1518442 -0.28795671 0.83090502
0.1139715 -0.38817579 0.83800173
0.040412489 -0.2643975 0.83191651
0.047773778 -0.3682355 0.82761288
0.047828969 -0.34582019 0.8249051
0.17595001 -0.30669561 0.83079171
-0.043386519 -0.3448337 0.69454932
-0.03216273 -0.4468739 0.81938708
0.022226449 -0.195544 0.72268718
-0.037119269 -0.19781999 0.72686118
0.0045933719 -0.18561231 0.82375109
-0.048585121 -0.36598709 0.7221114
-0.037874699 -0.25796321 0.76149482
0.092591658 -0.187932 0.69380748
-0.044906352 -0.30364129 0.63223672
-0.04424208 -0.2484192 0.65395778
-0.01984638 -0.25269529 0.83782542
-0.033630069 -0.30575249 0.83241439
0.04169232 -0.1936792 0.64665169
-0.044857379 -0.27042601 0.63619828
-0.03626037 -0.1910266 0.78022349
-0.040064812 -0.37884369 0.71556991
-0.037440568 -0.29815191 0.81296992
0.068331361 -0.1937585 0.81857151
0.1039404 -0.1876916 0.8243444
0.048849821 -0.2042885 0.82476711
0.1228349 -0.36149189 0.83362478
0.056309711 -0.1877459 0.80080569
0.1304791 -0.28953421 0.8323853
0.051218271 -0.25483119 0.83017999
-0.031030061 -0.2229652 0.80358589
0.02652186 -0.32772201 0.83654523
-0.02729493 -0.33804101 0.80500251
0.1218459 -0.46348381 0.83597767
-0.044306699 -0.43663469 0.73747933
-0.043751121 -0.38237029 0.65640533
-0.042115182 -0.3436318 0.66339052
-0.043930259 -0.36842421 0.62663782
-0.040560361 -0.4184036 0.76998973
-0.034956779 -0.20710491 0.7509166
-0.03310835 -0.2653169 0.82808328
-0.037932839 -0.2437575 0.81813961
-0.03449541 -0.2149426 0.63553113
-0.04288286 -0.38158551 0.61550099
-0.0097238421 -0.1880656 0.81116289
-0.025766309 -0.24036141 0.8348403
-0.040575121 -0.39361459 0.77365083
-0.034571409 -0.3668032 0.80444282
-0.038609799 -0.2906054 0.76199472
-0.02943569 -0.37407789 0.82568419
-0.037471529 -0.379127 0.80527347
-0.03181887 -0.2391033 0.82622409
-0.044961091 -0.39373431 0.67604518
-0.04340905 -0.4546518 0.60092312
-0.040004671 -0.29049101 0.6109581
-0.038291391 -0.2390891 0.69219333
-0.038870189 -0.28969401 0.74337739
-0.03899854 -0.26004511 0.82814121
-0.04345062 -0.41082621 0.74068987
-0.042608202 -0.3848213 0.73853523
-0.0062303538 -0.1913728 0.83599973
-0.03600562 -0.2437017 0.71265358
0.1560522 -0.1951181 0.63415992
-0.02806044 -0.2170864 0.74672312
0.01649964 -0.47852531 0.85337782
0.050257441 -0.4161427 0.83772928
-0.029970881 -0.427883 0.61247921
-0.034125511 -0.22682101 0.76182532
-0.038971331 -0.2241939 0.72133893
-0.034674171 -0.20102531 0.76056272
-0.036878761 -0.263556 0.70868582
-0.037969951 -0.32823229 0.69580281
-0.040778339 -0.3031387 0.82909429
0.141341 -0.47658631 0.83746612
-0.00085771078 -0.1918494 0.73094451
-0.041406449 -0.43911541 0.79758948
-0.032846749 -0.24682979 0.79085332
-0.044120461 -0.38972539 0.78476667
-0.04003245 -0.45230901 0.80720901
-0.02628118 -0.36391789 0.78341639
-0.041975021 -0.39108089 0.70937961
0.1539598 -0.36418879 0.83073193
-0.035401821 -0.2166204 0.78924888
-0.034092609 -0.2255027 0.70440322
-0.04369637 -0.4706085 0.71357071
-0.03817207 -0.30920589 0.71989131
-0.034344669 -0.42774209 0.60547751
-0.040167451 -0.29528761 0.61484188
-0.043679241 -0.34465909 0.61115581
-0.041182339 -0.31844479 0.66174001
-0.039756 -0.2164634 0.67576373
-0.03541046 -0.2950125 0.78602302
-0.044904411 -0.31482461 0.72712922
-0.039503071 -0.29123411 0.73686647
-0.04228032 -0.3037599 0.64914823
-0.043422669 -0.36498299 0.77531469
0.12749609 -0.43494099 0.83451802
0.1442399 -0.19294059 0.82778013
0.087202907 -0.1878358 0.82251662
-0.039383169 -0.4040544 0.78429312
-0.03189135 -0.28988141 0.8130784
0.1470274 -0.32676351 0.82935488
-0.034036279 -0.3582156 0.82411712
0.1082917 -0.34395489 0.83276099
0.1396666 -0.1897746 0.6456157
0.14439189 -0.46237031 0.83429527
-0.030772209 -0.2637462 0.83990037
0.1413945 -0.43029711 0.8392483
-0.042618871 -0.45342389 0.67253381
0.1862959 -0.4773623 0.82865667
-0.026269261 -0.19038451 0.68537819
-0.03734237 -0.3294023 0.71796542
0.13071141 -0.33681059 0.8315289
-0.044223551 -0.3673113 0.65740258
-0.03466117 -0.3206293 0.79196912
0.099332698 -0.18989199 0.7742967
0.037165459 -0.30729839 0.8313005
0.62755227 -0.32910281 0.2384726
0.081403673 -0.19097079 0.64484781
0.59086877 -0.3416951 0.25611901
-0.03364319 -0.2753019 0.76219612
-0.035135899 -0.2483812 0.7455734
-0.031389061 -0.2481465 0.77730018
-0.02718991 -0.272147 0.7930842
0.1158801 -0.27249411 0.82590753
0.080303311 -0.44831771 0.83510548
0.1132936 -0.1855586 0.83001912
0.1490307 -0.24113069 0.83353728
0.1139076 -0.3086507 0.83585721
0.063988507 -0.18719821 0.78447509
0.1365407 -0.25263119 0.8300668
0.023039879 -0.42660701 0.84213269
-0.039599359 -0.37275511 0.75205851
0.16341069 -0.45488089 0.83526403
0.03951228 -0.4724448 0.83981222
-0.032105569 -0.36181769 0.82416892
-0.033964459 -0.25582439 0.66910398
-0.021965681 -0.254361 0.82857382
-0.031666521 -0.35445139 0.82011312
-0.025854049 -0.31234631 0.83847171
0.1155164 -0.41696551 0.8267414
-0.047987249 -0.43998909 0.71475148
0.15425511 -0.38763109 0.82957327
-0.03954792 -0.35589689 0.66502821
-0.01245797 -0.20436101 0.61142671
-0.031835198 -0.2923972 0.8263185
-0.044630289 -0.42884031 0.6564427
0.042054649 -0.18731409 0.71447599
-0.03536379 -0.2342461 0.73854548
-0.04848605 -0.39091471 0.64499688
-0.038914979 -0.39986509 0.71837449
-0.037636399 -0.3858147 0.81372041
-0.04116315 -0.41359439 0.65764499
-0.030302459 -0.1966262 0.6388948
-0.034443799 -0.32833391 0.81651831
-0.033381641 -0.26282009 0.63153768
-0.025939491 -0.1885158 0.73439139
-0.022931781 -0.1916253 0.62390637
0.1733474 -0.1911635 0.70619398
0.15438481 -0.192497 0.62129283
-0.043325599 -0.35169721 0.61452281
0.1709474 -0.1906001 0.68454581
0.120765 -0.1924281 0.62807781
0.03699705 -0.1914216 0.67678541
0.01828121 -0.2372195 0.60853112
-0.0171631 -0.25068 0.61165267
0.078433096 -0.32601881 0.60791039
0.15513369 -0.2036314 0.60887551
0.1066421 -0.23261569 0.60342532
0.088199377 -0.2354133 0.6062001
0.01338014 -0.2321292 0.61641711
0.051693771 -0.2489171 0.60935342
0.1763251 -0.18819951 0.78548533
0.01116341 -0.27333191 0.61344361
-0.02142885 -0.27517819 0.60734618
0.029249979 -0.2173467 0.60631138
0.1564423 -0.25409359 0.60638338
0.021653179 -0.29416871 0.61497217
-0.02804314 -0.25830391 0.6158061
0.1052213 -0.27166501 0.60026312
-0.0084190955 -0.4188762 0.6074301
-0.2075102 -0.47721261 1.323965
0.1605929 -0.308276 0.60205728
0.019301251 -0.36153629 0.60682929
-0.01573934 -0.2011677 0.61202008
-0.0097694099 -0.194794 0.6182555
0.1150522 -0.2269607 0.60593301
0.16806599 -0.29730859 0.60568923
-0.034730531 -0.4730536 0.60273743
-0.2250566 -0.47040629 1.3615
-0.02708884 -0.2012994 0.723158
-0.027811751 -0.4136292 0.60239911
-0.023361489 -0.4772051 0.61069828
-0.015806779 -0.44329861 0.60537738
-0.03326229 -0.23832551 0.61091489
0.1301288 -0.2416791 0.60746092
0.072697952 -0.20061439 0.61045039
0.1141944 -0.25351581 0.60260212
0.053131212 -0.2335362 0.61286378
0.1048314 -0.28005701 0.60036057
0.08562015 -0.19090471 0.65861648
0.042955492 -0.1921557 0.66045922
0.13199881 -0.25858751 0.60217142
0.1363426 -0.47225559 0.59496969
0.006508999 -0.2685419 0.6131286
0.1464515 -0.43753901 0.59796768
0.01504067 -0.19065531 0.62276399
0.1382803 -0.38379529 0.59781039
-0.13588209 -0.46813491 1.2531821
-0.040268119 -0.46761781 0.60793322
-0.030297611 -0.26799509 0.60848463
0.044917691 -0.2488226 0.60720873
0.1431365 -0.1946909 0.63162661
0.1236282 -0.2253575 0.60751492
0.1080892 -0.37502491 0.60968769
0.099281646 -0.4328028 0.5924924
0.1365771 -0.29813501 0.59766281
0.102275 -0.42720559 0.59635752
0.1248464 -0.43933281 0.60462558
0.1544053 -0.47242421 0.59481812
0.084826693 -0.43753141 0.60415262
0.1031297 -0.32098621 0.60059768
0.1115252 -0.468584 0.59945792
0.13417029 -0.27862391 0.59385729
0.1045129 -0.41448769 0.6008268
0.095787793 -0.34123591 0.60445678
0.077180266 -0.26949501 0.61428207
0.1307289 -0.40176111 0.59762597
0.1705409 -0.4454802 0.59992528
0.1636976 -0.40802109 0.60674667
0.076815248 -0.1890811 0.66894847
0.027499059 -0.4200125 0.60622132
0.04805978 -0.459999 0.60196728
0.033045132 -0.33085451 0.60626292
0.050607249 -0.39484069 0.60896468
0.057791319 -0.44290179 0.60293752
0.0073256488 -0.22130281 0.61410528
-0.0043440158 -0.42636061 0.60206252
-0.001684166 -0.467401 0.603001
-0.003322467 -0.40684059 0.60570318
-0.01235414 -0.3009946 0.60428733
0.023679219 -0.4559063 0.59874338
0.02127691 -0.3896181 0.6027844
0.045143921 -0.29411471 0.6130774
0.05429101 -0.38558429 0.60480869
0.0650599 -0.26813871 0.60779363
0.052832808 -0.437592 0.60755217
0.017955881 -0.27133581 0.60551912
0.02598463 -0.2051255 0.61117458
0.036502391 -0.39692429 0.60414487
0.067345507 -0.42330661 0.60156548
0.065996751 -0.3595064 0.60854542
0.1254916 -0.469098 0.60223973
0.036002431 -0.2093098 0.61359203
0.01273745 -0.1935266 0.60821551
0.029995229 -0.37848869 0.60897273
0.090364777 -0.43918991 0.59450102
-0.2483985 -0.47456941 1.325858
0.016224731 -0.45536539 0.6026355
0.023414031 -0.1993238 0.69849491
-0.004695483 -0.1873063 0.77701139
0.054928809 -0.2344389 0.61178398
-0.04127869 -0.47036761 0.61015671
0.106961 -0.2667293 0.60447383
-0.0057768668 -0.35510901 0.60924798
0.1485239 -0.37653229 0.60429418
0.078193858 -0.33213231 0.60803688
0.0259411 -0.42299259 0.60734892
0.15790521 -0.45872089 0.60298997
0.1121776 -0.1928388 0.6043967
0.1331459 -0.29501921 0.6010412
0.1193375 -0.43606591 0.60877877
0.1230785 -0.1930272 0.67574078
-0.030821741 -0.37457591 0.60612291
0.1493212 -0.47770351 0.60571998
0.037674911 -0.42330879 0.60793883
0.05732454 -0.281528 0.61377871
0.041042309 -0.38870519 0.61405391
-0.03132664 -0.1903237 0.73719943
0.1411247 -0.4181326 0.60260397
-0.1651129 -0.4534162 1.250998
0.1759343 -0.25000429 0.60609341
0.085688069 -0.19229171 0.63072962
0.076785699 -0.47754651 0.59654307
0.045669351 -0.1895843 0.70396882
0.15725259 -0.18990371 0.75537741
0.1123287 -0.361936 0.59773248
-0.01151438 -0.31406111 0.61138529
0.1249895 -0.2534667 0.60810202
0.01486734 -0.2125601 0.61356509
-0.01202375 -0.30128029 0.61812621
-0.01423677 -0.42944559 0.60048479
0.030091871 -0.37217119 0.60460669
0.1017981 -0.36711511 0.60875332
0.1555154 -0.42190039 0.59840691
0.04104577 -0.47048199 0.60964757
0.089260437 -0.47897279 0.60535419
0.12741411 -0.19211151 0.65402108
0.099329747 -0.3739602 0.6023888
0.019743619 -0.2881985 0.60859603
0.054172531 -0.4715521 0.60339242
0.008548528 -0.3904002 0.60888338
-0.01277329 -0.38516101 0.61232871
-0.01251984 -0.3915337 0.60813367
0.1746172 -0.22113501 0.60176247
0.16785359 -0.3549298 0.60524857
0.114083 -0.34686211 0.60191578
0.0078359693 -0.42311311 0.61239821
0.034027141 -0.449835 0.61294782
0.047527831 -0.20556711 0.60539663
0.1188635 -0.19127209 0.82222909
0.086546987 -0.40425819 0.60662419
0.17263991 -0.42102581 0.60556602
0.1318623 -0.27439889 0.60171872
0.032193251 -0.2209222 0.60324371
0.08329317 -0.2331996 0.5946303
-0.18182521 -0.4694337 1.254891
0.006736353 -0.3879374 0.60551578
0.1755403 -0.2374237 0.60315669
0.087323897 -0.35819349 0.60134768
0.058809981 -0.33545271 0.60406411
-0.02038835 -0.23713771 0.60780722
0.003328905 -0.32747781 0.61144179
0.066484451 -0.44880301 0.5986101
-0.01754602 -0.26121041 0.60864568
0.056203689 -0.41479719 0.60536611
0.053442609 -0.34471339 0.61404788
0.0091128796 -0.2463631 0.60228288
0.1322989 -0.19858781 0.61386871
0.1206351 -0.18629371 0.79288268
0.1741181 -0.35086939 0.60063291
0.15442879 -0.25340739 0.6060136
0.1576855 -0.31385711 0.60450232
0.1565742 -0.35555869 0.6033743
0.13908359 -0.4067218 0.60633612
0.004931509 -0.1909941 0.77577567
0.033781361 -0.2025203 0.60233819
0.1091188 -0.1955823 0.66020483
0.069753721 -0.19562151 0.79562151
0.1527503 -0.4635562 0.59439927
0.1237848 -0.3706297 0.60506272
0.1436471 -0.1960182 0.6132111
-0.032172199 -0.30313721 0.59517699
0.01206189 -0.33523229 0.60837781
0.02635348 -0.4752281 0.60127318
0.01356004 -0.3486827 0.60755622
0.01010321 -0.30217969 0.60455787
0.061404679 -0.3544766 0.61182022
0.01908919 -0.47110471 0.60451841
0.01284632 -0.318636 0.60582471
0.044445042 -0.1850049 0.77082801
0.121102 -0.26763991 0.60444963
-0.033320189 -0.19418161 0.66141558
-0.03819507 -0.3510378 0.61431801
0.029446131 -0.1985393 0.61020148
-0.046703521 -0.3390829 0.61451107
0.150206 -0.1900446 0.76088113
0.1731922 -0.1902633 0.74187368
-0.015901269 -0.19581731 0.74268711
0.021575451 -0.1895943 0.81329048
0.069006562 -0.1878728 0.62279522
0.03569904 -0.1937249 0.75471687
0.067857377 -0.1868003 0.81962228
0.03328431 -0.18936931 0.6524772
-0.047497511 -0.44026601 0.80139709
-0.005512238 -0.1904206 0.76135021
0.1662219 -0.1887829 0.68180692
-0.04406184 -0.271007 0.61822182
0.1236282 -0.4301815 0.6002202
-0.041999701 -0.1958432 0.70567483
-0.020211039 -0.4144626 0.60369653
-0.047792431 -0.3358683 0.65885651
-0.045942191 -0.36910489 0.61543882
0.1849321 -0.1926247 0.82483453
-0.045022961 -0.2154665 0.63111132
-0.049104448 -0.3983579 0.78702098
0.1569359 -0.1878726 0.70850122
-0.042003389 -0.22156531 0.61434042
-0.04660812 -0.3590506 0.77144963
-0.028583139 -0.19086 0.68529427
-0.042114321 -0.32806659 0.75458431
0.036395669 -0.1849342 0.61719352
-0.041626751 -0.26943469 0.76520002
-0.043454241 -0.25886121 0.68211418
-0.046453118 -0.3391991 0.69612151
-0.049820181 -0.42820549 0.69949663
-0.04458284 -0.28935349 0.73598337
0.04376477 -0.1886176 0.71196502
-0.034474369 -0.1933006 0.78287172
-0.04784137 -0.29916269 0.64992589
-0.04942191 -0.45134351 0.69445801
-0.038500428 -0.36005589 0.81354272
-0.041868631 -0.3228766 0.70677787
-0.0033901329 -0.18934891 0.79503328
0.0042097569 -0.1954847 0.71483833
0.1177794 -0.1884243 0.78745759
0.088501811 -0.18658461 0.76147002
-0.042483781 -0.2138921 0.64769638
-0.03722984 -0.244214 0.81967902
-0.028033379 -0.18683749 0.75142699
-0.04390705 -0.27091521 0.63912922
-0.047455519 -0.36333531 0.77483791
-0.047271069 -0.34958291 0.62425017
-0.041452259 -0.26452291 0.62885839
0.060842451 -0.18114419 0.83015728
0.063244343 -0.1903825 0.66836399
0.1222193 -0.188152 0.82075632
-0.045445319 -0.28361061 0.74237537
-0.046529949 -0.44574121 0.64944619
-0.04699355 -0.38680261 0.71200353
-0.05540752 -0.47682691 0.69912082
-0.033818781 -0.41933429 0.8304888
-0.04596132 -0.3893086 0.78576428
-0.0291059 -0.33549181 0.80210203
0.037982639 -0.18596061 0.69399309
-0.040897548 -0.20501199 0.704669
-0.039114948 -0.2021506 0.83145559
0.051760141 -0.21265259 0.60531741
0.15583131 -0.19333559 0.61780173
-0.04243565 -0.2214607 0.72239631
-0.049350139 -0.36054841 0.7222389
-0.04169732 -0.2301755 0.63977557
-0.046765979 -0.41658619 0.65034997
-0.033941381 -0.1897925 0.70243919
0.1131237 -0.1915694 0.6149348
-0.022086021 -0.194444 0.64140612
-0.041098621 -0.2365566 0.69060808
-0.0097808838 -0.1910468 0.77102792
-0.039630231 -0.27183989 0.76853389
-0.04526639 -0.25568071 0.68075478
-0.04152596 -0.2193203 0.62229657
-0.04642868 -0.38981611 0.68267119
0.056811988 -0.1916201 0.63806862
-0.040998761 -0.3624177 0.76064992
-0.04129472 -0.2141815 0.67638582
-0.03786242 -0.40061739 0.83316809
-0.049066421 -0.35414779 0.65069091
-0.040367901 -0.2964513 0.81197739
-0.03905201 -0.259819 0.76005489
-0.040282909 -0.3993049 0.73597109
-0.050592959 -0.45059139 0.63730723
-0.048970401 -0.3839626 0.63197583
-0.03437591 -0.25808099 0.8317045
-0.037971791 -0.27771151 0.81836861
0.1362298 -0.1921728 0.64683169
0.1236662 -0.1939842 0.63759148
0.01644301 -0.187784 0.79103649
-0.042835411 -0.3389906 0.69679803
-0.037876159 -0.2918286 0.78525507
-0.045573119 -0.2206689 0.64097989
-0.048659921 -0.46531931 0.71233428
-0.047115982 -0.44708791 0.67823851
-0.04185218 -0.263657 0.6969161
-0.034209158 -0.213824 0.74515527
-0.04772466 -0.36283821 0.65899593
-0.0483073 -0.43906659 0.7110756
-0.047322448 -0.47219509 0.69075203
-0.040560629 -0.196383 0.73033619
-0.03579789 -0.3650988 0.83131808
0.16400459 -0.18898921 0.66538292
-0.04617786 -0.39499739 0.69608748
-0.037835419 -0.2855334 0.80159998
-0.03889874 -0.2303568 0.73920172
-0.036893308 -0.19718499 0.77011061
-0.038758218 -0.44666839 0.82336169
-0.045765519 -0.25566849 0.64318472
-0.04239333 -0.2150929 0.68803012
-0.038312729 -0.2525925 0.7367658
-0.019730151 -0.1894737 0.65213442
0.1144606 -0.1879759 0.73218322
-0.040080611 -0.28601241 0.76670903
0.1213284 -0.1859867 0.64560533
0.16762491 -0.1909261 0.73124057
-0.041801039 -0.2941094 0.62171119
-0.04677948 -0.36602071 0.62786508
-0.046103541 -0.3790026 0.65766412
-0.047427889 -0.33524781 0.65456867
-0.04566652 -0.43783301 0.79952651
-0.044997219 -0.40792841 0.74031562
-0.042320069 -0.2281689 0.63173831
-0.05303818 -0.4803125 0.70735472
-0.045893669 -0.2830005 0.66561741
-0.048246801 -0.46207169 0.7771489
-0.03544658 -0.1973318 0.79950929
-0.042265531 -0.1908724 0.69087481
-0.042877611 -0.47685951 0.60935122
-0.039028581 -0.37749839 0.75860667
-0.041027188 -0.32701531 0.698681
-0.04812533 -0.45895189 0.73792118
-0.038085699 -0.2378778 0.72308582
0.090187669 -0.1885986 0.68119103
-0.036106352 -0.3279103 0.81937832
-0.035356279 -0.29060149 0.82942742
-0.048314631 -0.43347529 0.68943489
-0.042708039 -0.29524529 0.67804122
-0.045157969 -0.30287769 0.63308251
-0.002963901 -0.191755 0.73541802
0.02004832 -0.18656801 0.71845949
-0.002115011 -0.1881091 0.81372219
-0.037464678 -0.2467172 0.74540561
-0.03988767 -0.36513031 0.81428951
-0.038574342 -0.2715711 0.74828857
-0.042899668 -0.38728401 0.742957
-0.033831239 -0.37310019 0.69857037
-0.043714821 -0.33230999 0.70897013
-0.04901081 -0.43586269 0.71692801
-0.042111069 -0.41494909 0.81098622
-0.03726089 -0.26616079 0.78392333
-0.038713869 -0.2067495 0.80257362
-0.045134962 -0.3398484 0.63360977
-0.048915029 -0.3067877 0.64138049
-0.045701738 -0.33115491 0.62694699
-0.0315274 -0.1953655 0.65373021
-0.04222995 -0.254994 0.61706418
0.1426369 -0.1888724 0.74761021
-0.05103958 -0.42834681 0.61940157
-0.04480708 -0.2037717 0.62224883
-0.040240049 -0.2075303 0.63324678
-0.043723639 -0.3900595 0.77256161
-0.04630363 -0.4325462 0.74165088
-0.04829127 -0.45923361 0.70326328
-0.041110162 -0.35931399 0.79126602
-0.037302371 -0.2385013 0.70011371
-0.045022901 -0.23152781 0.6901083
-0.044709381 -0.2477017 0.67656541
0.1160004 -0.2034709 0.6079458
-0.044781741 -0.24608821 0.68712282
-0.04471755 -0.36552751 0.68597972
0.1788294 -0.2255612 0.60521352
-0.046442632 -0.41826409 0.75396848
0.1353723 -0.39797619 0.60000229
-0.02109891 -0.28804839 0.60867202
-0.044609129 -0.33775079 0.67044133
-0.018530071 -0.1919965 0.67480808
0.060659651 -0.1920702 0.69236177
0.02281386 -0.1958034 0.64032972
-0.008733809 -0.31848079 0.6097613
-0.03552663 -0.2492848 0.74869668
-0.033199672 -0.2463212 0.79107481
-0.036725819 -0.2069557 0.75026357
-0.043673869 -0.41393179 0.77089667
-0.032719139 -0.39383331 0.80670011
-0.041843891 -0.290333 0.76213759
-0.042995099 -0.44160321 0.7693553
-0.035778161 -0.38409099 0.80552143
0.1452686 -0.4761723 0.59785688
-0.040284451 -0.46529639 0.80866212
-0.04613984 -0.32352859 0.65838391
-0.040318429 -0.42456201 0.73574948
0.042112291 -0.2220519 0.60619318
-0.04859734 -0.47924581 0.84720021
0.069158733 -0.1852186 0.648359
0.105081 -0.1873295 0.66349453
0.072327264 -0.1859699 0.77610523
0.01157111 -0.1893097 0.69180161
-0.047145009 -0.20179211 0.65046382
-0.023016101 -0.1921989 0.76289332
0.056154821 -0.1919086 0.82895237
-0.04802781 -0.46755779 0.76676512
-0.044357002 -0.42720279 0.8272447
-0.03741923 -0.26006889 0.8258599
-0.027628239 -0.1894585 0.61588168
-0.0072546601 -0.18761989 0.61497039
0.047187392 -0.1920339 0.67625737
0.07057178 -0.35135701 0.60520428
-0.041127499 -0.22356591 0.70546663
-0.043932501 -0.36617541 0.61231631
-0.044283751 -0.3350516 0.64309371
-0.01948655 -0.4654308 0.60934418
0.16015939 -0.1881465 0.6288327
0.175054 -0.19536971 0.74638832
0.02418251 -0.20450149 0.6113947
0.048744861 -0.18623739 0.72443122
0.03489041 -0.1889578 0.61932838
0.070716657 -0.20032351 0.60814238
0.1120499 -0.2370505 0.60621399
0.1544856 -0.25171661 0.60223341
0.051515859 -0.2321309 0.61341369
0.053523049 -0.24583849 0.61045438
0.1692192 -0.216664 0.60461658
0.0084531456 -0.2207928 0.61090028
0.1121846 -0.25582731 0.60536432
0.16529191 -0.2923207 0.60053462
0.086667947 -0.1928104 0.74869221
0.15390059 -0.1915962 0.69269288
0.1271185 -0.1929774 0.60543293
0.1402324 -0.187803 0.6978687
0.018128781 -0.1966974 0.60952288
0.046295229 -0.19481561 0.63131988
0.1227658 -0.22234111 0.60427117
0.1117028 -0.27184251 0.60333443
0.073467828 -0.25420871 0.60774243
0.03800064 -0.20981041 0.60737431
0.084384739 -0.2311888 0.60670888
0.1045191 -0.2839413 0.60232389
0.064184427 -0.1876948 0.70809251
0.085212827 -0.18549649 0.6870122
0.1699827 -0.1836732 0.77987391
0.05607241 -0.18989781 0.80508572
0.020858791 -0.18155511 0.71260071
0.050241262 -0.18917149 0.75824749
0.0168404 -0.19196481 0.77295887
0.1202724 -0.1906088 0.81424671
0.1602957 -0.19146439 0.76421779
0.1213663 -0.1934012 0.76791918
0.089921698 -0.1872312 0.78913492
-0.0065395162 -0.1908218 0.66054702
0.01156868 -0.18914559 0.71248472
0.035702381 -0.18859109 0.67607081
0.040598419 -0.19542819 0.6101476
-0.03957117 -0.18882041 0.65513468
0.051493291 -0.2119576 0.60431391
0.1027269 -0.2216718 0.60885692
0.07631328 -0.22712331 0.6077711
0.1441164 -0.27312621 0.60426491
0.1223112 -0.24976531 0.60458112
0.017674871 -0.19539 0.68769717
0.1259938 -0.25647601 0.6041171
