# .PCD v0.7 - Point Cloud Data file format
VERSION 0.7
FIELDS x y z normal_x normal_y normal_z curvature
SIZE 4 4 4 4 4 4 4
TYPE F F F F F F F
COUNT 1 1 1 1 1 1 1
WIDTH 622
HEIGHT 1
VIEWPOINT 0 0 0 1 0 0 0
POINTS 622
DATA ascii
0.1922715 0 0.2271058 -0 1 -0 0
0.1862781 0 0.2333874 -0 1 -0 0
0.19443949 0 0.23566937 -0 1 -0 0
0.2165024 0 0.2385184 -0 1 -0 0
0.21163695 0 0.24694535 -0 1 -0 0
0.2262308 0 0.2493905 -0 1 -0 0
0.23638615 0 0.24492049 -0 1 -0 0
0.242039 0 0.2418118 -0 1 -0 0
0.26877871 0 0.24864671 -0 1 -0 0
0.18900131 0 0.2586512 -0 1 -0 0
0.1976961 0 0.25180811 -0 1 -0 0
0.2050674 0 0.25966781 -0 1 -0 0
0.21258557 0 0.25332746 -0 1 -0 0
0.17581645 0 0.26589054 -0 1 -0 0
0.2006685 0 0.26121289 -0 1 -0 0
0.22067389 0 0.26813239 -0 1 -0 0
0.2337392 0 0.2602872 -0 1 -0 0
0.2745114 0 0.268895 -0 1 -0 0
0.146083 0 0.27936351 -0 1 -0 0
0.16630405 0 0.27653775 -0 1 -0 0
0.17695606 0 0.2761921 -0 1 -0 0
0.18583664 0 0.27788961 -0 1 -0 0
0.19645825 0 0.27535444 -0 1 -0 0
0.20385778 0 0.27576593 -0 1 -0 0
0.21406379 0 0.27147001 -0 1 -0 0
0.22645645 0 0.27811122 -0 1 -0 0
0.034695178 0 0.28804329 -0 1 -0 0
0.057673831 0 0.2846705 -0 1 -0 0
0.1282423 0 0.28708729 -0 1 -0 0
0.1381727 0 0.2894389 -0 1 -0 0
0.16313034 0 0.28827429 -0 1 -0 0
0.17580503 0 0.2821019 -0 1 -0 0
0.18266959 0 0.28786409 -0 1 -0 0
0.19479358 0 0.28454465 -0 1 -0 0
0.20560832 0 0.28402492 -0 1 -0 0
0.2104851 0 0.28831819 -0 1 -0 0
0.24047939 0 0.2834118 -0 1 -0 0
0.26179889 0 0.28561381 -0 1 -0 0
0.012773691 0 0.29637319 -0 1 -0 0
0.029919369 0 0.29492229 -0 1 -0 0
0.034245469 0 0.2966342 -0 1 -0 0
0.05106584 0 0.29235041 -0 1 -0 0
0.060758758 0 0.2924042 -0 1 -0 0
0.07278654 0 0.2944001 -0 1 -0 0
0.089879379 0 0.2931979 -0 1 -0 0
0.095361382 0 0.29311231 -0 1 -0 0
0.1097662 0 0.29959849 -0 1 -0 0
0.1219944 0 0.29439071 -0 1 -0 0
0.1435231 0 0.29906479 -0 1 -0 0
0.17796004 0 0.2955595 -0 1 -0 0
0.19623373 0 0.29516611 -0 1 -0 0
0.2040638 0 0.29348409 -0 1 -0 0
0.21608277 0 0.29480612 -0 1 -0 0
0.2293417 0 0.29804659 -0 1 -0 0
0.24526635 0 0.2935966 -0 1 -0 0
0.25484255 0 0.29527134 -0 1 -0 0
0.28622669 0 0.29392049 -0 1 -0 0
0.0063233082 0 0.30696031 -0 1 -0 0
0.01509269 0 0.30384526 -0 1 -0 0
0.021659279 0 0.30696139 -0 1 -0 0
0.03168875 0 0.30109811 -0 1 -0 0
0.040602971 0 0.3087047 -0 1 -0 0
0.054157998 0 0.3026334 -0 1 -0 0
0.074045122 0 0.30591482 -0 1 -0 0
0.0862564 0 0.30600679 -0 1 -0 0
0.09313865 0 0.3052507 -0 1 -0 0
0.1039148 0 0.303195 -0 1 -0 0
0.1566727 0 0.30662721 -0 1 -0 0
0.1833259 0 0.30204099 -0 1 -0 0
0.25199991 0 0.3078678 -0 1 -0 0
0.28584021 0 0.30323499 -0 1 -0 0
0.0026434211 0 0.31779891 -0 1 -0 0
0.01125348 0 0.3183693 -0 1 -0 0
0.02250383 0 0.31084889 -0 1 -0 0
0.036089905 0 0.31539077 -0 1 -0 0
0.053141326 0 0.31667328 -0 1 -0 0
0.068518132 0 0.31039041 -0 1 -0 0
0.10111 0 0.3170917 -0 1 -0 0
0.11913718 0 0.31792095 -0 1 -0 0
0.138809 0 0.31877431 -0 1 -0 0
0.1937518 0 0.3150661 -0 1 -0 0
0.2131608 0 0.3157371 -0 1 -0 0
0.22638559 0 0.31845099 -0 1 -0 0
0.2424348 0 0.31569552 -0 1 -0 0
0.302977 0 0.31725031 -0 1 -0 0
0.011114266 0 0.32322848 -0 1 -0 0
0.064915881 0 0.3263506 -0 1 -0 0
0.082823381 0 0.32376191 -0 1 -0 0
0.1558753 0 0.32391641 -0 1 -0 0
0.17553601 0 0.3280417 -0 1 -0 0
0.2038133 0 0.32407829 -0 1 -0 0
0.2130079 0 0.32762015 -0 1 -0 0
0.2241548 0 0.32595041 -0 1 -0 0
0.237829 0 0.32418939 -0 1 -0 0
0.2483115 0 0.32202911 -0 1 -0 0
0.27755696 0 0.32637745 -0 1 -0 0
0.0098238811 0 0.335875 -0 1 -0 0
0.025312215 0 0.33614025 -0 1 -0 0
0.04651216 0 0.33417571 -0 1 -0 0
0.052713331 0 0.33670941 -0 1 -0 0
0.064459778 0 0.3315365 -0 1 -0 0
0.11601385 0 0.33650565 -0 1 -0 0
0.13561955 0 0.33286917 -0 1 -0 0
0.15817299 0 0.33592331 -0 1 -0 0
0.168384 0 0.3371734 -0 1 -0 0
0.17015199 0 0.33486411 -0 1 -0 0
0.1861321 0 0.33415589 -0 1 -0 0
0.2071438 0 0.3303307 -0 1 -0 0
0.2161734 0 0.33606201 -0 1 -0 0
0.240684 0 0.3389771 -0 1 -0 0
0.25910467 0 0.33153868 -0 1 -0 0
0.022729009 0 0.34836209 -0 1 -0 0
0.089224517 0 0.343748 -0 1 -0 0
0.1011536 0 0.3406994 -0 1 -0 0
0.13262445 0 0.34530181 -0 1 -0 0
0.1563772 0 0.34633371 -0 1 -0 0
0.21476583 0 0.34607419 -0 1 -0 0
0.22381473 0 0.3428688 -0 1 -0 0
0.24553581 0 0.34436941 -0 1 -0 0
0.01327993 0 0.35245901 -0 1 -0 0
0.020340545 0 0.35856915 -0 1 -0 0
0.03106329 0 0.3517054 -0 1 -0 0
0.059208151 0 0.35375279 -0 1 -0 0
0.065653153 0 0.35001051 -0 1 -0 0
0.17498106 0 0.35723755 -0 1 -0 0
0.18176851 0 0.35903111 -0 1 -0 0
0.2164841 0 0.353163 -0 1 -0 0
0.22406664 0 0.35174018 -0 1 -0 0
0.018119549 0 0.36954349 -0 1 -0 0
0.026262771 0 0.36370891 -0 1 -0 0
0.031819526 0 0.36590558 -0 1 -0 0
0.044289388 0 0.36831826 -0 1 -0 0
0.05206205 0 0.3621175 -0 1 -0 0
0.06128842 0 0.3678588 -0 1 -0 0
0.11348712 0 0.36643195 -0 1 -0 0
0.1395271 0 0.36181581 -0 1 -0 0
0.14419225 0 0.3658126 -0 1 -0 0
0.1559753 0 0.36178699 -0 1 -0 0
0.1636209 0 0.36299968 -0 1 -0 0
0.018298369 0 0.37380621 -0 1 -0 0
0.025171779 0 0.37749946 -0 1 -0 0
0.042600218 0 0.3718718 -0 1 -0 0
0.084033079 0 0.37899181 -0 1 -0 0
0.1018964 0 0.37360579 -0 1 -0 0
0.018915379 0 0.3859944 -0 1 -0 0
0.02409094 0 0.38972899 -0 1 -0 0
0.037835982 0 0.38663808 -0 1 -0 0
0.065923423 0 0.38698441 -0 1 -0 0
0.084531806 0 0.38116649 -0 1 -0 0
0.02488922 0 0.39195201 -0 1 -0 0
0.033331305 0 0.39604285 -0 1 -0 0
0.031518038 0 0.40127969 -0 1 -0 0
0.02411584 0 0.4123517 -0 1 -0 0
0.32701212 0 0.426512 -0 1 -0 0
0.31579199 0 0.4440946 -0 1 -0 0
0.32434291 0 0.4487614 -0 1 -0 0
0.3889598 0 0.44072941 -0 1 -0 0
0.36395431 0 0.4608385 -0 1 -0 0
0.39575881 0 0.46680579 -0 1 -0 0
0.40168941 0 0.46559489 -0 1 -0 0
0.32876709 0 0.47654039 -0 1 -0 0
0.35460341 0 0.47527969 -0 1 -0 0
0.36375481 0 0.47465321 -0 1 -0 0
0.13357668 0 0.48770767 -0 1 -0 0
0.35476449 0 0.48448589 -0 1 -0 0
0.36559749 0 0.48534963 -0 1 -0 0
0.3742685 0 0.48289591 -0 1 -0 0
0.13525976 0 0.49304417 -0 1 -0 0
0.35559496 0 0.49466091 -0 1 -0 0
0.36875871 0 0.49662101 -0 1 -0 0
0.38810751 0 0.49976331 -0 1 -0 0
0.11876 0 0.50791281 -0 1 -0 0
0.1200877 0 0.50053132 -0 1 -0 0
0.1616181 0 0.50310642 -0 1 -0 0
0.36072779 0 0.50417054 -0 1 -0 0
0.12773201 0 0.51604652 -0 1 -0 0
0.16054225 0 0.51409441 -0 1 -0 0
0.3800343 0 0.51360607 -0 1 -0 0
0.125113 0 0.52459168 -0 1 -0 0
0.12682144 0 0.55817431 -0 1 -0 0
0.1368224 0 0.55875337 -0 1 -0 0
0.039841559 0 0.56453872 -0 1 -0 0
0.092758037 0 0.56870478 -0 1 -0 0
0.10569886 0 0.56409138 -0 1 -0 0
0.1118271 0 0.56558102 -0 1 -0 0
0.1272859 0 0.56275022 -0 1 -0 0
0.13271859 0 0.56338137 -0 1 -0 0
0.1407595 0 0.56451857 -0 1 -0 0
0.04517756 0 0.5783692 -0 1 -0 0
0.055414598 0 0.57351518 -0 1 -0 0
0.064106032 0 0.57849878 -0 1 -0 0
0.075622998 0 0.57654095 -0 1 -0 0
0.088833302 0 0.57359433 -0 1 -0 0
0.1021553 0 0.57085419 -0 1 -0 0
0.1288735 0 0.57543588 -0 1 -0 0
0.28902549 0 0.57281768 -0 1 -0 0
0.028999191 0 0.58051682 -0 1 -0 0
0.036365457 0 0.5846439 -0 1 -0 0
0.046492115 0 0.58240271 -0 1 -0 0
0.055449639 0 0.58045608 -0 1 -0 0
0.071970277 0 0.58912039 -0 1 -0 0
0.28580531 0 0.58665758 -0 1 -0 0
0.041691508 0 0.59189159 -0 1 -0 0
0.2543824 0 0.59708291 -0 1 -0 0
0.27838999 0 0.59904438 -0 1 -0 0
0.31329361 0 0.59393698 -0 1 -0 0
0.026807521 0 0.60703951 -0 1 -0 0
0.035224624 0 0.60529411 -0 1 -0 0
0.043263901 0 0.60584438 -0 1 -0 0
0.053808212 0 0.60413611 -0 1 -0 0
0.27288061 0 0.6056782 -0 1 -0 0
0.2965121 0 0.60957921 -0 1 -0 0
0.27496389 0 0.6135751 -0 1 -0 0
0.268262 0 0.62429076 -0 1 -0 0
0.27925071 0 0.62204981 -0 1 -0 0
0.27871859 0 0.63912731 -0 1 -0 0
0.30735585 0 0.6336956 -0 1 -0 0
0.269656 0 0.64287359 -0 1 -0 0
0.27566159 0 0.64387906 -0 1 -0 0
0.28101659 0 0.64635885 -0 1 -0 0
0.29893509 0 0.64513761 -0 1 -0 0
0.31200114 0 0.64556903 -0 1 -0 0
0.074996352 0 0.65523356 -0 1 -0 0
0.3116577 0 0.6536184 -0 1 -0 0
0.065727733 0 0.66865063 -0 1 -0 0
0.076206848 0 0.66687489 -0 1 -0 0
0.28224471 0 0.66440487 -0 1 -0 0
0.074859172 0 0.67327148 -0 1 -0 0
0.28614911 0 0.6767087 -0 1 -0 0
0.1323712 0 0.69736779 -0 1 -0 0
0.1431569 0 0.69564903 -0 1 -0 0
0.3588604 0 0.69832498 -0 1 -0 0
0.13968819 0 0.70422441 -0 1 -0 0
0.35758391 0 0.70496148 -0 1 -0 0
0.35906109 0 0.71893561 -0 1 -0 0
0.053775299 0 0.74927521 -0 1 -0 0
0.0320336 0 0.75774062 -0 1 -0 0
0.047165569 0 0.75615978 -0 1 -0 0
0.032673251 0 0.76542222 -0 1 -0 0
0.13906153 -0.18804832 0.31821853 -0.018032765 -0.99746287 0.068866722 0.00012878375
0.18614316 -0.18701203 0.33408043 0.011921171 -0.99728817 0.072623581 0.00052892917
0.16537233 -0.18355566 0.36639047 -0.010576762 -0.99704987 0.076023661 9.2115079e-05
0.17660159 -0.18925099 0.29956806 0.0121215 -0.99633741 0.084645793 0.00089985284
0.18276434 -0.19019693 0.28741473 0.019189855 -0.99636286 0.083023369 0.0010357401
0.18332352 -0.18931612 0.30165923 0.014793097 -0.99635363 0.084027193 0.00091762998
0.18764606 -0.19102433 0.27929926 0.023535974 -0.99611253 0.084887832 0.0011828219
0.17950213 -0.19091524 0.27963126 0.016994024 -0.99627501 0.084541902 0.0011273767
0.15822883 -0.18725684 0.33513361 -0.01192158 -0.99745667 0.070271507 0.00015029518
0.28242168 -0.19192986 0.66576034 0.15895656 -0.96381819 -0.21397971 0.021872658
0.17552514 -0.18743993 0.32771856 0.0048959898 -0.99730176 0.073247567 0.00045706012
0.1602588 -0.19017197 0.28919983 -0.0011004314 -0.99632519 0.085643865 0.00075676094
0.14359938 -0.18910977 0.29905254 -0.016045433 -0.99700373 0.075670555 0.00033856518
0.036775135 -0.18624742 0.38445732 0.047726996 -0.99863005 -0.021453198 0.0010936891
0.057378944 -0.10316182 0.60581392 0.038571592 0.96216476 0.26972431 0.00079128554
0.027336044 -0.19137996 0.41075325 0.098169155 -0.99404132 -0.047379281 0.0011865952
0.019826822 -0.1933277 0.41431534 0.10249326 -0.99295038 -0.059537958 0.0010300786
0.022237925 -0.18683812 0.34860373 0.034204271 -0.99936706 -0.0097748069 0.00099228777
0.031346358 -0.18619651 0.36995128 0.043210745 -0.99895298 -0.015026421 0.00086003583
0.050191566 -0.10102628 0.60169297 0.035146832 0.96326876 0.26622933 0.00089685142
0.026860151 -0.10455517 0.60691303 0.012482018 0.9630329 0.26909456 0.00105059
0.03654103 -0.10266543 0.60628814 0.025460294 0.96350032 0.26649377 0.0010951138
0.04322625 -0.1026701 0.60485762 0.035146832 0.96326876 0.26622933 0.00089685142
0.033617336 -0.10249692 0.60526478 0.020362148 0.96268487 0.26985759 0.0010667879
0.030387865 -0.1862046 0.3521882 0.030262703 -0.99950922 -0.008092965 0.0010212081
0.038541604 -0.18624091 0.38952604 0.050458856 -0.99845135 -0.023426116 0.0011973042
0.072137997 -0.098151505 0.59077734 0.054887816 0.96171266 0.26850718 0.00051628484
0.16837347 -0.18677783 0.33731395 -0.0030546428 -0.99728304 0.07360173 0.00027664439
0.15436764 -0.18801099 0.32184204 -0.011380648 -0.99746084 0.070301749 0.00018530172
0.2144458 -0.19207887 0.2511858 0.052673936 -0.99379706 0.097943082 0.0012906231
0.23731919 -0.18951619 0.24764645 0.054663796 -0.99289775 0.10566918 0.00092368829
0.1968797 -0.19041853 0.28135434 0.030407263 -0.99630946 0.080267079 0.0011377612
0.21374829 -0.1901021 0.27115801 0.043809775 -0.99568218 0.081839792 0.0011163476
0.1945229 -0.19124515 0.27486801 0.031296037 -0.99595749 0.084197208 0.0012785965
0.27021155 -0.28329393 0.62300712 0.38207319 -0.86014372 -0.3378948 0.0023987822
0.3134186 -0.1897545 0.65424049 0.11769913 -0.94687146 -0.29930153 0.007689286
0.35908103 -0.20177406 0.71893293 0.87728226 -0.46553555 -0.1168441 0
0.19787572 -0.19633812 0.23860855 0.053471137 -0.99134165 0.11992753 0.0015203204
0.19225428 -0.19726063 0.23887472 0.053262822 -0.99077773 0.12458925 0.0014794392
0.19596025 -0.19795242 0.2311215 0.061329145 -0.99007797 0.12642892 0.001511289
0.19187412 -0.19854902 0.23408882 0.05568688 -0.9902966 0.12732427 0.0015940546
0.21305998 -0.1878777 0.31571317 0.0359395 -0.99686921 0.070427939 0.0005473835
0.2071057 -0.18737686 0.33029282 0.027454922 -0.99690568 0.073656589 0.00053175772
0.22727416 -0.18650688 0.35132265 0.037366629 -0.99737573 0.062011071 0.00065319543
0.19956855 -0.1903459 0.27950636 0.030759633 -0.99631363 0.080081552 0.0012297395
0.21039477 -0.18922646 0.28823406 0.041537229 -0.99590898 0.080249451 0.00098040304
0.21216932 -0.18865077 0.29564723 0.041660685 -0.9958533 0.080873862 0.00094446156
0.22035712 -0.18697314 0.34341168 0.036830306 -0.99708772 0.066780388 0.00056582317
0.21391988 -0.18752636 0.32922271 0.035349533 -0.99680036 0.071690559 0.00054294273
0.2820009 -0.1917925 0.66347808 0.15892491 -0.96385419 -0.21384083 0.021904692
0.22073318 -0.18640965 0.35215008 0.031970188 -0.99741983 0.064277485 0.00068149075
0.21604957 -0.18720974 0.33607358 0.03302737 -0.99705184 0.069258563 0.00053827907
0.19640411 -0.19137852 0.27321917 0.032790959 -0.99597222 0.083451472 0.0013130148
0.19902435 -0.18984324 0.29280809 0.029404238 -0.99623442 0.081561841 0.0010820726
0.21633945 -0.18653442 0.3530786 0.028052635 -0.99732709 0.067465603 0.00066057045
0.20565407 -0.18998261 0.27887237 0.035013214 -0.99623942 0.079253197 0.0012368099
0.20054258 -0.19263801 0.26103228 0.041236702 -0.99441481 0.09715312 0.0013400384
0.19758692 -0.1941074 0.25167826 0.041983608 -0.99391353 0.101849 0.0015154849
0.2100587 -0.19210453 0.25688833 0.04583478 -0.99418968 0.097395755 0.0013310835
0.36630455 -0.19621006 0.48712558 -0.019592073 -0.99737906 0.069650374 0.003158981
0.37420762 -0.19671823 0.48287776 -0.019592073 -0.99737906 0.069650374 0.003158981
0.36167902 -0.19395292 0.5064798 -0.024049768 -0.99791795 0.05984455 0.0043650633
0.38822153 -0.19668801 0.49942422 -0.010054722 -0.99746954 0.070380256 0.0050731916
0.32684553 -0.2029956 0.44892651 0.01390126 -0.99484986 0.10040197 0.0024101734
0.32893184 -0.19722202 0.47564092 0.01409938 -0.99552333 0.093458101 0.0033070147
0.24527912 -0.18468834 0.34446171 0.012937006 -0.99967349 -0.022033185 0.0071815751
0.31220135 -0.18867658 0.64907461 0.11769913 -0.94687146 -0.29930153 0.007689286
0.27664348 -0.19129395 0.64734626 0.15892491 -0.96385419 -0.21384083 0.021904692
0.17552221 -0.19327734 0.26527092 0.023330688 -0.9949165 0.097963288 0.0013348778
0.2259905 -0.1866776 0.3183651 0.043082785 -0.99672258 0.068468764 0.00047563133
0.19652267 -0.19089469 0.27720562 0.031171506 -0.99619889 0.08133959 0.0012661902
0.18911299 -0.19374116 0.25884512 0.03686668 -0.99431276 0.099914804 0.001483446
0.2080846 -0.18944579 0.28735313 0.038269419 -0.99605608 0.08004766 0.0010625853
0.19504902 -0.19156092 0.27160731 0.033049572 -0.99593812 0.083755128 0.0013396398
0.20151342 -0.19107816 0.27092496 0.035879903 -0.99588543 0.083215512 0.0012895851
0.16085279 -0.1989758 0.51533014 -0.012406669 -0.99333966 -0.11455331 0.0042975298
0.27647471 -0.19087811 0.64573276 0.15892491 -0.96385419 -0.21384083 0.021904692
0.16036928 -0.18435551 0.3602874 -0.012988922 -0.99728769 0.072446354 9.9278644e-05
0.19375601 -0.18852933 0.3151086 0.01723559 -0.99689287 0.07686083 0.00065489847
0.17956735 -0.19085339 0.28026286 0.016994024 -0.99627501 0.084541902 0.0011273767
0.17630956 -0.19090906 0.28065231 0.016002687 -0.99623007 0.085261077 0.0010677121
0.19078907 -0.19070345 0.28217632 0.024830844 -0.99636394 0.081500657 0.0011924496
0.17146824 -0.1903588 0.28577536 0.0095232697 -0.99636948 0.084600382 0.00095275056
0.19666959 -0.18985604 0.29007822 0.028621575 -0.99624127 0.081756637 0.0011020728
0.20405419 -0.19027625 0.2771205 0.035013214 -0.99623942 0.079253197 0.0012368099
0.18390271 -0.19132377 0.27611199 0.023023443 -0.99585199 0.088026516 0.0012043166
0.13192013 -0.18586361 0.3465468 -0.019349055 -0.99761796 0.066211872 0.00011339036
0.13952361 -0.18424608 0.36169681 -0.016191853 -0.99743891 0.069666632 0.00010970091
0.22434488 -0.18641219 0.32596147 0.04179164 -0.99669617 0.069643103 0.0005108784
0.11776701 -0.19420697 0.50734657 -0.012406669 -0.99333966 -0.11455331 0.0042975298
0.13200448 -0.19673777 0.48842096 -0.012386121 -0.99334532 -0.11450575 0.004270725
0.13968819 -0.1748094 0.70422441 -0.40077999 0.10685777 0.90992129 0.0086351205
0.22392516 -0.18670279 0.34545082 0.038329568 -0.99714094 0.065120853 0.00057084637
0.118981 -0.18601392 0.3353076 -0.019675065 -0.99789733 0.061756223 0.00015067396
0.13813935 -0.18889292 0.28945026 -0.01770645 -0.9964366 0.082465984 0.00046124114
0.19096574 -0.18977816 0.29685447 0.022172632 -0.99625129 0.083616838 0.0010039037
0.16825482 -0.19108699 0.27441427 0.012394018 -0.9955731 0.09316922 0.0011007902
0.20184405 -0.19006073 0.28082544 0.034592763 -0.99622017 0.079679102 0.0012006343
0.17506287 -0.19131495 0.2754215 0.021427475 -0.99530333 0.094403699 0.0012061136
0.16606098 -0.18993355 0.28716615 0.0015052602 -0.99639231 0.084854007 0.00084420707
0.17803854 -0.18979874 0.2943936 0.013667327 -0.99638355 0.083863117 0.00092773273
0.10971554 -0.18817893 0.29962108 -0.0247919 -0.9975974 0.064689539 9.1739974e-05
0.16424635 -0.19056268 0.27886769 0.0058010812 -0.99605358 0.088564955 0.0009864216
0.21207191 -0.1877857 0.32602006 0.034360286 -0.99681145 0.072016895 0.0005291868
0.14143851 -0.18420444 0.36415458 -0.016538259 -0.99734628 0.070900217 0.00010059017
0.18173766 -0.1853404 0.35915598 0.0019591306 -0.9973675 0.072486222 0.0003563833
0.11746857 -0.18299033 0.37021232 -0.010180607 -0.99798709 0.062595002 0.00025838433
0.092793502 -0.093948282 0.56880784 0.054887816 0.96171266 0.26850718 0.00051628484
0.35890925 -0.19691148 0.69831848 -0.014479962 -0.98261344 -0.18509744 0.0011183434
0.055450771 -0.095139161 0.58055067 0.051368482 0.96207947 0.2678887 0.00062693586
0.13374689 -0.096497342 0.56507105 0.065425187 0.97482497 0.21315649 9.6142459e-05
0.069854155 -0.095247656 0.57920372 0.054887816 0.96171266 0.26850718 0.00051628484
0.062727921 -0.094222747 0.57672435 0.054887816 0.96171266 0.26850718 0.00051628484
0.03325412 -0.097271696 0.58736938 0.029257484 0.96301043 0.26787093 0.00099029241
0.10189345 -0.095425449 0.5699603 0.053563219 0.96517724 0.25605449 0.00042685642
0.048889052 -0.095009848 0.5803926 0.040543046 0.96289217 0.26682392 0.00087261188
0.10772555 -0.09533418 0.56936282 0.051670548 0.96880817 0.24236536 0.00041977482
0.08857134 -0.093629561 0.57066232 0.054887816 0.96171266 0.26850718 0.00051628484
0.075578421 -0.094357938 0.57326514 0.054887816 0.96171266 0.26850718 0.00051628484
0.039443247 -0.096676908 0.58563322 0.035296235 0.96315145 0.2666339 0.00088472251
0.12654229 -0.094822593 0.55842924 0.065425187 0.97482497 0.21315649 9.6142459e-05
0.042383388 -0.095756993 0.58258814 0.035296235 0.96315145 0.2666339 0.00088472251
0.13991615 -0.095821083 0.55987197 0.068372823 0.97397774 0.21608441 0.00010758713
0.02944996 -0.096805632 0.5796721 0.029257484 0.96301043 0.26787093 0.00099029241
0.11157412 -0.094701551 0.56507969 0.058518767 0.96591705 0.25215057 0.00032429499
0.045174893 -0.094518222 0.57840878 0.035296235 0.96315145 0.2666339 0.00088472251
0.13465729 -0.19672365 0.48896322 -0.012386121 -0.99334532 -0.11450575 0.004270725
0.039399862 -0.09624362 0.58410263 0.035296235 0.96315145 0.2666339 0.00088472251
0.12507288 -0.20046689 0.51513427 -0.012406669 -0.99333966 -0.11455331 0.0042975298
0.052513994 -0.16868258 0.74863583 0.81136805 -0.50770879 0.28967836 0.00040339731
0.048446007 -0.16855958 0.75680882 0.78368539 -0.47651517 0.39846006 0
0.12934448 -0.2000906 0.51376015 -0.012406669 -0.99333966 -0.11455331 0.0042975298
0.1323712 -0.16984721 0.69736779 -0.33546081 0.77708286 0.53254879 0.017248787
0.10909716 -0.093959145 0.56190723 0.056971963 0.96656299 0.25002056 0.00032596939
0.076824866 -0.16773175 0.67415941 0.022696827 -0.99635923 0.082176656 0.017664133
0.074198373 -0.17484456 0.65742862 -0.33621132 0.77331692 0.53753412 0.023552822
0.075401932 -0.17135243 0.65304118 -0.41578561 0.73256952 0.53894734 0.034555968
0.030942669 -0.19087344 0.76454502 0.78368539 -0.47651517 0.39846006 0
0.030885637 -0.18609928 0.29772151 0.003563907 -0.99997759 0.0056714243 0.00046896632
0.065634333 -0.18404053 0.34999108 0.013246302 -0.99991214 -0.00046931976 0.00091884675
0.064477272 -0.1848159 0.33149475 0.0078435428 -0.99993849 0.0078309271 0.00072382233
0.068523459 -0.18568036 0.31037742 -0.00010252173 -0.99961936 0.027588353 0.00053321128
0.10113604 -0.18532705 0.34073657 -0.0045073447 -0.99920017 0.03973306 0.0004536726
0.082478732 -0.1857167 0.32635123 -0.001897375 -0.99966776 0.025704263 0.00052184402
0.046285067 -0.18544836 0.33681691 0.016230671 -0.99986428 0.0028366528 0.00083705294
0.050715648 -0.18540204 0.31667009 0.010815931 -0.99989879 0.0092413267 0.00074493594
0.086268306 -0.18662381 0.30599532 -0.012747442 -0.99891371 0.044820987 0.00029274815
0.061345577 -0.1838769 0.3678683 0.017643115 -0.99984002 -0.0029154981 0.0009976686
0.032443255 -0.18792045 0.39684373 0.070910819 -0.99695539 -0.032429505 0.0013567845
0.020541266 -0.18663906 0.35986382 0.044136249 -0.99893934 -0.01312539 0.000962427
0.083127305 -0.18585549 0.32120609 -0.0046521542 -0.99944806 0.03289324 0.00045138641
0.06490586 -0.18510851 0.32638782 0.0075523779 -0.99992847 0.0092710722 0.00071072142
0.011079166 -0.18618453 0.32425085 0.019234244 -0.99977946 -0.0084373867 0.00043978743
0.046754166 -0.18504061 0.33155462 0.013017843 -0.9999035 0.0048600826 0.00074280717
0.041159961 -0.18529503 0.36804673 0.034827579 -0.9993462 -0.0097004334 0.00088215736
0.025956925 -0.18596858 0.33817112 0.02548915 -0.99964291 -0.0080214823 0.001045013
0.051066343 -0.18620926 0.29234174 -0.0045790286 -0.99987286 0.015273729 0.0003126357
0.0062865326 -0.18637082 0.30692765 0.016103983 -0.9998703 -0.00033768325 0.00035768686
0.10100735 -0.18691494 0.31715801 -0.016358711 -0.99844557 0.053280912 0.00023627059
0.031703319 -0.18594491 0.30119553 0.004361582 -0.9999817 0.004186491 0.00047101427
0.025851209 -0.18858165 0.3913542 0.067418799 -0.99726653 -0.030237056 0.0012129711
0.095288448 -0.18754029 0.29317123 -0.024000473 -0.9982006 0.054949343 9.8803604e-05
0.06608364 -0.18281379 0.38698077 0.030420411 -0.99946707 -0.011834718 0.0012304592
0.084519833 -0.18124343 0.38121381 0.020666391 -0.99978638 -0.00038325897 0.0011092763
0.042910766 -0.18518145 0.37193236 0.036224898 -0.99927288 -0.011891903 0.00094418385
0.089227982 -0.18487938 0.34373888 0.0047660908 -0.99983788 0.017363409 0.00063508062
0.052333333 -0.18440701 0.36216959 0.02523613 -0.99967211 -0.0043262206 0.0009542036
0.037305411 -0.18708465 0.39553249 0.065135285 -0.99741042 -0.030493414 0.0012855264
0.059282091 -0.18442622 0.35376969 0.014863029 -0.99988794 -0.0017772716 0.00096563314
0.0098291514 -0.18688658 0.33586973 0.028144415 -0.99950355 -0.014157236 0.00082249998
0.051766898 -0.18538174 0.31847277 0.010907196 -0.99990559 0.0083573926 0.00074027863
0.052653048 -0.18506727 0.336669 0.014145883 -0.99989647 0.0026286251 0.0008213119
0.021565862 -0.18594499 0.30884609 0.0096792299 -0.99995315 -7.4050971e-05 0.00048740007
0.069334537 -0.18883079 0.66862601 -0.41578561 0.73256952 0.53894734 0.034555968
0.0026103838 -0.1864823 0.31782681 0.024922008 -0.99967438 -0.0054741781 0.00047372075
0.071102865 -0.18657491 0.29152751 -0.013034938 -0.99947774 0.029567508 0.00023522599
0.040605169 -0.18575016 0.30862963 -4.6110017e-05 -0.99999553 0.0030172532 0.00039268876
0.022455504 -0.18595739 0.31089199 0.0098859165 -0.99994946 -0.001855466 0.00051096233
0.075083107 -0.1859348 0.30925599 -0.0040018256 -0.99938715 0.03477557 0.00044604667
0.093169533 -0.18679623 0.30522174 -0.018051419 -0.99841017 0.053397659 0.00021084069
0.089760698 -0.18726215 0.29329181 -0.020456703 -0.99867457 0.047229908 0.00013556781
0.056955043 -0.18553807 0.31485397 0.0059542391 -0.9998315 0.01736635 0.00060499419
0.047915969 -0.18464634 0.36861867 0.031380579 -0.99947441 -0.0081365146 0.000925762
0.054144371 -0.18591034 0.30267233 -0.0029874644 -0.99995768 0.0086958185 0.00035798925
0.074461371 -0.18636833 0.29715404 -0.010374749 -0.99939692 0.033137467 0.00026393123
0.013329163 -0.18635586 0.29716647 0.012615905 -0.99991959 0.0013225429 0.00036996859
0.038965471 -0.18598241 0.29981279 0.0041089817 -0.99997383 0.0059639351 0.00045481324
0.036134332 -0.18630177 0.29021606 0.00048783966 -0.99993932 0.011001707 0.00035879147
0.057693042 -0.18638448 0.28463086 -0.0074875141 -0.99968356 0.024014192 0.00023012406
0.060755517 -0.18622167 0.29241091 -0.0061937063 -0.99982226 0.017805563 0.00029422244
0.015669098 -0.18605383 0.30595621 0.012677855 -0.99991685 0.0023663393 0.00041971623
0.038461488 -0.18622713 0.31942886 0.014004458 -0.99989802 0.0027902848 0.00077632198
0.16155 -0.19785914 0.50280243 -0.012406669 -0.99333966 -0.11455331 0.0042975298
0.13337472 -0.1860459 0.34434718 -0.019607576 -0.99756581 0.066918977 0.00010890172
0.15336259 -0.18556869 0.34720159 -0.014632556 -0.99730748 0.071858324 0.00010125188
0.13973038 -0.18711543 0.33242378 -0.020173458 -0.99731618 0.070380554 9.3975505e-05
0.14698564 -0.18360429 0.36783585 -0.016632078 -0.99702448 0.075269938 5.3182535e-05
0.12836294 -0.18794896 0.28719708 -0.023435174 -0.99726915 0.070035301 0.00027797694
0.2789686 -0.18864413 0.63855803 0.15892491 -0.96385419 -0.21384083 0.021904692
0.1701422 -0.18707268 0.33504713 -0.00063157128 -0.99725789 0.074001834 0.00033250454
0.15735109 -0.18784295 0.3266274 -0.011383672 -0.99746114 0.070297666 0.00018820293
0.15667592 -0.18906869 0.30669248 -0.0088962084 -0.99733883 0.072361037 0.00030150654
0.16510974 -0.18411739 0.36220133 -0.0094597777 -0.99718744 0.074349821 0.00011514903
0.15936278 -0.18584408 0.34562778 -0.01096941 -0.99752164 0.069499232 0.00013366932
0.14602087 -0.19016901 0.27950808 -0.0097906711 -0.99584723 0.090512395 0.00069787045
0.17569362 -0.18508981 0.35685182 -0.0023570408 -0.99738222 0.072271302 0.00024953031
0.17624438 -0.19165079 0.27384245 0.022468552 -0.99509823 0.096305251 0.0011983505
0.17922696 -0.18995367 0.29293889 0.015491564 -0.99635905 0.083837837 0.00099127239
0.28758356 -0.25585043 0.57440847 0.38181004 -0.86018997 -0.33807436 0.0024260068
0.35840493 -0.19943337 0.70455694 -0.020611346 -0.98269546 -0.18407848 0.0011126786
0.27182928 -0.27260813 0.60670191 0.38181004 -0.86018997 -0.33807436 0.0024260068
0.28685063 -0.25963706 0.58550435 0.38181004 -0.86018997 -0.33807436 0.0024260068
0.30301842 -0.18084292 0.31729802 0.057929255 -0.99613678 0.065997943 0.00062114635
0.35866523 -0.19450803 0.47112635 -0.019592073 -0.99737906 0.069650374 0.003158981
0.38002813 -0.19608438 0.5136103 -0.049583245 -0.99811471 0.036173206 0.0035355461
0.35627249 -0.19707125 0.49471152 -0.019592073 -0.99737906 0.069650374 0.003158981
0.36194864 -0.19299312 0.46018678 -0.019592073 -0.99737906 0.069650374 0.003158981
0.28630102 -0.18483187 0.29411724 0.058639269 -0.99659109 0.058030941 0.00031724767
0.27736923 -0.18293135 0.32558125 0.065391809 -0.99677527 0.046507314 0.00041903439
0.39588761 -0.20035942 0.46687022 -0.0078860102 -0.99725974 0.073559061 0.0039196014
0.28942585 -0.18365744 0.30392009 0.064269982 -0.99667519 0.05007907 0.00045434336
0.35187337 -0.19636306 0.47875446 -0.019592073 -0.99737906 0.069650374 0.003158981
0.38900194 -0.20021753 0.44071323 -0.019592073 -0.99737906 0.069650374 0.003158981
0.28300878 -0.18420459 0.30117387 0.065375015 -0.99664658 0.049211096 0.00034837512
0.32664284 -0.20086406 0.42792347 0.025040338 -0.99488348 0.097876295 0.0028393366
0.24204515 -0.19016294 0.24200891 0.059695721 -0.99237311 0.1078518 0.00092190941
0.22046711 -0.18957449 0.26719028 0.051253714 -0.99547708 0.079990715 0.0010864428
0.26877287 -0.19050895 0.24870342 0.061251801 -0.99306965 0.10030336 0.00070905552
0.27450648 -0.1879525 0.26876575 0.060761943 -0.99559826 0.071358174 0.00024976727
0.21756445 -0.1929525 0.23927261 0.058245182 -0.99186844 0.11315705 0.0011637883
0.40164673 -0.19899602 0.46557432 -0.010049287 -0.9974665 0.07042443 0.0050717117
0.19400537 -0.19893055 0.22752853 0.062761113 -0.98981428 0.12778392 0.0016052728
0.19502617 -0.19748464 0.23570637 0.055264771 -0.99077982 0.12369733 0.0015899558
0.28077802 -0.19067165 0.64685833 0.15892491 -0.96385419 -0.21384083 0.021904692
0.1431569 -0.17311899 0.69564903 0.087714985 -0.99115884 -0.099549875 0.012133908
0.13532875 -0.19642621 0.48589543 -0.012386121 -0.99334532 -0.11450575 0.004270725
0.12478925 -0.19646411 0.50321233 -0.012406669 -0.99333966 -0.11455331 0.0042975298
0.13375543 -0.095413424 0.5596084 0.066489495 0.97483772 0.21276875 9.1376685e-05
0.1291727 -0.20069212 0.51788479 -0.012406669 -0.99333966 -0.11455331 0.0042975298
0.13251285 -0.19660842 0.486862 -0.012386121 -0.99334532 -0.11450575 0.004270725
0.13977675 -0.095344312 0.55751073 0.068801366 0.97397327 0.21596859 0.00012181936
0.11892131 -0.18315616 0.36864308 -0.010369848 -0.99804831 0.061579365 0.00025747565
0.28556415 -0.19256885 0.67626143 0.11768737 -0.94688028 -0.29927805 0.0076893512
0.12709108 -0.095544226 0.56231087 0.065425187 0.97482497 0.21315649 9.6142459e-05
0.055418134 -0.093305416 0.57381076 0.052520983 0.96199948 0.2679528 0.00059653708
0.062663451 -0.094937228 0.57972211 0.054095522 0.96163601 0.26894209 0.00053444464
0.048959021 -0.095814943 0.58323586 0.035296235 0.96315145 0.2666339 0.00088472251
0.075528592 -0.09556368 0.57912183 0.054887816 0.96171266 0.26850718 0.00051628484
0.032782767 -0.18768413 0.39423868 0.068628155 -0.99721491 -0.029197648 0.0012700212
0.039663322 -0.092603058 0.56515026 0.035296235 0.96315145 0.2666339 0.00088472251
0.088555776 -0.096122742 0.57475424 0.054887816 0.96171266 0.26850718 0.00051628484
0.041765444 -0.098096572 0.59079528 0.035296235 0.96315145 0.2666339 0.00088472251
0.083991252 -0.18150844 0.37915716 0.020560766 -0.99978769 0.0013427596 0.0011113285
0.074069515 -0.17539205 0.66688949 -0.33546081 0.77708286 0.53254879 0.017248787
0.061136138 -0.094136231 0.57639146 0.052532099 0.96198851 0.26798967 0.00059648516
0.12833224 -0.094590098 0.55698001 0.065425187 0.97482497 0.21315649 9.6142459e-05
0.029923594 -0.18619278 0.29493809 0.0027398025 -0.99995148 0.0094610807 0.00041691866
0.0730225 -0.18615702 0.30268562 -0.0052151168 -0.99948782 0.031572882 0.00044641254
0.033335425 -0.095741943 0.58196408 0.03274402 0.96328312 0.26648334 0.00094911398
0.04581926 -0.095573969 0.58217454 0.035296235 0.96315145 0.2666339 0.00088472251
0.03374505 -0.1912135 0.75860816 0.78368539 -0.47651517 0.39846006 0
0.025466543 -0.18651472 0.36162928 0.042677682 -0.99900699 -0.012793977 0.00093413715
0.020555055 -0.18651585 0.35715649 0.044136249 -0.99893934 -0.01312539 0.000962427
0.011290973 -0.18601424 0.31837869 0.019538064 -0.99979079 -0.0060529294 0.00045363492
0.025044851 -0.18839771 0.38905993 0.067620173 -0.99729258 -0.028897218 0.0011345402
0.011152341 -0.18608768 0.32219416 0.019305455 -0.99978626 -0.0074030538 0.00043996284
0.024890937 -0.18630369 0.33400434 0.023783613 -0.99971002 -0.0037774132 0.000844247
0.1018189 -0.18282294 0.37384689 0.0091627501 -0.99975383 0.020208249 0.00077881443
0.036598127 -0.18634775 0.38634428 0.049902044 -0.99848378 -0.023236161 0.0010597544
0.0310227 -0.18605497 0.29887739 0.003563907 -0.99997759 0.0056714243 0.00046896632
0.01848972 -0.18741821 0.36946526 0.05563907 -0.99826515 -0.019261459 0.00092688209
0.10374821 -0.18736495 0.3032831 -0.023536162 -0.99789053 0.06050273 0.00010087262
0.021722339 -0.18589911 0.30511534 0.010809661 -0.99993563 0.0034565877 0.00043914243
0.013446328 -0.18722601 0.35238618 0.044136249 -0.99893934 -0.01312539 0.000962427
0.032240238 -0.18599871 0.36186957 0.038904808 -0.99918544 -0.010719094 0.00088218413
0.03375398 -0.1858688 0.31132135 0.005257633 -0.99998564 -0.0010724415 0.00051685487
0.014560245 -0.18613654 0.30178788 0.011035577 -0.99993896 0.00058453763 0.00038900875
0.012212111 -0.18605506 0.29557362 0.011177301 -0.9999308 0.0036827323 0.0003178716
0.034691919 -0.18635593 0.28805596 0.00015003946 -0.99994743 0.010254697 0.00037629096
0.019210339 -0.18788588 0.37557706 0.065926455 -0.99755573 -0.023156209 0.00087870576
0.27675942 -0.1890471 0.63907957 0.15892491 -0.96385419 -0.21384083 0.021904692
0.26660693 -0.18978707 0.62397909 0.15892491 -0.96385419 -0.21384083 0.021904692
0.27448168 -0.19000995 0.64173746 0.15892491 -0.96385419 -0.21384083 0.021904692
0.31208369 -0.1856503 0.64292419 0.11769913 -0.94687146 -0.29930153 0.007689286
0.28128198 -0.26528347 0.59622842 0.38181004 -0.86018997 -0.33807436 0.0024260068
0.36053464 -0.19422124 0.50147718 -0.024049768 -0.99791795 0.05984455 0.0043650633
0.31577572 -0.19575821 0.44409353 0.050267879 -0.99569643 0.077857092 0.0023130476
0.29038125 -0.2090997 0.40951163 0.10555111 -0.99118358 0.080087759 0.0066258591
0.2597321 -0.1836241 0.33274612 0.040269557 -0.99918187 -0.0037322608 0.0058251955
0.24878657 -0.18419422 0.32219711 0.056377109 -0.99685466 0.055700358 0.00037309676
0.31008536 -0.18984199 0.65199429 0.11769913 -0.94687146 -0.29930153 0.007689286
0.3638303 -0.19604623 0.48073095 -0.019592073 -0.99737906 0.069650374 0.003158981
0.35451016 -0.19622889 0.48478249 -0.019592073 -0.99737906 0.069650374 0.003158981
0.32734257 -0.20046431 0.4250859 0.050844532 -0.99554878 0.07935673 0.0026245713
0.28978756 -0.20486175 0.4049224 0.42614102 -0.77964252 -0.45886976 0.018858515
0.28104594 -0.19079353 0.64693654 0.15892491 -0.96385419 -0.21384083 0.021904692
0.21247262 -0.19285931 0.24723577 0.053417724 -0.99313027 0.10410938 0.0013120758
0.24366203 -0.18492793 0.31292322 0.054052144 -0.9967373 0.059943303 0.00039867658
0.22418129 -0.18654098 0.34216839 0.039114393 -0.99709821 0.065308653 0.00054565055
0.23505685 -0.19036584 0.24185872 0.057196494 -0.99217021 0.1110257 0.0010256313
0.24075976 -0.18488632 0.33895913 0.050383858 -0.99713194 0.056474507 0.00047880888
0.2777828 -0.18285938 0.32722601 0.013898781 -0.9996013 -0.024575919 0.0073163449
0.22966479 -0.18667889 0.29823557 0.050269127 -0.99599236 0.07397414 0.00075549172
0.29741377 -0.18989417 0.65040416 0.12849352 -0.95574623 -0.26464787 0.013122496
0.23387295 -0.18895291 0.26037717 0.053476226 -0.99436671 0.091515332 0.00096664391
0.24574628 -0.18572402 0.29502255 0.058879208 -0.99626333 0.063187882 0.00053969235
0.23825429 -0.18516967 0.32427755 0.052657466 -0.99693745 0.057817575 0.00039872646
0.2282728 -0.18822654 0.2789346 0.053937223 -0.99571449 0.075122967 0.0010043648
0.25796843 -0.18522556 0.29843995 0.064099796 -0.99639708 0.055535082 0.0003370443
0.2448339 -0.18606713 0.29221681 0.058007382 -0.99589062 0.069549054 0.00076605094
0.21412665 -0.19198254 0.25249323 0.05170406 -0.99378592 0.09857101 0.0012717101
0.25198939 -0.1848859 0.30786183 0.058548182 -0.99666589 0.056825858 0.00036314622
0.26179397 -0.18616976 0.28574297 0.065559313 -0.99628192 0.055895939 0.00030403395
0.22652815 -0.19029002 0.24958993 0.054782595 -0.99330926 0.10166411 0.0010736132
0.240557 -0.18724704 0.28351033 0.057855725 -0.99556637 0.074163631 0.00095412188
0.2165696 -0.18868101 0.29010966 0.043371662 -0.99586147 0.079867527 0.00096325518
0.21387924 -0.18634225 0.34597844 0.029160185 -0.99720222 0.068830155 0.00057038252
0.28491834 -0.18381393 0.30427936 0.065499447 -0.99665833 0.04880571 0.0003993568
0.25169241 -0.18599527 0.29206288 0.059312653 -0.99654222 0.058185786 0.0004063556
0.22133502 -0.18943743 0.26932913 0.05104116 -0.99553931 0.079349078 0.0010447941
0.20423861 -0.18945961 0.29371357 0.033885129 -0.99610484 0.08140628 0.0010530669
0.29585978 -0.26492584 0.61021435 0.95048642 -0.13104223 0.2817862 0.03793766
0.11861684 -0.18701318 0.31894335 -0.022574602 -0.9975189 0.06668207 0.00011998316
0.11003453 -0.18328817 0.36602819 -0.0024418992 -0.9991799 0.040418215 0.00053583889
0.12896921 -0.098297074 0.57573414 0.073544025 0.96294737 0.25946805 0.00021712725
0.1191624 -0.18701567 0.31810734 -0.02319607 -0.99745566 0.067410335 0.00010714141
0.29040205 -0.20767577 0.40824956 0.10555111 -0.99118358 0.080087759 0.0066258591
0.1198753 -0.18704136 0.31814876 -0.023121629 -0.99746412 0.067311242 0.00010956857
0.13622229 -0.19683881 0.4931851 -0.012386121 -0.99334532 -0.11450575 0.004270725
0.12647843 -0.20063636 0.5282312 -0.012406669 -0.99333966 -0.11455331 0.0042975298
0.30512023 -0.17484368 0.63438374 0.15900637 -0.9638533 -0.21378417 0.021841645
0.27967685 -0.19018379 0.64456868 0.15892491 -0.96385419 -0.21384083 0.021904692
0.3094016 -0.17769428 0.63690346 0.15900637 -0.9638533 -0.21378417 0.021841645
0.27553701 -0.19048128 0.64385194 0.15892491 -0.96385419 -0.21384083 0.021904692
0.28710991 -0.20634769 0.40286508 0.22888224 -0.9272489 -0.29634869 0.010841117
0.12569799 -0.094970137 0.55964708 0.063613348 0.97510481 0.21242373 0.00010855708
0.11916319 -0.18711586 0.31606713 -0.023121629 -0.99746412 0.067311242 0.00010956857
0.11050117 -0.18357259 0.36322579 -0.0041326936 -0.99898994 0.044742975 0.0004606474
0.22877809 -0.18601212 0.34024352 0.041233025 -0.99698263 0.06576816 0.00055247353
0.17616013 -0.19315551 0.26617554 0.023330688 -0.9949165 0.097963288 0.0013348778
0.11305701 -0.18583655 0.33775851 -0.016719637 -0.99822682 0.057129327 0.00022182838
0.20701624 -0.18969379 0.28402668 0.0358635 -0.99618399 0.079569601 0.0011469391
0.19861475 -0.18968064 0.29577923 0.027967425 -0.99618894 0.082616255 0.0010616623
0.21916613 -0.18792586 0.29846582 0.045359053 -0.99577719 0.079815209 0.0009265003
0.22483623 -0.18860799 0.27741253 0.051070508 -0.99580663 0.075901113 0.0010262128
0.1917771 -0.19849467 0.23457317 0.05568688 -0.9902966 0.12732427 0.0015940546
0.21286693 -0.18637353 0.34546575 0.028452741 -0.99718815 0.069326907 0.00055868569
0.10079281 -0.093677424 0.56207669 0.052834041 0.96677256 0.25011864 0.00042018134
0.24146728 -0.18510963 0.31856102 0.051786698 -0.99679655 0.060949281 0.0004044823
0.25854582 -0.18367127 0.33037886 0.065054312 -0.99696964 0.042654805 0.00023815531
0.21160018 -0.19302343 0.24718033 0.053937521 -0.99287844 0.10622188 0.001300257
0.18548359 -0.20072538 0.23276027 0.046212941 -0.99061346 0.1286442 0.001979352
0.20492923 -0.19246617 0.25949508 0.046172448 -0.99426395 0.096474983 0.0013112099
0.20382455 -0.18780042 0.32408643 0.026564213 -0.99695307 0.073340878 0.00052818697
0.11047263 -0.18358733 0.36308044 -0.0041326936 -0.99898994 0.044742975 0.0004606474
0.36422381 -0.19614451 0.47479165 -0.019592073 -0.99737906 0.069650374 0.003158981
0.36675379 -0.19623931 0.48825631 -0.019592073 -0.99737906 0.069650374 0.003158981
0.36821896 -0.1963491 0.49629745 -0.024049768 -0.99791795 0.05984455 0.0043650633
0.3556602 -0.19702698 0.49374408 -0.019592073 -0.99737906 0.069650374 0.003158981
0.3566941 -0.2028695 0.70537519 -0.020611346 -0.98269546 -0.18407848 0.0011126786
0.22250274 -0.18674855 0.34278077 0.036830306 -0.99708772 0.066780388 0.00056582317
0.21747606 -0.18665673 0.34666348 0.032592133 -0.99707568 0.069122784 0.00057336566
0.27587342 -0.1898068 0.6415028 0.15892491 -0.96385419 -0.21384083 0.021904692
0.31158304 -0.18899567 0.64687681 0.11769913 -0.94687146 -0.29930153 0.007689286
0.27822492 -0.1941317 0.64044374 -0.05279706 -0.5343557 0.84360915 0.16132353
0.17422676 -0.18477938 0.3577432 -0.0033301148 -0.99730736 0.073258884 0.00021789974
0.27284235 -0.1899213 0.64037126 0.15892491 -0.96385419 -0.21384083 0.021904692
0.15603861 -0.18371613 0.36157277 -0.014417594 -0.99722183 0.073080301 8.8095738e-05
0.16011839 -0.19883227 0.51328009 -0.012406669 -0.99333966 -0.11455331 0.0042975298
0.12218415 -0.18814535 0.2945087 -0.025361992 -0.99754655 0.065251261 8.7815373e-05
0.13428031 -0.19663684 0.49122098 -0.012386121 -0.99334532 -0.11450575 0.004270725
0.13149194 -0.18704043 0.33328927 -0.020665383 -0.997504 0.067518629 8.8766777e-05
0.12384067 -0.20111427 0.52140605 -0.012406669 -0.99333966 -0.11455331 0.0042975298
0.14150904 -0.097816139 0.5688253 0.068372823 0.97397774 0.21608441 0.00010758713
0.13188291 -0.095851146 0.56228989 0.065425187 0.97482497 0.21315649 9.6142459e-05
0.13484696 -0.19733208 0.49621004 -0.012386121 -0.99334532 -0.11450575 0.004270725
0.026071779 -0.18653379 0.36593476 0.043566398 -0.99895686 -0.013679177 0.00093509658
0.0311231 -0.18819754 0.4013994 0.082910314 -0.9957028 -0.041252676 0.0012035159
0.025206406 -0.18778875 0.37920323 0.060019337 -0.9979102 -0.023937047 0.00098567049
0.017725766 -0.18756381 0.37203231 0.05563907 -0.99826515 -0.019261459 0.00092688209
0.071816422 -0.18187702 0.67239088 0.022696827 -0.99635923 0.082176656 0.017664133
0.025310598 -0.18755759 0.375741 0.052445799 -0.99845701 -0.018250845 0.00097187067
0.018050201 -0.18939498 0.38623598 0.077655859 -0.99653172 -0.029900996 0.0010718285
