# .PCD v0.7 - Point Cloud Data file format
VERSION 0.7
FIELDS x y z
SIZE 4 4 4
TYPE F F F
COUNT 1 1 1
WIDTH 405
HEIGHT 1
VIEWPOINT 0 0 0 1 0 0 0
POINTS 405
DATA ascii
0.138809 -0.19426949 0.31877431
0.1861321 -0.18808541 0.33415589
0.1652883 -0.1869645 0.36680159
0.1766016 -0.18925039 0.299568
0.18266959 -0.1945305 0.28786409
0.1833259 -0.1938616 0.30204099
0.18775269 -0.19503669 0.2795659
0.17945971 -0.1932544 0.2798647
0.15817299 -0.1934223 0.33592331
0.28246921 -0.1968475 0.66545558
0.17553601 -0.1911688 0.3280417
0.1602065 -0.1926797 0.2893517
0.1435231 -0.1946016 0.29906479
0.037831999 -0.1928145 0.38425609
0.057410881 -0.100306 0.60678637
0.02721652 -0.19012889 0.41099769
0.02101516 -0.19782519 0.41370571
0.022729009 -0.1927301 0.34836209
0.03187561 -0.19214711 0.3699618
0.05020554 -0.1017568 0.60148579
0.026807521 -0.1041525 0.60703951
0.036563251 -0.1020007 0.60649532
0.043263901 -0.099766828 0.60584438
0.033886001 -0.1066292 0.6040929
0.027576789 -0.1983982 0.7804808
0.03106329 -0.19492561 0.3517054
0.03967867 -0.1935278 0.3890762
0.071970277 -0.1038903 0.58912039
0.02926245 -0.1967217 0.78607261
0.168384 -0.1854822 0.3371734
0.1543998 -0.1829147 0.321354
0.2145292 -0.1925613 0.25124171
0.2376399 -0.19474819 0.24791799
0.196969 -0.19229209 0.28147721
0.21406379 -0.19356591 0.27147001
0.194599 -0.1929217 0.27502149
0.26967281 -0.28118119 0.6247223
0.31330809 -0.1884169 0.65465951
0.35906109 -0.2017635 0.71893561
0.1983379 -0.19871759 0.2389275
0.1927243 -0.1998931 0.2393003
0.1969935 -0.20109621 0.2314509
0.1928077 -0.2024233 0.2347106
0.2131608 -0.18877129 0.3157371
0.2071438 -0.1882281 0.3303307
0.2273417 -0.1870693 0.3513065
0.1996448 -0.1918557 0.27960211
0.2104851 -0.1906179 0.28831819
0.21227109 -0.1898648 0.29573411
0.2204257 -0.1875968 0.34338331
0.21412051 -0.1891875 0.3292301
0.28202021 -0.193791 0.66335422
0.22079159 -0.18774609 0.35217389
0.2161734 -0.1883077 0.33606201
0.1965757 -0.193993 0.2735098
0.19911879 -0.1926986 0.29297811
0.2164841 -0.1901793 0.353163
0.20582651 -0.1925734 0.2790311
0.2006685 -0.1940317 0.26121289
0.1976961 -0.1950964 0.25180811
0.2100628 -0.192137 0.25689229
0.3662996 -0.19641291 0.4871223
0.3742685 -0.1963224 0.48289591
0.36101061 -0.1974161 0.50681847
0.38810751 -0.1993062 0.49976331
0.32434291 -0.20693371 0.4487614
0.32876709 -0.202906 0.47654039
0.24553581 -0.187398 0.34436941
0.31222889 -0.1892367 0.64887452
0.27615789 -0.1872007 0.64845198
0.17555609 -0.1917519 0.26504159
0.22638559 -0.19031841 0.31845099
0.19645619 -0.18969449 0.2770834
0.18900131 -0.19231381 0.2586512
0.20803709 -0.18875431 0.28730959
0.1950155 -0.191047 0.27155551
0.2015714 -0.1918429 0.27100551
0.1608457 -0.1988312 0.5153507
0.2763311 -0.1896674 0.64605981
0.16043881 -0.18224519 0.3600865
0.1937518 -0.1878341 0.3150661
0.17956249 -0.1911213 0.28028959
0.1763666 -0.1875485 0.28034249
0.19078121 -0.1904902 0.28216171
0.17148601 -0.189107 0.28567371
0.19663049 -0.1888634 0.28999501
0.2041754 -0.19211289 0.2772612
0.18392061 -0.1924299 0.27621329
0.1318987 -0.18440069 0.34641141
0.1395271 -0.18542381 0.36181581
0.2241548 -0.1845338 0.32595041
0.11876 -0.19215479 0.50791281
0.131974 -0.19547109 0.4885371
0.13968819 -0.1748094 0.70422441
0.2236619 -0.1842398 0.3455517
0.1189882 -0.1845848 0.33522099
0.1381727 -0.1865698 0.2894389
0.19092099 -0.18733931 0.29667681
0.1683301 -0.1887892 0.27425829
0.20172609 -0.18801171 0.2807011
0.1750896 -0.1897092 0.27528429
0.1660542 -0.19025201 0.2871969
0.17804679 -0.1880316 0.29425189
0.1097662 -0.1875717 0.29959849
0.164278 -0.1895026 0.27881721
0.2118953 -0.18631729 0.3260102
0.1413966 -0.1802827 0.36377701
0.18176851 -0.18433291 0.35903111
0.1174905 -0.18046729 0.369966
0.092758037 -0.09419328 0.56870478
0.3588604 -0.1968856 0.69832498
0.055449639 -0.09548682 0.58045608
0.1337527 -0.096396573 0.56509107
0.069828719 -0.096499287 0.57894123
0.062742174 -0.09232071 0.57715517
0.03326885 -0.098126464 0.58712769
0.1021553 -0.093177631 0.57085419
0.04884227 -0.092564046 0.58108628
0.107666 -0.096089259 0.56921673
0.08878231 -0.092310511 0.57139742
0.075669177 -0.092157483 0.57371891
0.039361831 -0.09242034 0.58684051
0.12679391 -0.09157908 0.55899668
0.042369891 -0.095051453 0.58278823
0.1400879 -0.092843369 0.56046307
0.028999191 -0.093385793 0.58051682
0.1118271 -0.091715239 0.56558102
0.04517756 -0.094657682 0.5783692
0.0039507002 -0.173907 0.76710749
0.1346135 -0.1949036 0.48913011
0.039471619 -0.099995062 0.58303863
0.1249101 -0.19656681 0.51569623
0.053775299 -0.1694503 0.74927521
0.047165569 -0.16778021 0.75615978
0.12917501 -0.1960301 0.51434523
0.1323712 -0.16984721 0.69736779
0.1086852 -0.098822117 0.56109089
0.074350923 -0.1668579 0.67417628
0.076511219 -0.1756615 0.65741283
0.073481493 -0.1706741 0.6530543
0.032673251 -0.19192681 0.76542222
0.030890999 -0.1868002 0.29774979
0.065653153 -0.18435781 0.35001051
0.064459778 -0.1857758 0.3315365
0.068518132 -0.18622079 0.31039041
0.1011536 -0.1846959 0.3406994
0.082477607 -0.1857551 0.32635221
0.046291951 -0.1856637 0.33681789
0.050694969 -0.18690281 0.3167257
0.0862564 -0.1869085 0.30600679
0.06128842 -0.1834591 0.3678588
0.031178109 -0.1811341 0.3975246
0.02034617 -0.18369091 0.35988459
0.083169147 -0.18449721 0.32117161
0.064915881 -0.18432879 0.3263506
0.0110782 -0.1860981 0.32425249
0.04673237 -0.1840183 0.33153349
0.040874381 -0.1821256 0.3680487
0.02588707 -0.1843175 0.3381879
0.05106584 -0.18645459 0.29235041
0.0063233082 -0.18740369 0.30696031
0.10111 -0.18545949 0.3170917
0.03168875 -0.1831933 0.30109811
0.02488922 -0.18334369 0.39195201
0.095361382 -0.1861701 0.29311231
0.065923423 -0.1813055 0.38698441
0.084531806 -0.1809001 0.38116649
0.042600218 -0.1820422 0.3718718
0.089224517 -0.1850096 0.343748
0.05206205 -0.1813028 0.3621175
0.037230261 -0.186601 0.39557779
0.059208151 -0.183531 0.35375279
0.0098238811 -0.186731 0.335875
0.051785629 -0.1833546 0.31839561
0.052713331 -0.1866138 0.33670941
0.021605689 -0.1878155 0.30882049
0.065727733 -0.1875568 0.66865063
0.0026434211 -0.18764681 0.31779891
0.071104527 -0.18792 0.2915836
0.040602971 -0.18816569 0.3087047
0.02250383 -0.1885664 0.31084889
0.075085431 -0.18654621 0.30927449
0.09313865 -0.1874669 0.3052507
0.089879379 -0.18472201 0.2931979
0.056943379 -0.1868009 0.31489849
0.047704391 -0.18258721 0.36858779
0.054157998 -0.18391261 0.3026334
0.074468553 -0.18795151 0.29721659
0.01333448 -0.18656529 0.29717249
0.03896438 -0.18623149 0.29982129
0.03613257 -0.1870646 0.29024339
0.057673831 -0.1875755 0.2846705
0.060758758 -0.18603709 0.2924042
0.015674271 -0.1862306 0.3059617
0.038455281 -0.1858218 0.31944409
0.1616181 -0.1934682 0.50310642
0.13335019 -0.18437161 0.34419221
0.1533851 -0.1846914 0.34709081
0.13973729 -0.186729 0.3323701
0.1469879 -0.1837054 0.36784819
0.1282423 -0.18947031 0.28708729
0.27871859 -0.1865367 0.63912731
0.17015199 -0.1853184 0.33486411
0.15735079 -0.1865413 0.32647881
0.1566727 -0.1874413 0.30662721
0.16513561 -0.1833863 0.36211091
0.1593693 -0.18537501 0.34557661
0.146083 -0.1872941 0.27936351
0.1757632 -0.1823335 0.35648969
0.1763189 -0.1881924 0.27342731
0.1792317 -0.1889676 0.2928586
0.28902549 -0.260791 0.57281768
0.35849601 -0.19948161 0.70454478
0.27288061 -0.27542871 0.6056782
0.28580531 -0.25605541 0.58665758
0.4250187 -0.1873454 0.76266831
0.302977 -0.1803979 0.31725031
0.35771739 -0.1890517 0.47160929
0.3800343 -0.196032 0.51360607
0.35572481 -0.1906886 0.49535021
0.36395431 -0.1855171 0.4608385
0.28622669 -0.1829918 0.29392049
0.27731681 -0.1803429 0.32551631
0.39575881 -0.201161 0.46680579
0.28945261 -0.1843197 0.3039909
0.35148939 -0.1941527 0.47895011
0.3889598 -0.20031349 0.44072941
0.2829839 -0.1835355 0.30111271
0.32694829 -0.2005821 0.42803851
0.242039 -0.1873339 0.2418118
0.2200162 -0.18590011 0.26693761
0.26877871 -0.1900626 0.24864671
0.2745114 -0.1892354 0.268895
0.2165024 -0.18693811 0.2385184
0.40168941 -0.19941241 0.46559489
0.1922715 -0.19430961 0.2271058
0.1940975 -0.19365481 0.235121
0.28081489 -0.1909824 0.64677441
0.1431569 -0.17311899 0.69564903
0.135289 -0.1947739 0.48604691
0.1200877 -0.2061806 0.50053132
0.1337305 -0.095845573 0.55952263
0.1291109 -0.1992117 0.51809812
0.1324302 -0.1937454 0.48711661
0.1399143 -0.092959613 0.55798411
0.1189436 -0.1805916 0.36839271
0.28614911 -0.1863198 0.6767087
0.1272859 -0.093032971 0.56275022
0.055414598 -0.094391897 0.57351518
0.062666737 -0.093928427 0.57999659
0.04892426 -0.093997627 0.58375132
0.075576819 -0.094394311 0.57936299
0.031585541 -0.180665 0.39502621
0.039841559 -0.096105129 0.56453872
0.088884287 -0.094236702 0.57579118
0.041691508 -0.094231173 0.59189159
0.084033079 -0.1803086 0.37899181
0.076206848 -0.176147 0.66687489
0.061186511 -0.087466732 0.57790208
0.12799589 -0.09995015 0.55593199
0.029919369 -0.1857859 0.29492229
0.073004819 -0.1824488 0.30255511
0.03335952 -0.097140223 0.58156872
0.045832042 -0.096242197 0.581985
0.0320336 -0.19017179 0.75774062
0.1804397 -0.1349842 0.60901511
0.025533641 -0.1873502 0.36163121
0.02033492 -0.18279161 0.3572537
0.01125348 -0.18364289 0.3183693
0.02409094 -0.1826141 0.38972899
0.01115033 -0.1855378 0.3222045
0.02473736 -0.18223231 0.33409259
0.1018964 -0.1805214 0.37360579
0.035997279 -0.1824972 0.38658199
0.030993929 -0.18230809 0.29872239
0.018119549 -0.1840968 0.36954349
0.1039148 -0.1847541 0.303195
0.021712869 -0.1854489 0.30510229
0.01327993 -0.18539479 0.35245901
0.031763442 -0.17963371 0.3618494
0.033724532 -0.1831075 0.31133741
0.01451111 -0.18385249 0.30172881
0.0122129 -0.18613701 0.29557389
0.034695178 -0.18595611 0.28804329
0.01849325 -0.1823063 0.37565991
0.2763494 -0.18559089 0.64001322
0.26685119 -0.1897687 0.62385923
0.27361089 -0.18247619 0.64379072
0.27925071 -0.1462272 0.62204981
0.31208071 -0.18558539 0.64297873
0.27838999 -0.2575247 0.59904438
0.27496389 -0.14712051 0.6135751
0.36044499 -0.1946858 0.5015226
0.31579199 -0.19573259 0.4440946
0.29026291 -0.2090154 0.40960479
0.3978419 -0.1931006 0.75869292
0.2543824 -0.1967932 0.59708291
0.25971439 -0.183219 0.33273679
0.2483115 -0.1793085 0.32202911
0.3100073 -0.1882173 0.65257728
0.36385199 -0.1951544 0.4807454
0.35476449 -0.19919281 0.48448589
0.32707599 -0.2007104 0.4249855
0.28972149 -0.2048147 0.4049744
0.28121829 -0.2080449 0.64594328
0.3657724 -0.1962211 0.73741448
0.2119149 -0.18977059 0.246869
0.2433906 -0.1821084 0.31282669
0.2237222 -0.18224581 0.34234431
0.2351324 -0.19113611 0.241923
0.240684 -0.18412951 0.3389771
0.2777971 -0.183313 0.32723859
0.2293417 -0.1835254 0.29804659
0.29893509 -0.2052868 0.64513761
0.29242769 -0.2097335 0.51894689
0.31329361 -0.2029338 0.59393698
0.2337392 -0.18753231 0.2602872
0.2457412 -0.185653 0.29501769
0.237829 -0.1815196 0.32418939
0.228003 -0.1855408 0.278768
0.25796121 -0.1850289 0.2984229
0.24479149 -0.18554521 0.2921755
0.2131647 -0.1864184 0.2518484
0.25199991 -0.185065 0.3078678
0.26179889 -0.18496171 0.28561381
0.2262308 -0.1885282 0.2493905
0.24047939 -0.1861534 0.2834118
0.2165266 -0.18823171 0.29008409
0.2138782 -0.1862601 0.34597549
0.2850841 -0.1871953 0.3046014
0.25172389 -0.1866927 0.2921198
0.2213316 -0.1894076 0.26932719
0.2040638 -0.18567801 0.29348409
0.2965121 -0.26667589 0.60957921
0.2429096 0.088848047 0.54697418
0.1185658 -0.1881312 0.3190167
0.29683301 -0.1964339 0.70452547
0.1100327 -0.18716151 0.36642101
0.1288735 -0.099822387 0.57543588
0.1191121 -0.18828321 0.31818679
0.29057339 -0.2077978 0.4081147
0.1197971 -0.1890118 0.31827229
0.1363328 -0.1994864 0.4928036
0.12641039 -0.20647191 0.52803802
0.30514631 -0.1752777 0.63384843
0.2795704 -0.1892865 0.64481109
0.3095654 -0.18041889 0.63354272
0.27472231 -0.1836139 0.64570701
0.28712299 -0.206357 0.4028548
0.1256745 -0.095272943 0.55959409
0.1190737 -0.189257 0.316208
0.1104989 -0.18838149 0.3637135
0.2289062 -0.1871247 0.3402206
0.1760768 -0.1969066 0.26673949
0.1130395 -0.1862341 0.33779031
0.2070618 -0.1904161 0.28406411
0.1986614 -0.19081759 0.29584339
0.21945059 -0.19032981 0.2986002
0.2249099 -0.18934029 0.27745441
0.1916761 -0.1980755 0.23450591
0.2129038 -0.1892603 0.3455691
0.1007454 -0.094422072 0.56196642
0.24147899 -0.1852251 0.31856439
0.25849491 -0.1826397 0.33034059
0.21135899 -0.1916877 0.2470217
0.1862781 -0.2038912 0.2333874
0.2050674 -0.1938663 0.25966781
0.2038133 -0.1875497 0.32407829
0.1104699 -0.189366 0.3636665
0.36375481 -0.20561279 0.47465321
0.36664081 -0.2008802 0.48818111
0.36875871 -0.19151621 0.49662101
0.35546511 -0.19475339 0.49397159
0.35667181 -0.2028577 0.70537817
0.2223576 -0.18534809 0.34284419
0.2175155 -0.1875976 0.34667799
0.27601901 -0.191034 0.64117128
0.31169379 -0.19140241 0.64485389
0.269656 -0.2002494 0.64287359
0.1741989 -0.1865913 0.35798541
0.27253169 -0.1874871 0.64102721
0.1559753 -0.18527471 0.36178699
0.1602388 -0.2016295 0.51283813
0.1219944 -0.19036239 0.29439071
0.13444939 -0.20068809 0.49063721
0.13150179 -0.1878102 0.33336821
0.1238156 -0.20293359 0.5211454
0.14143109 -0.099025518 0.56857401
0.1316845 -0.099012882 0.56167167
0.1349971 -0.2009294 0.49569169
0.0269919 -0.1967299 0.36578661
0.031518038 -0.1902148 0.40127969
0.025073441 -0.1869272 0.37924391
0.01810349 -0.190953 0.3719525
0.075367428 -0.18313131 0.67236668
0.025270119 -0.1872925 0.37575501
0.018559661 -0.2024489 0.81886202
0.018915379 -0.1944492 0.3859944
-0.20606039 -0.95212448 0.59169519
-0.38709679 -0.88401753 0.40238851
-0.52227372 -0.98329121 0.45719349
-0.42834401 -0.99208891 0.4057686
-0.51122677 -0.94957852 0.45062599
-0.34532031 -0.96829611 0.41269279
-0.41974369 -0.96593487 0.3992492
