# .PCD v0.7 - Point Cloud Data file format
VERSION 0.7
FIELDS x y z
SIZE 4 4 4
TYPE F F F
COUNT 1 1 1
WIDTH 1392
HEIGHT 1
VIEWPOINT 0 0 0 1 0 0 0
POINTS 1392
DATA ascii
-0.003929555 -0.095866531 0.57285339
-0.01022014 -0.1529474 0.5681631
-0.04144299 -0.13777021 0.54525727
-0.01633656 0.064802051 0.4465453
0.089580826 0.054098278 0.4800705
0.045020159 0.073451847 0.43217561
0.0090036988 -0.17353369 0.55437648
-0.0094075501 -0.1730253 0.56807429
0.15536021 -0.13716979 0.42072719
0.034263521 -0.2149673 0.54089701
0.1020461 -0.045587178 0.4807682
0.05314146 0.058382001 0.51297021
0.059002578 0.05849633 0.3674224
0.026841581 0.06045869 0.53795362
-0.01357689 -0.2245734 0.56779021
-0.01235768 -0.01142076 0.56818843
0.072975047 -0.18687829 0.50278473
0.03282547 -0.084607661 0.54062682
0.01686847 0.06167176 0.48675871
0.16074771 -0.1067363 0.42450899
0.088100784 0.01088041 0.4910132
0.012398 -0.2201315 0.55358952
0.02807337 -0.01711935 0.54490107
0.015809741 0.039628059 0.5483644
0.1355058 0.059315201 0.40469179
0.036810961 0.05965713 0.33438009
0.02774358 0.056530621 0.53693002
-0.0058420901 -0.1126611 0.56094468
0.080322653 -0.16185281 0.49725771
0.1601983 -0.1986049 0.42922091
0.01797992 0.044288579 0.54249412
0.050834268 -0.04365563 0.52124089
0.1588372 0.007624865 0.4224059
0.029975031 -0.095301807 0.54362392
0.031095451 -0.17241409 0.54105252
0.093094468 -0.2205389 0.49187759
0.01549587 0.059307661 0.54661322
0.028251739 0.01225892 0.54210132
0.026035611 0.01198468 0.54326838
0.099535517 -0.1788855 0.48051971
0.0057780738 -0.00153771 0.55648059
0.067338534 -0.090415873 0.50832379
0.1445819 -0.043521881 0.44279739
0.1002716 -0.1758586 0.49262211
0.1057692 -0.068442076 0.47173071
0.117502 0.062508292 0.41382721
0.080734581 0.062197741 0.35103181
0.103002 0.066042781 0.40454111
0.01377234 0.068383753 0.55188489
-0.04866207 0.065139093 0.50732052
-0.0082690716 -0.1026231 0.56886119
0.14746051 0.05982497 0.4132413
0.1314033 0.05369395 0.4427321
0.021396991 -0.1381495 0.54256368
0.1421445 0.02324629 0.44597179
0.03971887 -0.2075001 0.54184932
0.1380091 -0.22017699 0.45615321
0.0049748719 -0.17386889 0.55762202
0.1158586 -0.2289415 0.4655951
0.069648497 -0.18810891 0.50416422
0.1143298 -0.17033461 0.46964979
0.08553201 -0.032250792 0.48880109
0.070049107 -0.2266127 0.50427681
0.072621271 -0.00026071069 0.49508959
0.036294792 -0.1295196 0.54532039
0.0019679959 -0.078322947 0.56557918
0.1451416 -0.03839409 0.4405646
0.087780967 0.04856718 0.48632669
0.1265343 -0.041232292 0.46307459
0.1142489 -0.1947898 0.4669005
0.087287873 -0.1011455 0.4927569
0.018406389 -0.087028682 0.54954833
0.15553559 -0.094717562 0.43044579
0.038484309 0.063824832 0.45808411
0.1383246 -0.056526478 0.4527339
-0.025132541 0.062559754 0.53758621
0.1295547 0.06123418 0.4095273
0.05708459 0.06134918 0.39025721
0.0064199571 0.06032801 0.37360701
0.1478762 0.064702243 0.43909049
-0.02771342 0.065742821 0.45616579
0.10302 0.058645189 0.44267371
-0.01089936 -0.1363508 0.57093108
-0.009544611 -0.0099892616 0.56750911
0.1592243 0.037781268 0.42346939
0.15982071 -0.14759509 0.42291129
0.03110981 -0.1354578 0.54307979
0.1051281 -0.17919549 0.4803116
-0.02845156 0.062843621 0.4047038
0.1429885 0.0042183702 0.44685799
0.13577861 -0.14843521 0.46202719
0.037554588 0.050476789 0.53866053
0.1081814 -0.0844993 0.47421369
0.083913617 -0.20152 0.499823
-0.0030889511 -0.1577138 0.56146288
0.092911512 -0.057826459 0.48709211
0.087065697 -0.1782116 0.4893752
-0.095078647 0.056645211 0.36183921
-0.1108578 0.062579632 0.43782109
-0.00081220269 0.064086318 0.55160499
-0.01298064 -0.1048253 0.5683164
-0.062478181 -0.2215562 0.5337823
0.05095157 0.067521363 0.41344121
0.1295175 -0.078683197 0.46096811
0.127886 0.030987591 0.4688988
0.069138959 -0.07053569 0.50627768
0.06037724 -0.094958663 0.5239526
0.02305999 -0.1939386 0.55072987
-0.0087174485 -0.081822097 0.57148379
0.09178482 -0.085205078 0.49185541
0.00076299912 0.01454711 0.57859761
0.021688459 -0.088560343 0.54450262
0.072470076 -0.002323627 0.50183362
0.0001841187 0.0124802 0.56375593
0.078546613 -0.098553389 0.50058311
0.055504382 -0.1461947 0.52005923
0.1424045 -0.1116538 0.43873101
0.0099401474 -0.18881311 0.55510581
-0.06140101 0.069935292 0.4917078
-0.01292717 -0.071129084 0.5677743
0.021869451 0.067863487 0.46925279
0.13865919 -0.1441538 0.46080789
0.059717972 -0.12653381 0.52154022
0.00019219521 -0.16809849 0.56842828
0.01595992 -0.1330332 0.54463959
0.072355241 0.007028908 0.50317222
0.01584688 -0.050831411 0.54629838
0.14196301 -0.053973079 0.44887131
0.05657034 -0.13325889 0.51875043
0.069986612 -0.22346251 0.50712258
0.1598624 -0.040680472 0.42263639
0.067924723 -0.078301907 0.50882339
0.1451935 -0.01107642 0.4428744
-0.056647152 0.06512785 0.46218771
-0.07784915 0.062844843 0.35438389
-0.1185688 0.063890763 0.3813816
-0.1028908 0.051874999 0.36084309
-0.128995 0.06205079 0.38932699
-0.01030725 -0.1696921 0.5703032
-0.02085948 -0.2203624 0.57025683
0.040371452 0.063621163 0.4145757
-0.01490679 0.057425741 0.30886269
0.1123858 0.059276432 0.47031349
0.031462789 0.06521076 0.40540269
0.16886871 -0.1264243 0.42533109
0.1282524 -0.015826309 0.45676801
0.01850364 -0.00091975927 0.55025828
0.02538112 -0.1900707 0.54917908
0.1200079 -0.1124972 0.46551669
0.0291619 0.06486842 0.45684829
0.1004716 -0.01015067 0.47700131
0.0004096925 0.064243913 0.3876
0.1576056 -0.1059843 0.4356055
0.16007119 -0.071857542 0.41650671
0.108769 -0.1154426 0.47645989
0.01044881 -0.1574128 0.5538767
0.08070296 0.06115165 0.4548341
0.15422291 -0.065669604 0.43314669
0.1533317 -0.1750596 0.41778329
0.090529323 0.058397438 0.42721871
-0.0096305311 -0.1721146 0.56414658
-0.054651018 0.06206939 0.4046303
-0.01191813 -0.1423005 0.55950743
-0.09937644 0.064301908 0.4582136
0.060790122 0.06042641 0.49704611
0.093200803 0.055503432 0.47795871
-0.057375789 0.066528648 0.5059278
-0.01070154 0.063403338 0.55942422
-0.0078235865 -0.066805691 0.55616927
0.152817 -0.01162964 0.4259809
-0.065608323 0.066317171 0.49275869
-0.1011601 0.064725667 0.4200429
0.01483494 0.058581531 0.484873
0.034281131 0.058392908 0.32655069
0.079621583 0.057251509 0.40045759
0.061326321 0.058628678 0.3284938
-0.0045686662 0.059705291 0.53076929
0.092442296 0.057695869 0.36821961
-0.06210351 0.058766451 0.31677121
-0.02038753 -0.092628419 0.56097293
-0.034671661 -0.1242908 0.54890901
-0.1007778 0.023733471 0.45738801
-0.077370107 0.0058379769 0.4943563
-0.1015615 -0.001700372 0.4553194
-0.103856 0.046801779 0.4489485
-0.035743769 -0.0038690569 0.54931909
-0.038809601 -0.029182971 0.53673452
-0.1230785 -0.2107159 0.44172761
-0.1117509 0.02793378 0.44774321
-0.033024851 -0.047523052 0.55136192
0.023507239 0.063537359 0.50669342
-0.13469771 -0.043963429 0.42177591
-0.023162341 0.064098857 0.43677679
-0.081772797 0.064792283 0.34603241
-0.077664673 -0.078071646 0.49159309
-0.0555765 0.028946521 0.51460803
-0.1455646 -0.063260913 0.4133344
-0.020651581 0.01517048 0.55769122
-0.1347257 0.0021741991 0.4201729
-0.1228086 -0.065028667 0.4333567
-0.060182989 -0.109476 0.51481122
-0.096129119 -0.1400813 0.4740344
-0.045480669 -0.1619394 0.53156418
-0.015848519 -0.046239551 0.5631423
-0.02801257 -0.2147062 0.56536752
-0.024344269 -0.069373913 0.55243909
-0.01685578 -0.1210719 0.56297499
0.006992877 0.062916867 0.39381501
0.095937729 0.057472739 0.45743999
-0.03339237 -0.0047625601 0.5336687
-0.01433504 -0.1527057 0.56159377
-0.1094598 -0.18127871 0.45617291
-0.143095 -0.15603741 0.41614291
-0.1069866 -0.1506473 0.45899081
-0.03342903 0.04900619 0.54805201
-0.032445669 0.049531851 0.54635268
-0.057340089 -0.01762736 0.51555789
-0.040343519 0.035192851 0.53596908
-0.02618614 -0.1439406 0.5586704
-0.01406628 0.047057901 0.56566417
-0.069767453 0.06458497 0.3404859
-0.13136519 0.063492723 0.4190613
-0.0042085652 -0.01840079 0.55484837
-0.082314789 -0.041462719 0.48389131
-0.1212247 0.06063604 0.36808369
-0.094564497 -0.1329013 0.47679311
-0.1106354 0.056306779 0.4472723
-0.083504952 0.046579059 0.48247781
-0.086900167 -0.1059422 0.47838169
-0.047891621 0.026277149 0.52925038
-0.079964519 -0.2211192 0.51719987
-0.05629826 -0.2160477 0.52386773
0.01648456 0.066780031 0.4761748
-0.031126499 -0.085101128 0.54883152
-0.112229 0.006229043 0.44979411
-0.074773252 -0.13438711 0.50594109
-0.056046519 -0.05629098 0.52368277
-0.093099803 -0.1584817 0.47959611
-0.054945592 0.057285491 0.41170421
-0.04244554 -0.1012548 0.54177958
0.020957289 0.054104 0.34629059
-0.034993321 -0.061006311 0.54002798
-0.1456092 -0.1867878 0.42173579
-0.11745 0.065734208 0.41575131
-0.06630218 0.026037371 0.50617641
-0.1252847 -0.1234792 0.43412361
-0.085707188 -0.001907051 0.4799616
-0.086320341 0.028426711 0.4709951
-0.081463464 0.068051428 0.4801434
-0.08438307 -0.094855838 0.48464131
-0.090496361 -0.078114092 0.4764438
-0.069935381 -0.01193738 0.49852279
-0.1198152 -0.094839387 0.43856019
-0.1040085 -0.095056057 0.46233389
-0.1449648 -0.05438656 0.3997936
-0.1040697 -0.21294039 0.46742311
-0.088908732 -0.1810834 0.48290491
-0.085172892 -0.1969839 0.48964369
-0.059978429 0.066922434 0.46113461
0.114424 0.054990351 0.36905041
-0.05615193 -0.03219289 0.52248257
-0.026849089 -0.11432 0.55416483
0.08117184 -0.1235989 0.4827182
-0.1010992 -0.04138178 0.45316771
-0.1255167 -0.18035521 0.4523125
0.061515749 0.068829 0.48631319
-0.040727969 -0.1977029 0.55299968
-0.1316403 -0.154476 0.43099001
-0.052983049 -0.1372361 0.52632248
-0.06112957 -0.1215059 0.52130449
0.02168986 -0.22641321 0.5605672
-0.040629331 0.003518343 0.53005427
-0.06294623 0.065094411 0.50537831
-0.026622269 -0.03943241 0.55665272
-0.02698213 -0.01841897 0.55767912
0.083136111 -0.072024882 0.4967981
-0.14786419 -0.030979929 0.39309829
-0.046471089 0.056612611 0.52668017
-0.1490287 -0.071716957 0.40528461
-0.1029704 0.048829939 0.46143621
-0.063823067 0.037776861 0.50554222
-0.1118838 -0.083571672 0.4512645
-0.06576103 -0.065713853 0.51568812
-0.1232761 -0.076553456 0.43600509
-0.064223893 -0.17527211 0.51587641
-0.04648063 -0.17783961 0.53653902
-0.075458772 -0.184479 0.50389832
-0.043763399 -0.19409131 0.5434736
-0.026832851 -0.2259417 0.5649026
0.063330173 0.05918261 0.37099099
-0.0223915 0.057988878 0.47903499
-0.0079911351 0.069854863 0.48245221
-0.021908671 -0.033291399 0.55628341
0.01298368 -0.058032569 0.54873562
0.1166857 -0.1062673 0.46218371
0.079291821 -0.2209474 0.49799791
0.1840388 -0.2189043 0.42931879
-0.1525045 0.04946005 0.39885831
-1.606345e-05 0.073280416 0.46530309
-0.01489398 0.071477443 0.44206801
-0.08972311 0.035736471 0.48367709
-0.053496782 0.02930576 0.52376127
-0.083671749 -0.01239669 0.49031171
-0.081653543 0.01199323 0.48329589
-0.1351088 -0.1127471 0.43329421
-0.025851309 0.0043256278 0.5509392
-0.15082 -0.1191895 0.40324119
-0.15470131 -0.1812373 0.4544377
0.1230338 0.04422405 0.4577865
0.025271449 -0.01285607 0.54392469
0.086433351 -0.2260337 0.50558889
0.07717976 -0.040320929 0.47427639
-0.081458628 -0.1269967 0.49528581
0.1061971 -0.037875772 0.4637199
0.082015343 -0.035271998 0.4787142
0.1569301 0.03752983 0.41510081
-0.093573332 -0.093749046 0.47179911
-0.061432779 0.061624829 0.4686774
-0.092803359 0.048953291 0.4729856
-0.1275045 -0.2187943 0.42713451
0.034373641 0.049573898 0.53281188
-0.1436919 -0.21661919 0.37668279
-0.1216424 -0.2254494 0.35842431
-0.024563249 -0.026035611 0.27305579
-0.1117315 -0.206771 0.33827761
-0.01154947 0.055648088 0.29800439
-0.0093299747 0.032491919 0.28237551
-0.049867179 -0.091389239 0.3051734
-0.14361989 -0.0296815 0.38468269
-0.054294791 0.02789009 0.30898029
-0.1125846 0.058497939 0.35877869
0.003208518 -0.029526889 0.27964431
-0.083230726 -0.036366731 0.32875729
-0.1321892 -0.1860715 0.36705941
-0.14208969 -0.17575561 0.39908969
-0.08358483 -0.1314714 0.32944289
-0.003730237 0.025532341 0.26427409
-0.050996479 0.061932061 0.33540139
-0.073457688 0.053636789 0.32724071
-0.1440047 0.0050681531 0.38483971
-0.1082013 -0.16811199 0.35652611
-0.1092729 -0.1389517 0.34890321
-0.075853787 -0.1461198 0.32590589
-0.13281991 0.028854219 0.37519339
0.0023418809 0.059400499 0.2380942
-0.05230099 0.05125612 0.31485981
-0.116247 0.0035192671 0.3656427
0.13078929 0.059153799 0.4121677
-0.035455231 -0.01287049 0.29668519
-0.1434129 -0.03375164 0.38105181
-0.068297848 0.026616991 0.32167399
-0.01129469 -0.053888738 0.27924761
-0.074834317 -0.1198273 0.31488031
-0.070001483 -0.074244082 0.32165489
-0.063314542 -0.0089458227 0.3209812
-0.065004013 -0.059113622 0.32902461
-0.051390681 -0.071670167 0.305915
0.017909089 -0.095808446 0.25687349
-0.1188108 0.066347986 0.3976931
0.05896163 0.06325683 0.3683717
0.0021378701 0.059840228 0.29820099
-0.02233142 0.066234201 0.44268
-0.054296792 0.0620411 0.35355899
-0.01192665 0.046512749 0.27310759
-0.032662552 0.034190621 0.29120529
-0.041723002 0.058891062 0.3008225
0.01076896 0.057716399 0.2572411
0.097091019 0.06404528 0.36585811
-0.1027975 0.067202449 0.36040401
0.0056069568 0.033256859 0.25993031
-0.078763649 -0.04531813 0.32912701
-0.01524824 0.0654158 0.35609639
0.00031318929 -0.053754479 0.26406661
-0.026059899 0.062487241 0.40467259
-0.0252853 0.05751526 0.31286329
-0.086851038 0.034200311 0.3450349
-0.1508569 -0.0098307133 0.38870329
-0.085465491 -0.18432119 0.33124119
-0.1383846 -0.1628827 0.37472939
-0.08448755 -0.1567616 0.32970169
-0.1409533 -0.1199726 0.385095
-0.1337164 -0.1328315 0.37734851
-0.059307799 -0.2124512 0.3123827
-0.03886598 -0.1945167 0.28755909
-0.1388347 -0.1444734 0.3745937
-0.063280523 -0.18824001 0.31197071
-0.062369172 -0.13560601 0.3116487
-0.06677679 -0.188953 0.31189099
-0.106512 -0.1896099 0.34648931
-0.057878491 0.065040171 0.45949
0.044151708 0.060799088 0.4892697
-0.081928551 0.067489177 0.45952049
0.0245257 0.068169713 0.50849718
-0.035912309 0.0684053 0.47316289
-0.04948109 -0.01195037 0.30217901
-0.1224536 0.063235097 0.37357801
4.559755e-05 0.044290781 0.26610571
-0.03429031 -0.0033244491 0.29203111
-0.1201186 0.033427302 0.36412919
-0.094242103 -0.079911947 0.33961529
-0.1075858 -0.2133307 0.34411401
-0.01929814 0.059665259 0.32719249
0.01362735 -0.01750407 0.25158331
-0.12930439 0.03874198 0.37298179
0.01305163 -0.04431304 0.25954431
0.034651011 0.06242913 0.40591079
0.1046306 0.063754529 0.42413971
0.084998786 0.055125501 0.41320211
-0.03067231 0.077264607 0.39429089
-0.077889562 0.059046451 0.36801869
0.02127111 0.060567141 0.26392409
-0.1104387 0.069097251 0.40924501
0.079817533 0.064742543 0.43624261
-0.085959367 0.005092591 0.33578071
-0.04902726 -0.090071112 0.304162
-0.0750103 0.033403721 0.333388
-0.141809 -0.093906969 0.37868881
-0.02327198 0.027470529 0.2816529
-0.085053504 -0.2081196 0.32587439
0.0165332 -0.1173546 0.25552261
-0.0062909722 -0.001798004 0.26835909
0.051569641 0.06301412 0.3339856
0.07791996 0.061305139 0.3483806
0.02649379 0.06147572 0.48351601
-0.086842947 -0.00070339441 0.33992991
0.097649291 0.061409291 0.37621331
-0.081646197 0.063599773 0.34057441
0.061488569 0.066689909 0.46263981
0.048404869 0.053170059 0.39066479
0.0093680024 0.060470399 0.323874
-0.050912742 -0.2075488 0.30171311
-0.053697079 -0.18049911 0.30419949
-0.1435311 -0.1116886 0.3737981
-0.052470621 -0.1431925 0.30190191
-0.039721809 -0.00025749209 0.28969851
-0.095794022 -0.16580071 0.33730209
0.088538937 0.060650799 0.3858349
-0.094887257 -0.1915399 0.33551881
-0.1011479 0.05307037 0.35027561
-0.04167968 -0.0280098 0.29964221
-0.079220489 0.017090561 0.3333976
0.0081196427 -0.1268464 0.25647831
0.018353639 0.058668669 0.3827897
-0.0341658 -0.044971731 0.29233441
-0.1145446 0.04366478 0.3629781
-0.1431223 -0.19426741 0.38671231
-0.047143761 0.060435832 0.40593579
-0.0029259319 0.058460802 0.38622099
0.0662269 0.061568949 0.4697116
-0.1227054 -0.1503949 0.35902941
-0.13813511 -0.1061079 0.37118021
-0.1398873 -0.04472116 0.37575781
-0.137132 -0.18453421 0.36324009
-0.061123788 -0.120874 0.31350729
-0.1287017 -0.033897281 0.3721748
-0.049979448 -0.20441739 0.29858109
-0.025148571 -0.035325412 0.2884734
-0.098974593 -0.1613265 0.3320483
0.035989109 0.070557334 0.5241012
0.021791279 -0.20468511 0.25183791
-0.036155459 0.062029961 0.31860271
-0.04060024 -0.21385901 0.29201069
-0.1208766 -0.1914804 0.35379249
0.0046959519 -0.01396516 0.25998849
-0.00183134 -0.078936458 0.25833341
0.01743871 -0.1502793 0.2615371
-0.1424382 -0.074308068 0.38000929
-0.038921479 0.06111807 0.35936949
0.02958471 0.063360959 0.44703269
-0.099833369 0.022623749 0.34805781
-0.1047336 -0.01898226 0.34622169
-0.1152519 0.0067824721 0.36110049
0.01885432 -0.187224 0.25694001
-0.1159966 -0.04273513 0.36354989
-0.1230019 -0.1068704 0.36338791
-0.1222346 -0.1421186 0.36057481
-0.1163066 -0.01272532 0.35697871
-0.001546741 -0.035416991 0.26141611
-0.1271653 -0.079031259 0.37102991
-0.1232809 -0.070961744 0.3625783
-0.02713662 -0.064495184 0.28364709
-0.02604514 -0.2179496 0.2810227
-0.02453709 -0.1774704 0.27963299
-0.1199202 -0.069308609 0.35393471
-0.044087529 0.0095057786 0.30625179
-0.02885926 -0.086964577 0.28786951
-0.0075999652 -0.06517148 0.27165249
-0.1507023 -0.2265041 0.44649291
-0.1163874 -0.085756749 0.35785529
-0.041711029 0.037291411 0.30083621
-0.058974441 -0.2288575 0.30205399
-0.01093314 0.01158264 0.2574636
-0.01794469 0.064210437 0.3300381
-0.082968712 -0.111152 0.32615349
-0.0045549269 -0.2029438 0.26371619
0.080079377 0.057577491 0.33146429
-0.1477374 0.045689311 0.3942453
-0.01045573 0.056938831 0.28393731
-0.041141089 0.060961399 0.43038079
-0.01836483 -0.13242289 0.28437281
-0.038335469 -0.1430696 0.29802439
-0.017580111 -0.091720641 0.2859571
-0.044949349 0.0041287839 0.2921513
-0.077299587 -0.1059866 0.3110365
-0.05061942 -0.1110454 0.2967397
-0.1015728 -0.041122291 0.34144771
-0.13348781 -0.13238931 0.37357131
-0.096151948 -0.1397981 0.34015849
-0.093949787 -0.02641603 0.33755299
-0.01282793 -0.1944989 0.2707949
0.1164281 0.079075657 0.4388423
-0.03299886 -0.12838741 0.28363481
-0.022218879 0.05570814 0.35827371
0.0056830049 -0.1186883 0.26613939
-0.1082046 -0.032988999 0.3430163
0.01270252 -0.16477831 0.2620002
0.060990751 0.062363241 0.3993893
-0.04684383 0.01855704 0.29733041
0.01635492 -0.1699089 0.25612929
-0.02418399 -0.1095281 0.27617809
0.01797932 0.054868821 0.46551469
-0.005769908 -0.1768845 0.26709959
-0.1231772 -0.18857069 0.3536692
-0.081348002 0.0033364301 0.322209
0.1494184 0.063189633 0.42526999
0.02540582 -0.22819871 0.256006
-0.04589111 -0.1820634 0.29480791
0.02128702 0.065459728 0.41710451
-0.083928823 -0.1438476 0.32469761
-0.01439542 -0.1830363 0.27766469
-0.044318318 -0.084533721 0.28897709
-0.088538833 -0.078504123 0.33980331
-0.024103049 -0.085102767 0.25560901
-0.021525029 -0.1639909 0.28575489
-0.1044469 -0.086884767 0.34062541
-0.068037093 0.061481509 0.32949761
-0.1425326 -0.032504559 0.3813059
-0.1416772 -0.1654508 0.37718931
-0.13818391 -0.04897508 0.38005051
-0.1198649 -0.1443058 0.36090121
-0.12819239 -0.1897359 0.36963961
-0.1102203 -0.1401462 0.35235971
-0.040062431 0.002754807 0.30043849
-0.087340832 -0.1827745 0.32968399
-0.098514847 -0.04123798 0.3451542
-0.13863491 -0.076929241 0.3847459
-0.02502167 0.058077369 0.31861201
-0.1361126 -0.1093483 0.37707311
-0.1477569 -0.18050531 0.40134531
0.05312502 0.063017853 0.36568251
-0.13584261 -0.2117438 0.37910321
-0.1393809 -0.03728747 0.38658911
-0.1123779 0.053025749 0.36043859
-0.1074671 -0.16175839 0.35046229
-0.0085343719 0.042970572 0.2749534
-0.0030002 -0.018193159 0.26351029
-0.1119267 0.005254596 0.36184189
-0.1263794 0.062841207 0.394584
-0.074811824 0.05461007 0.3251794
-0.082775831 0.037909571 0.33316109
-0.1203746 0.065327726 0.37569591
-0.14461251 -0.1186047 0.38281479
-0.004692256 0.0283533 0.26417151
-0.119969 0.031983521 0.36680791
-0.12757149 0.051685359 0.3722274
-0.1239055 0.065814517 0.3719109
-0.0193271 0.058697969 0.29578969
-0.14049511 0.002640754 0.38397759
-0.037257671 -0.1392815 0.2918115
-0.046699699 -0.078446299 0.3092396
-0.20303421 -0.1215734 0.3502613
-0.053679649 0.060218841 0.35624129
0.022131801 0.04989836 0.42088911
-0.082549512 -0.035555571 0.3306784
-0.1177941 -0.1109717 0.36401421
-0.13218281 -0.031383809 0.37121221
-0.0460895 0.064070307 0.3956517
0.0034609439 0.058310721 0.29781371
-0.1310612 0.058826301 0.40643761
-0.063637324 0.05880576 0.32010999
-0.086994886 -0.01503655 0.33706191
-0.1376258 -0.2169403 0.38550469
-0.02628362 -0.1926754 0.58052099
0.02458024 0.06096575 0.3377116
-0.077212714 0.065290362 0.4762359
0.079282761 0.05565897 0.33336601
-0.0032206769 0.06254065 0.33209291
-0.018641589 -0.065714151 0.28590921
-0.0065055192 0.063538037 0.56116748
-0.048488319 0.058726549 0.4432483
-0.1501362 0.049888611 0.39616969
-0.13555659 -0.199434 0.37611991
0.026894569 0.059742361 0.36945021
-0.1039399 0.048312899 0.45133871
0.01370138 0.049080011 0.52854818
0.0093473196 0.06143802 0.39690569
0.079503238 0.053197499 0.32485849
-0.0038177969 0.05958521 0.35965469
-0.01031703 0.06007627 0.27940819
0.088000059 0.063641913 0.418744
0.03265518 0.056404348 0.28789791
-0.019297481 -0.085882403 0.2779837
-0.0434382 -0.095606029 0.3064591
-0.082021236 0.062764756 0.33953741
-0.00055551529 -0.053835481 0.265966
-0.0070755482 0.05841893 0.44993451
-0.095526457 0.062074959 0.45507899
-0.063970923 0.067156337 0.4955872
-0.055672351 0.059145302 0.41593581
-0.1161159 0.063266627 0.4190861
-0.1298826 -0.070305198 0.4379358
-0.1283862 0.028190169 0.3790817
-0.1534607 -0.01200232 0.3915191
-0.05464099 -0.03431192 0.5168007
-0.02728234 -0.2141249 0.56176472
-0.1506307 -0.052662581 0.3936407
-0.1109724 -0.1055612 0.450598
-0.01606792 -0.1040263 0.27224469
-0.029257361 -0.09731701 0.28973389
-0.1053604 -0.0044720471 0.34609991
0.01384515 -0.1626554 0.26222819
-0.1500757 -0.004121155 0.40791109
0.05361855 0.061509639 0.41495711
0.1071456 0.057482932 0.40837541
-0.02683741 0.058726851 0.3605068
0.07327795 0.05243865 0.35194281
-0.087726973 0.064201802 0.47268131
-0.1048955 0.04886758 0.45969921
-0.04216576 0.03401297 0.52890992
-0.1164555 -0.15906601 0.45077249
-0.08290156 -0.061220501 0.4825367
-0.1478059 0.0086227655 0.4028143
-0.065180957 -0.018512281 0.50451338
-0.1017683 -0.1678043 0.46629739
-0.1437418 -0.1476377 0.39135399
-0.03713936 -0.1113145 0.54295832
-0.085290253 -0.073159717 0.4764587
-0.1154209 -0.07520017 0.36918259
-0.095170923 0.047055159 0.3508783
-0.022094849 -0.2226246 0.28488201
-0.0657022 -0.1501438 0.32249051
0.1195348 0.064580768 0.41047451
-0.070037961 -0.2287274 0.51341778
-0.049553629 0.052648749 0.312464
-0.090483733 -0.1692156 0.34007269
0.01072294 0.06156376 0.45966369
-0.1198751 0.046157449 0.42345789
-0.05475026 -0.1813885 0.52531809
-0.1121682 -0.081541389 0.4479396
-0.036740541 -0.04004851 0.54085839
-0.1038739 -0.01532704 0.4538326
-0.034518652 -0.04726157 0.54817462
-0.1388074 -0.1477163 0.3794769
-0.03467558 -0.1232814 0.54319727
-0.03249881 -0.080974758 0.54679579
-0.1368338 -0.1599098 0.4196898
-0.1195613 -0.1110352 0.44083989
-0.03414071 -0.1995108 0.55332589
-0.04966468 -0.175981 0.54026139
-0.044279169 -0.1080854 0.54240322
-0.0061824322 -0.2260689 0.59570718
-0.064914294 -0.092095293 0.50790107
-0.135757 -0.136879 0.42283139
-0.049042761 -0.22426531 0.53231537
-0.025815491 -0.06853044 0.55717951
-0.036465108 -0.154365 0.54465288
-0.050709609 -0.085500389 0.52462149
-0.034178689 0.049289819 0.54499412
0.02265906 0.053645581 0.2739552
0.07526058 0.058447301 0.40870669
0.093053043 0.0606477 0.36696541
-0.04156154 0.020435721 0.31171069
0.071721263 0.060770571 0.30490461
-0.021067619 0.06099686 0.39974231
-0.01286888 -0.1312371 0.2783168
-0.056809191 -0.1322138 0.3200061
-0.055805981 -0.122207 0.3179926
-0.079618283 -0.1336651 0.33181009
-0.07904458 -0.064912774 0.31974521
-0.063318491 -0.2109274 0.30812329
-0.04989779 -0.20094649 0.31475601
0.0096125007 -0.200666 0.26592731
-0.076633863 0.038802531 0.48735359
-0.01871407 0.01273027 0.55695641
-0.033291072 -0.004895926 0.54789478
-0.059225321 0.068186007 0.50887972
-0.040720079 0.035984639 0.53558773
-0.058236409 -0.1066646 0.5187152
-0.083751671 -0.001744509 0.4782826
-0.09029799 -0.1104049 0.47741231
-0.093546078 -0.1404361 0.47595149
-0.1285582 -0.056083892 0.42206821
-0.1363689 -0.1053211 0.40970039
-0.09656918 -0.0045681298 0.46047369
-0.05408835 -0.2151898 0.52381408
-0.074101873 -0.047953811 0.50996482
-0.1408097 -0.05389354 0.41051251
-0.097598493 -0.15947209 0.4690792
-0.038478389 -0.1025084 0.5444653
0.070493042 0.059404969 0.38009521
-0.027471719 -0.0089731812 0.5399099
-0.1436782 0.03444764 0.41096139
-0.042119741 -0.21107741 0.53936619
-0.1210784 -0.2107369 0.4459115
-0.14256389 -0.1921981 0.38795379
-0.01129448 -0.18307149 0.27931961
0.026917869 -0.17551591 0.25834391
0.01794344 -0.1342731 0.25811449
0.039163589 0.057877209 0.30499989
-0.001206934 0.048150931 0.26606861
0.054672901 0.056411419 0.4310576
-0.1037433 -0.1197787 0.35414669
-0.1104594 -0.080552518 0.45255199
-0.089707792 0.052970082 0.36848351
-0.1387573 -0.076698571 0.40771171
-0.049597319 -0.21204001 0.30509749
-0.1281689 -0.075900286 0.41544271
0.001648247 0.063371211 0.53787249
-0.05038983 0.037145849 0.51895392
-0.032680511 0.054462049 0.5335291
-0.057103891 -0.018899171 0.51250899
-0.076011047 0.0082887411 0.49634081
-0.079990149 -0.045274999 0.48763639
-0.074116893 -0.2045528 0.4953486
-0.095101587 0.01169613 0.4702163
-0.1002659 -0.02210811 0.47298741
-0.0092034936 -0.024360981 0.56729352
-0.01363444 -0.188842 0.56710148
0.081932962 0.06330198 0.3041153
0.0084289312 0.063222647 0.36522499
-0.018965419 -0.1483642 0.56528121
-0.092137523 0.01018777 0.34975159
-0.1284467 -0.089991838 0.42912021
0.02526414 0.056567188 0.41561261
0.016072391 -0.042752061 0.25774521
-0.14334939 -0.1688163 0.3896724
-0.1446043 -0.03052756 0.39989299
-0.11381 0.042643931 0.45050541
-0.036656979 0.025479911 0.54884201
-0.1340905 -0.023554711 0.41570461
-0.1039893 -0.00095781678 0.44967279
-0.15020031 -0.016469751 0.40265551
-0.1236517 -0.0056990678 0.3742103
-0.140449 -0.046032641 0.39300349
0.046680391 0.062230289 0.50403649
0.086007893 0.060785562 0.4373872
0.024445949 0.06034255 0.26124129
-0.01543319 -0.087761037 0.56837338
-0.075091898 0.065401427 0.46444449
0.1031209 -0.02445614 0.46599001
0.1124933 0.060073141 0.37447739
0.090393692 0.058268581 0.48085871
0.05077767 0.05017665 0.50554198
0.15545639 -0.073504597 0.42489681
0.003182888 0.05725548 0.54702342
-0.03453058 -0.089701027 0.5583601
0.01315171 0.036863629 0.54297668
0.1446487 -0.15895259 0.4368864
0.1246329 0.04889122 0.44878691
0.071174279 0.055914581 0.49451959
0.15545321 -0.100924 0.4264825
0.129079 0.062413361 0.4068611
0.0048578982 0.059495632 0.30055451
0.0904544 0.06123364 0.43064949
0.016998829 0.061795648 0.51805878
0.1517823 -0.017510271 0.42661211
-0.01159823 -0.1378413 0.55761629
-0.076863468 0.06074661 0.36691561
-0.057838921 0.064312637 0.45706701
0.077065378 0.060754389 0.34611771
0.0020390151 0.054891821 0.54896408
0.091005303 0.052626491 0.4753949
0.0242773 0.05460158 0.53044683
0.051135361 0.051681701 0.50855267
0.1535507 -0.2029454 0.41908449
-0.01324815 -0.1710353 0.56052279
0.01161426 -0.225126 0.5539149
0.01132375 -0.21453761 0.54802382
0.029844429 -0.086178482 0.53128147
0.00390625 0.01975739 0.55255061
0.1542785 0.004865021 0.41914621
0.1427996 -0.16031151 0.42501161
-0.02700597 0.067045599 0.45383331
-0.01256239 -0.1377624 0.56099647
0.15550371 -0.077115573 0.4198975
-0.01244915 -0.0105772 0.56178582
0.1557343 0.038213339 0.42131329
0.099566519 -0.04398191 0.47591451
0.051793691 -0.066668987 0.51509428
0.01272231 0.057938222 0.53970993
0.1025506 -0.17335591 0.47653091
0.1513146 -0.1278235 0.4236401
0.1469817 0.045629889 0.4281019
0.025029119 -0.1373643 0.53426528
0.047614399 -0.045595411 0.51448041
0.049393918 -0.03384608 0.52112627
0.02895296 -0.1701996 0.53354663
0.017285669 0.044926912 0.53979999
0.1429379 0.051738858 0.43409571
0.096767128 -0.01072013 0.4713634
0.064497113 -0.088889211 0.50388402
0.082845241 0.00298807 0.4810248
0.027141299 -0.095644712 0.5346359
0.08950597 -0.2180731 0.48495239
0.023173749 -0.021016959 0.53366578
0.020257531 -0.1314 0.53865099
0.1382229 0.002789736 0.43967059
0.12861361 0.054841161 0.4444094
0.1405188 -0.038176481 0.43525171
0.0061005349 -0.065627463 0.55341959
0.017817261 -0.128831 0.54247528
0.030820791 -0.2154551 0.53121012
0.085844278 -0.1216438 0.48720479
0.027545059 -0.018869519 0.53470922
0.078191042 -0.072024457 0.4898752
0.0917992 -0.17974479 0.48297471
0.1338843 -0.22056191 0.44825909
0.03390241 0.048439059 0.53010547
0.1564588 -0.02434421 0.4215413
0.1213256 0.025900809 0.45515651
0.070628427 0.054331541 0.49386749
0.1544873 -0.1256994 0.41955891
-0.05066812 0.06248584 0.50016582
-0.01381361 -0.1070849 0.55593348
0.07057485 0.0037041011 0.49492031
0.08240366 -0.03003988 0.48609731
0.023891689 0.01132205 0.53586441
0.066781163 -0.18244579 0.50091243
0.027205881 0.01232633 0.53522682
0.1103877 -0.1660234 0.46636271
0.067789607 -0.2189263 0.50134617
0.1113757 -0.2233099 0.46258929
0.031281918 -0.132466 0.5339852
0.1132861 -0.050627891 0.46193749
0.070000231 -0.18274739 0.4984557
0.1499715 -0.093023993 0.4256902
0.020338921 -0.192552 0.54036331
0.1333475 -0.057705458 0.4450601
0.04636788 0.06139344 0.401723
0.086519837 0.06097725 0.33610699
0.1239546 -0.080710948 0.45312771
0.1562832 -0.1425565 0.42161921
0.064318903 -0.072476447 0.49921361
0.063207857 -0.05018121 0.50066841
0.063968658 -0.031469431 0.49656299
0.028630231 0.064821087 0.40052831
-0.0041818619 0.06210494 0.38156921
-0.031407949 0.059648629 0.39766121
0.1038371 -0.083854623 0.46810839
0.1211016 -0.043110192 0.45423761
0.1146346 -0.095475763 0.4628225
0.054434512 -0.1005716 0.51019722
0.01537403 -0.085817777 0.54283112
0.1249182 -0.22724091 0.4559499
0.079384573 -0.2009149 0.49137059
0.1036767 -0.064715832 0.47040671
0.1108658 -0.1879127 0.4648096
0.019187359 -0.086791128 0.53934228
0.083343454 -0.1740431 0.48548821
0.069165349 -0.001613051 0.4950811
0.088822991 -0.058017671 0.48180151
0.051932901 -0.1447383 0.51302409
0.1406752 -0.01351783 0.4365221
-0.1235418 0.059388459 0.37379649
0.002776027 -0.0019075871 0.54983431
0.018201111 0.062449008 0.4693256
-0.016565081 0.057176679 0.30653521
0.144545 -0.01621264 0.4245365
0.081278153 -0.17541461 0.4902997
0.0085752606 -0.1834693 0.54983193
0.1040422 -0.1162398 0.46811491
0.02438554 -0.2249516 0.54038852
0.1194335 -0.08907488 0.4570576
0.1442513 -0.1379291 0.43314171
0.1078571 -0.072740473 0.46334571
-0.085867234 0.054867331 0.34137511
-0.01701349 -0.1064286 0.55796838
0.020699861 -0.083078086 0.53071707
0.035269558 -0.086262353 0.52574271
0.05350614 0.060028251 0.38557419
0.1133202 0.05867368 0.4061369
0.13834339 -0.1889029 0.36089489
0.01654708 0.063536972 0.4596718
0.103352 0.020438399 0.46348199
0.1221272 -0.2073139 0.45657489
0.01383483 -0.2031374 0.54294962
0.1488312 -0.1581199 0.4242678
0.1221175 -0.0055567031 0.45104009
-0.00599438 0.060066879 0.36358711
0.03037921 0.061480518 0.4732691
-0.090088367 0.059765879 0.36704451
0.05315936 -0.1312613 0.51327568
0.062931977 0.060833778 0.36488801
0.078339867 0.05632329 0.48535749
0.1209647 0.055479739 0.45069629
0.1313186 -0.14993501 0.44764951
0.1364816 -0.056415081 0.44041559
0.1513359 -0.1079326 0.42767441
-0.0072711711 -0.1112412 0.55480278
0.01582676 -0.12650131 0.54114449
0.14039139 -0.1019915 0.44011411
0.087102741 -0.049887002 0.47940871
-0.068868399 0.064931452 0.47891179
0.085457951 0.049400061 0.48355979
0.01494268 0.059504751 0.40245011
0.1369976 -0.1439999 0.43882799
-0.01319903 -0.08297947 0.56242728
0.14943521 -0.00165692 0.42736009
0.1271736 -0.1257408 0.45055309
0.13933399 -0.1825746 0.44237661
-0.02316511 0.060391132 0.4399094
0.033553392 0.0576418 0.40500891
-0.020363029 0.058606561 0.55532902
-0.01591355 0.059408661 0.48423579
-0.0019595621 0.05763099 0.3893421
0.016034359 0.065430611 0.49716541
-0.1099944 0.06460771 0.40184891
-0.1071464 0.061703801 0.43782151
0.081860423 0.063696302 0.48181969
-0.01488024 -0.042502459 0.55738318
-0.006601274 -0.084885299 0.55209517
0.060188349 0.059452739 0.36755449
0.082596332 0.059987009 0.41768971
0.03713721 0.05699655 0.27762961
0.15402021 0.039392799 0.4239659
0.1405132 0.05846557 0.42892751
0.1171815 0.0131498 0.45359269
0.1437604 -0.2106187 0.4315778
0.1414672 -0.080002673 0.43805939
0.01192927 -0.0077002048 0.54010588
0.1488221 -0.073412597 0.4252131
0.1133306 0.025352331 0.4552688
-0.019242469 0.068109334 0.48084539
0.1273369 0.026701629 0.44622001
-0.048023339 0.0574429 0.36351311
-0.0088927746 0.064418048 0.29915649
0.030956089 0.062324371 0.4259499
0.1435008 0.02078953 0.43612471
0.1119197 -0.01921889 0.45780361
0.1190069 -0.1266806 0.45258859
0.13184801 -0.01842189 0.44329131
0.02898461 0.03547376 0.52842969
0.0035610199 0.040917929 0.54346448
-0.01607996 -0.001065373 0.55755198
0.092220373 0.055551618 0.40385729
0.087349273 0.05702579 0.39351791
0.070805043 0.04705682 0.3588272
0.01099461 -0.16337579 0.55278009
0.1202023 0.05679724 0.37954631
0.094688982 0.055238601 0.36174989
0.01035851 0.05018115 0.27742741
0.059603721 0.05408236 0.30963081
0.15182839 -0.204438 0.4200702
0.125248 -0.087030172 0.4496603
0.1343817 -0.074182212 0.44401491
0.1432682 -0.022046721 0.42821649
0.066431157 -0.068540134 0.50021708
-0.007008553 0.055856019 0.55014032
0.1420867 -0.096509278 0.4367463
-0.001311064 0.01370674 0.55782813
0.074705839 -0.039571371 0.49194759
-0.001635909 -0.0026141109 0.55572891
0.0031745429 -0.016852111 0.54243988
0.14263891 0.04984891 0.43392289
-0.1311181 0.060566481 0.38397339
0.038926329 -0.1019411 0.52152818
0.074649267 0.059438352 0.4500283
0.060947329 0.063219957 0.41732329
-0.076443553 0.056629241 0.34647459
-0.032666799 0.068677723 0.4109472
0.06054059 -0.1007113 0.5037747
0.1587033 -0.19747449 0.41222069
0.1359106 -0.0041137929 0.43248859
0.14347839 -0.091987312 0.4360311
0.0076805349 0.070854992 0.53032362
0.015829889 -0.043937739 0.54278308
0.017307401 0.062182251 0.38078839
0.1223534 -0.15450621 0.45511481
0.1353551 -0.0048835282 0.4419072
0.04914039 -0.03114235 0.51145637
0.112908 -0.1580245 0.4606069
0.083479941 -0.090882629 0.47875661
0.12545089 -0.2058498 0.45344731
0.12840579 0.0011311769 0.44474211
0.1165699 -0.17588221 0.46204689
0.031041199 -0.01107231 0.52587748
0.080078572 -0.02076963 0.48312819
0.05473071 -0.08751291 0.50877452
0.007707417 -0.060676839 0.54441541
0.1654131 -0.1350612 0.41288751
0.15318801 0.038483441 0.42242739
0.096160457 0.058716029 0.4111883
-0.01824728 -0.1764964 0.55787808
0.050481532 -0.1355809 0.51166791
0.061181519 -0.032814801 0.49442041
0.13945571 -0.039243881 0.43467551
-0.019179819 -0.1105582 0.55759788
-0.01790625 -0.1431133 0.55775487
-0.1397204 0.047689289 0.37288329
0.1013611 -0.03336218 0.46723971
0.0086922348 -0.22001579 0.54781842
0.029246841 -0.2192886 0.52979749
0.01312304 -0.13309699 0.54011017
0.042193979 0.05666152 0.48459551
0.024989281 -0.1386997 0.53289098
0.1210334 -0.17010359 0.45510101
0.1464837 -0.096196137 0.42315349
0.083026558 0.031924281 0.47539839
0.091613218 0.051859289 0.47572371
0.022783101 0.051892672 0.53012842
0.0353049 -0.216315 0.52536851
0.065079421 -0.1857127 0.50240129
0.016582429 -0.1982519 0.53761828
0.091148376 -0.074894793 0.47667739
-0.01559979 -0.1108809 0.55304652
0.03892839 -0.1026705 0.52134031
-0.018686 -0.071792267 0.55827802
0.001380801 -0.069715828 0.55239391
-0.01556849 -0.01927197 0.55177242
0.02130523 -0.1614756 0.54062009
0.026080821 -0.089009911 0.53055131
0.04826751 -0.070437789 0.51365381
-0.018343691 -0.01460674 0.55873382
0.096249834 -0.01100805 0.47181809
0.02101198 -0.022345571 0.53401017
0.1236876 -0.019158389 0.4509199
0.066644371 0.0022613411 0.49345079
0.04629406 -0.04565087 0.51547372
0.1357515 0.019595411 0.43785021
0.059328049 -0.144886 0.50280303
0.001226068 0.05400699 0.5495761
0.020271059 0.0081036976 0.53310758
0.01263261 -0.0043828492 0.54137093
0.121405 -0.04413816 0.45396069
0.01700392 -0.088556617 0.53945428
0.01180825 -0.088066973 0.54222292
0.01623082 0.06084064 0.46902779
-0.002921164 -0.069143347 0.55409831
0.026485169 -0.17347699 0.53328222
0.12710389 0.061800059 0.42298919
0.1127008 -0.054452121 0.46010771
0.060634401 -0.077030271 0.49544051
0.047829632 -0.1537053 0.51877111
0.1043951 0.020361191 0.46503761
-0.028719719 0.065614611 0.4524087
0.023483191 0.06162313 0.50810689
0.003257513 -0.099116653 0.55278373
0.080852233 -0.1024868 0.48539871
0.062713467 0.057272669 0.39493749
0.080863267 0.0065887268 0.48379311
0.13851421 -0.1834188 0.4440859
-0.01152417 -0.16284449 0.55342412
0.027283279 -0.2235502 0.54496253
0.02067256 0.070177726 0.50363553
-0.08659482 0.05830729 0.35763499
0.1323605 -0.14870401 0.45277631
0.1359916 -0.14467961 0.43740499
0.1362655 -0.2185663 0.44958159
0.16208211 -0.13457181 0.41346201
-0.090160973 0.0590978 0.45585471
-0.056980308 0.059474319 0.49644801
0.006859839 0.064943761 0.54118699
-0.083167553 0.060005099 0.46826151
0.0099847605 0.056718379 0.5397253
-0.00076475739 0.01865503 0.55164421
0.063075162 -0.2275296 0.49735549
0.074209392 0.059929159 0.4504737
0.074764699 0.059565991 0.34324569
-0.02287486 0.061555829 0.44139159
0.025405761 0.060548991 0.48401561
0.001730114 0.058665842 0.29680029
0.059058901 0.06119588 0.49715519
0.1011709 0.060988069 0.44686261
0.048681621 0.05620873 0.50732088
0.090831757 -0.216866 0.48855701
0.1076254 -0.1717165 0.46359849
0.078198187 -0.2042661 0.49168241
0.1079738 -0.19486199 0.46109831
0.1250456 -0.228881 0.45781481
0.080379456 -0.1795782 0.4825317
0.072382443 -0.15287641 0.4933297
0.053510129 0.0590817 0.47256711
0.1404987 -0.1650596 0.42336601
0.100835 -0.17752589 0.4753952
0.00063884258 -0.0037792029 0.55036688
0.1229951 0.047584619 0.4475151
0.070392922 -0.03342643 0.48750359
0.09951745 -0.2045944 0.47432151
-0.0053805411 0.0120438 0.55775028
0.063361883 -0.089837939 0.50480258
-0.0065273941 -0.0065430398 0.55317903
0.0067711468 -0.1670257 0.55525023
0.02911496 0.06084761 0.47365949
-0.01118135 0.062336329 0.29456699
-0.072243452 0.060356911 0.48474091
0.023927391 0.01183888 0.53585792
0.097119808 0.062015239 0.39309779
0.0539723 -0.129651 0.51368958
0.109594 0.060816258 0.37611759
-0.02303076 0.064861238 0.4841114
0.11408 0.061944749 0.4519287
0.102578 -0.098956376 0.47328699
0.02117357 0.070735447 0.46639061
0.098709077 -0.1317824 0.48113191
0.094741173 -0.1096763 0.47232369
0.057982922 -0.046157122 0.49296811
0.035332769 -0.065672398 0.53493869
0.04179785 0.068802088 0.42188951
-0.016891841 0.02820644 0.55771321
0.078677833 0.057303309 0.47024009
0.087003827 0.0609014 0.43515801
-0.02612501 0.015928719 0.55114907
-0.05829173 -0.1407098 0.51781827
0.029063109 0.067522854 0.51161599
-0.03196305 -0.005885601 0.54843742
-0.025010649 -0.067698717 0.55232698
-0.041123331 0.03547499 0.53549719
-0.072609723 -0.2271954 0.4921791
-0.088088334 0.061488569 0.47244531
-0.074492343 0.005651027 0.49124119
-0.087542467 -0.1042203 0.4778946
-0.035584629 -0.1232551 0.55058283
-0.02690321 -0.081933618 0.5489127
-0.032773908 -0.047798041 0.55129611
-0.054001149 -0.033037689 0.52058369
-0.04012138 -0.096863389 0.53942227
-0.06706804 -0.01712364 0.50014281
-0.074446261 0.034866631 0.48836929
-0.089743443 0.04726788 0.4714295
-0.095578253 0.047505289 0.4555451
-0.060625199 -0.027242631 0.5054903
-0.058895949 0.064396739 0.4927488
-0.050050911 0.034922089 0.52219999
-0.01498687 -0.14963309 0.56196862
-0.071252048 -0.049298111 0.50580841
-0.074014433 -0.18518861 0.50401402
-0.092353463 -0.068709731 0.46667331
-0.08240962 0.06973958 0.47802761
-0.04473168 0.035936061 0.52361917
-0.060449481 0.064625323 0.42177841
-0.1224859 -0.2080178 0.4420954
-0.01533818 -0.1857734 0.56189221
-0.035103679 0.06760022 0.39610341
-0.05579764 0.063149601 0.40485811
-0.039293889 0.06165063 0.52807808
-0.1208329 0.066116482 0.3788282
-0.1209812 0.067391507 0.39637741
0.082051814 0.0563826 0.4718262
-0.1205927 0.064966261 0.41630501
-0.01704997 -0.2172194 0.56437773
-0.036245052 -0.038687591 0.53611451
0.095919192 0.061715961 0.41685909
0.094673812 0.056801919 0.4676877
-0.079794943 -0.1242189 0.49385369
0.1224843 0.062979072 0.40837899
0.055957969 0.058495071 0.41390431
0.1187972 0.054785911 0.3762092
0.055476129 0.057846189 0.42621139
-0.046052519 -0.22652289 0.53587902
-0.00034707779 -0.22776709 0.5914644
-0.047908131 -0.1847287 0.52043611
-0.04164153 0.066114128 0.45637441
-0.087130837 0.0288474 0.47163129
-0.111172 -0.1625658 0.44967631
-0.097801149 -0.13462581 0.4746457
-0.1503953 -0.17430849 0.39978531
-0.1053432 -0.1548803 0.46484071
-0.01768738 0.048965041 0.56056768
-0.044422392 -0.2077923 0.53406167
-0.040131871 -0.1496494 0.53970933
-0.1003655 -0.1982024 0.48159969
-0.02608734 -0.02304423 0.27809009
-0.087339938 -0.0002300739 0.47890559
-0.1013801 -0.001050442 0.45585579
-0.080529153 -0.042841971 0.4833841
-0.14378969 0.046247091 0.394784
-0.1011481 0.047904789 0.4491336
-0.073390059 0.052701831 0.32920781
-0.1466815 -0.048329111 0.40727139
-0.13990159 -0.033672839 0.3933548
-0.1483175 0.0054509039 0.39519081
-0.1372297 -0.06850934 0.41051081
-0.050977219 -0.087046303 0.30360559
-0.038433369 0.0070050061 0.29754609
-0.03853308 -0.007935822 0.29138511
-0.084545016 -0.062563598 0.48307189
-0.1517345 -0.01004198 0.38874429
-0.1394614 -0.15675621 0.4154081
-0.14601339 -0.071737289 0.4034338
-0.14113051 -0.099330314 0.40587521
-0.1367247 -0.21936961 0.3794142
-0.1239752 -0.1072283 0.43707621
-0.099959187 -0.1018987 0.46534711
-0.1292164 -0.095721602 0.37511489
-0.1453196 -0.1613424 0.40168169
-0.1421757 -0.18945891 0.3840481
-0.1492599 -0.1172747 0.4044767
-0.12834071 -0.1136999 0.42506811
-0.1365518 -0.1480439 0.37542719
-0.1092065 -0.1845825 0.45911509
-0.02142733 -0.08907932 0.56191242
-0.041117068 -0.074516952 0.53419769
-0.03767246 -0.1955166 0.54813093
-0.02773821 -0.19831669 0.56907088
-0.119571 -0.1836216 0.4429172
-0.02744383 -0.01715124 0.55953729
-0.066067994 0.062687702 0.32146379
-0.1310266 0.038340691 0.3762227
-0.094368041 -0.01603872 0.47095159
0.1206833 0.06889686 0.38402
-0.111236 0.042051081 0.44740561
0.046743929 0.067703493 0.32777789
0.0713256 0.066291869 0.4392294
0.02517694 0.062022749 0.33800271
0.041378319 0.058195289 0.30240259
-0.06246746 -0.1171151 0.3151511
-0.003572166 -0.018609339 0.2642206
-0.1017434 -0.038465139 0.3431769
-0.1091931 -0.1155779 0.35122201
-0.1006066 -0.087719738 0.45139709
-0.14156219 -0.1053979 0.40783769
-0.1002669 -0.1125337 0.45033821
-0.1484928 -0.1037513 0.3869954
-0.1218764 -0.1439942 0.35874549
-0.094740868 -0.1358182 0.33974549
-0.13960031 -0.092859797 0.40961611
-0.1046832 -0.1628281 0.46250081
-0.026687199 -0.2188004 0.2823095
-0.042375211 0.051442649 0.53433919
-0.047538519 -0.17529459 0.53621668
0.030118641 0.073314883 0.37984571
-0.1058903 -0.2051625 0.33944049
-0.1161603 -0.1165476 0.44638911
-0.1057205 0.0130294 0.44474989
-0.06530726 -0.072546303 0.31607351
-0.1145652 -0.22839279 0.3537975
-0.01267594 -0.048475951 0.27196151
-0.144466 -0.0280216 0.3809461
-0.060712341 0.01026654 0.31682271
-0.048363391 0.025370119 0.30914661
-0.039603919 0.060350358 0.34157461
0.051992118 0.067427039 0.40514961
-0.1048413 0.00059399009 0.4451865
-0.13062111 -0.052262131 0.41822651
0.037953321 -0.2253428 0.23245861
-0.084129512 -0.02469206 0.33555979
-0.1148552 0.06171215 0.368965
-0.1083953 -0.01099211 0.45014879
-0.01012909 0.0048377509 0.27260259
-0.095080547 0.03058726 0.34725419
-0.1496342 0.024512829 0.3925454
-0.15177269 -0.05163515 0.38941261
-0.037551761 -0.117143 0.29874781
-0.040693011 -0.19308589 0.28845561
-0.05163246 0.063888371 0.5061301
-0.1139337 -0.033630248 0.35710439
0.01217091 0.0581755 0.27320391
-0.1120198 0.0054429169 0.35874909
-0.046152871 0.061283261 0.40458041
-0.1125255 0.057760119 0.358527
-0.01471978 0.043267582 0.27184081
-0.080548413 0.034535229 0.33102
-0.018513011 -0.085432559 0.27813789
0.028471891 0.05901283 0.28777361
-0.086406678 0.005325973 0.33670881
-0.01670992 -0.1265382 0.27535611
-0.08208181 -0.036118839 0.33005461
-0.1185775 -0.075870991 0.44394001
-0.067150056 -0.1236114 0.31685439
-0.1279628 -0.070471168 0.43679571
-0.059442818 -0.2099475 0.51902002
-0.078070343 -0.1993525 0.4905971
-0.139511 -0.1217378 0.37972361
-0.1334064 -0.1686423 0.37399879
-0.061459601 -0.18912169 0.31225821
-0.093251593 -0.1519421 0.48151049
-0.1226896 -0.1057066 0.3625989
-0.086756647 -0.2255169 0.49011609
-0.118061 -0.090019941 0.44068539
-0.068324387 -0.088672161 0.5035007
-0.01651239 -0.1746567 0.27638349
-0.057187621 -0.031555619 0.52054292
-0.04498357 0.059480522 0.52695799
-0.045328081 -0.1065939 0.5372566
-0.1170732 -0.02560881 0.4374496
-0.1479481 -0.17853799 0.39265609
-0.1454284 -0.127863 0.41835371
-0.14451531 0.0057173669 0.38278961
-0.1474307 -0.1420352 0.38717681
-0.1213191 -0.082877219 0.3548179
-0.124346 -0.02100238 0.37469479
-0.13850389 -0.1663889 0.42522219
-0.040598329 0.055449281 0.37127271
-0.044597089 -0.17510919 0.3077949
-0.1310298 0.06364432 0.40738049
-0.1405637 -0.043700039 0.37707451
-0.097711504 0.047541469 0.34755069
-0.094421573 0.01410136 0.34690019
-0.1205998 -0.058887299 0.43650061
-0.066971242 -0.01078454 0.50084382
0.059343159 0.066228122 0.3030875
0.01230592 -0.01252651 0.2475936
0.01101679 -0.040589571 0.2561999
-0.033499599 -0.091106713 0.28791121
-0.078994989 -0.01971272 0.33419189
-0.1364776 0.0364393 0.37674099
-0.057954911 -0.079851687 0.51926219
-0.095712073 0.01319551 0.46683031
0.007252634 -0.15583061 0.26018649
-0.097515047 0.062851608 0.458574
-0.15173221 -0.2279871 0.38801
-0.0113962 0.062525094 0.35870421
-0.15335689 -0.22894379 0.1170603
-0.085510284 -0.1549366 0.32945079
-0.044921972 -0.1819922 0.2971929
-0.01154227 0.0626508 0.3590174
0.1429048 -0.039462861 0.4021152
0.069737822 -0.081519842 0.313014
0.040597081 -0.1610719 0.26409009
0.1135789 -0.18366461 0.3578985
0.079339489 -0.2019456 0.31259331
0.112694 -0.1180887 0.36275151
0.0622021 -0.18134201 0.29660481
0.05170751 -0.13601831 0.28225961
0.1312789 -0.1400134 0.3798798
-0.01952732 -0.086810082 0.2790277
-0.02171379 -0.12762409 0.277803
-0.051817 -0.20300139 0.30128121
-0.040579021 -0.1379766 0.29230791
0.032108519 -0.1268238 0.26566181
-0.054167781 -0.1809199 0.3070015
0.0046384628 -0.1850832 0.25927931
0.035067711 -0.054306749 0.26245931
-0.041406099 -0.18205009 0.27280369
-0.01389292 -0.1706274 0.28539529
0.02174416 -0.2046404 0.2505945
-0.067210577 -0.1879314 0.31152949
0.032153402 -0.145909 0.2643261
0.01224533 -0.1554973 0.2398672
-0.068805493 -0.1873329 0.3173075
0.0159522 -0.1141772 0.2552802
0.0090028048 -0.1073428 0.29833111
0.044186588 -0.099772811 0.27630621
0.01339096 -0.1180229 0.25762919
0.073523521 -0.046147261 0.34112239
0.00015300509 0.060986731 0.30011719
-0.019119561 0.062877826 0.4626331
-0.1076524 -0.1636484 0.35112521
-0.098535948 -0.023588691 0.35258111
-0.13047139 -0.187876 0.36907449
-0.05257225 0.05176121 0.31515899
-0.091654658 0.0042450428 0.33402911
-0.08655858 0.040827598 0.33154789
-0.0035339589 -0.018661199 0.26525289
-0.031064929 0.03039724 0.29450649
-0.08485657 -0.034449462 0.32939401
-0.1235543 -0.109301 0.36617991
-0.076841652 0.06194365 0.3462896
-0.052422401 -0.1826358 0.30488601
-0.1203761 -0.14286821 0.36051801
0.01452398 0.055817459 0.25847769
-0.1210442 -0.15284219 0.36312619
-0.076180823 0.034473538 0.3345919
0.02931839 0.05941635 0.26828659
-0.051952899 0.02684262 0.31265429
-0.1086345 -0.1412413 0.35244671
-0.1385311 -0.1648054 0.37799871
0.01117009 0.044808749 0.26052031
-0.082820237 0.02147436 0.3320508
-0.096382923 -0.16752949 0.34097821
-0.095372379 0.062445641 0.36921769
-0.099604547 -0.042348921 0.34507439
-0.074450083 0.054955389 0.32825211
-0.1132496 0.0057939589 0.36289209
-0.14150169 -0.030732511 0.38389891
-0.083857954 -0.15775301 0.3326042
-0.1435919 -0.2190315 0.38466051
-0.1097907 0.05591565 0.3624433
-0.073256128 0.058228161 0.37321299
-0.0087402463 0.039880808 0.2745215
-0.1221965 -0.037317991 0.3570312
-0.1108463 -0.1157951 0.3545866
-0.1449379 -0.1185129 0.38369641
-0.1411033 -0.036369801 0.38699591
-0.097227506 0.021132531 0.3528873
-0.1459882 -0.1093864 0.3739534
0.04964292 0.062488731 0.50038308
-0.1185132 0.062680602 0.4025248
-0.1255935 0.051407691 0.37537009
-0.071973503 -0.069742382 0.3177225
-0.1254082 0.064069659 0.3742536
-0.043323871 0.0040104389 0.2979891
