# .PCD v0.7 - Point Cloud Data file format
VERSION 0.7
FIELDS x y z normal_x normal_y normal_z curvature
SIZE 4 4 4 4 4 4 4
TYPE F F F F F F F
COUNT 1 1 1 1 1 1 1
WIDTH 587
HEIGHT 1
VIEWPOINT 0 0 0 1 0 0 0
POINTS 587
DATA ascii
-0.10658405 0.05469767 0.44490531 -0.58714253 0.71225226 0.38465616 0.07586503
0.11988033 0.053880304 0.44991708 0.57270336 0.72993779 0.37309757 0.11176784
0.12767643 0.053938415 0.44336432 0.61453754 0.68609583 0.38937914 0.11279177
0.130605 0.052948054 0.44182464 0.62594432 0.68214381 0.37798631 0.1113843
-0.048407435 0.063566305 0.44270161 -0.12457062 0.99154919 0.036227129 0.032687005
-0.022793462 0.064536005 0.44280276 -0.029359408 0.99956816 0.0012367683 0.0074314065
-0.015339471 0.063947096 0.44442353 -0.010402997 0.99994451 -0.0016359513 0.0047596633
0.028137472 0.064608283 0.4470734 0.039879058 0.9990738 0.016161796 0.0022002384
0.077288836 0.063812166 0.44388634 0.1436085 0.98451471 0.10053587 0.032560181
0.092857175 0.061725125 0.44102347 0.24116108 0.95464361 0.17463361 0.062426116
0.10198943 0.06050298 0.44478142 0.32386348 0.91900694 0.22480793 0.082174748
-0.1255167 -0.234016 0.4523125 -0.72824043 -0.48007518 0.48907441 0.077830128
-0.11235635 -0.23401599 0.45222858 -0.56353116 -0.70830196 0.42513654 0.10188898
-0.10433949 -0.23401599 0.45502105 -0.52921194 -0.70581555 0.47091302 0.10880553
-0.095631436 -0.23401599 0.4566533 -0.39197084 -0.83968776 0.37587678 0.11491494
-0.081928551 -0.234016 0.45952049 -0.28230959 -0.92352909 0.25960615 0.1052305
-0.060891028 -0.234016 0.45836759 -0.16175127 -0.9759596 0.14608023 0.062186606
-0.057858706 -0.234016 0.45827851 -0.12646121 -0.97964317 0.15590677 0.059722584
-0.04164153 -0.234016 0.45637441 -0.057615437 -0.99366564 0.096483432 0.034177117
-0.027813038 -0.234016 0.45413592 -0.024277732 -0.99867958 0.045273893 0.011111571
-0.001505971 -0.234016 0.45998091 0.0028182217 -0.99993026 0.011469626 0.00067655655
0.01363501 -0.234016 0.45966774 0.020074872 -0.99951035 0.024001641 0.005457276
0.0291619 -0.234016 0.45684829 0.045946121 -0.99632543 0.07228183 0.028324237
0.038484309 -0.234016 0.45808411 0.07090576 -0.99291545 0.095348507 0.040322866
0.076042645 -0.234016 0.45334807 0.21803041 -0.94217068 0.25451374 0.099513814
0.08070296 -0.234016 0.4548341 0.20678955 -0.94326925 0.2597715 0.099022523
0.095394731 -0.23401599 0.45828468 0.2486697 -0.90180987 0.35341522 0.1132164
0.10511335 -0.23401599 0.4568423 0.29312599 -0.8526271 0.43255538 0.12264875
0.11582536 -0.23401599 0.45470667 0.37320298 -0.81732976 0.43896666 0.13627446
0.12303361 -0.23401599 0.45370519 0.48432466 -0.75246859 0.44634148 0.14047924
0.13534255 -0.23401599 0.45275509 0.65044373 -0.58402115 0.485636 0.1427293
-0.12549673 -0.18022314 0.45227635 -0.85705394 -0.069095202 0.51057273 0.020633478
-0.11058084 -0.18086585 0.45714566 -0.81725609 -0.096628733 0.56811571 0.026248338
-0.1071196 -0.18160135 0.45498022 -0.81496435 -0.13324018 0.56398606 0.042272873
-0.11360904 -0.16262956 0.45144778 -0.84668887 -0.021801226 0.53164148 0.011495034
0.12248971 -0.16996747 0.45679837 0.71160364 -0.096206248 0.69596314 0.040217537
-0.10756417 -0.15072608 0.45946121 -0.81536162 0.046868518 0.57705188 0.003131032
0.12464434 -0.15661752 0.45701152 0.66676521 0.015840489 0.74509954 0.0083357506
0.1323723 -0.14870663 0.45277709 0.65976167 0.049697157 0.74982989 0.0092588272
-0.10089745 -0.11373174 0.45168254 -0.82817799 0.064769931 0.55671012 0.0079283994
-0.1047367 -0.084224954 0.45100549 -0.8303827 0.043697704 0.55547738 0.0079228003
0.1234054 -0.085849412 0.45607173 0.67808712 0.041670136 0.73379934 0.015030419
0.13946316 -0.057086669 0.45247397 0.69782043 0.016419182 0.71608454 0.020000391
0.12387551 -0.043189425 0.45979515 0.67441678 0.01581648 0.73818147 0.01520092
-0.10518761 -0.014989054 0.45468274 -0.81064016 0.026169818 0.58495957 0.0040269149
0.11259321 -0.018668493 0.45943758 0.67308134 0.018900776 0.73932701 0.015533133
0.12413271 -0.017754588 0.4512769 0.69387352 0.017821675 0.71987635 0.027715527
-0.10345957 -0.0011708844 0.45454812 -0.79323334 0.083827719 0.60311997 0.011309597
0.12249746 -0.0055007441 0.45156348 0.69397068 0.14393021 0.70547062 0.041678187
0.11793154 0.013090022 0.45470077 0.67239028 0.32696837 0.66406554 0.069957428
-0.10238661 0.023020862 0.45781845 -0.72426969 0.33237475 0.6041196 0.055815037
0.11589691 0.02241995 0.45842886 0.65966743 0.37843353 0.64932805 0.07947617
0.12190922 0.025641529 0.45527127 0.66131616 0.4008171 0.63403988 0.083034448
-0.1057609 0.032142561 0.45475543 -0.72234339 0.42634732 0.54447043 0.062497176
-0.10355265 0.048082471 0.45507857 -0.58967352 0.66807556 0.45382825 0.082846239
0.12432419 0.046057098 0.45298189 0.63629287 0.60881495 0.47378877 0.10352346
0.095371425 0.059458576 0.45824024 0.33358073 0.87218851 0.35778648 0.080941387
0.10485434 0.059559181 0.45682263 0.4013339 0.83786809 0.37001112 0.091475733
0.11209996 0.056491531 0.45280203 0.51140958 0.7759369 0.36929968 0.10487929
-0.10076746 0.061575707 0.45273623 -0.47680077 0.78576678 0.39399442 0.085840128
-0.096038818 0.062372729 0.45723239 -0.44669139 0.80454916 0.39136627 0.092897251
-0.081542775 0.063705906 0.4599109 -0.34598649 0.89944601 0.26700231 0.08911626
-0.060941041 0.065167032 0.45791575 -0.29693246 0.93331575 0.20187336 0.078491591
-0.057860248 0.064700916 0.45831293 -0.26278797 0.94398069 0.19960719 0.068576589
-0.041599009 0.065375268 0.45653453 -0.15014653 0.98441231 0.091588639 0.039599828
-0.027879877 0.065397918 0.45416036 -0.065121375 0.99701792 0.041406285 0.015055101
-0.0075515779 0.065064922 0.45030093 0.019301258 0.99981272 -0.0014281599 0.0012908881
0.013963713 0.064794458 0.45951167 0.041712902 0.99871671 0.028723843 0.0029538642
0.029219847 0.063924477 0.45677397 0.042070251 0.99832815 0.039636593 0.0037241534
0.03848708 0.063630894 0.4580541 0.090494663 0.99354655 0.068382151 0.018852307
0.076705687 0.061930444 0.45356441 0.21572849 0.95245802 0.21513954 0.062181842
0.080758765 0.061333235 0.45484427 0.25786167 0.93134427 0.25710934 0.070060551
-0.10380722 -0.23401599 0.46413866 -0.60220069 -0.61368656 0.51063013 0.1103309
-0.096910514 -0.23401599 0.46626839 -0.50410807 -0.74468726 0.43739676 0.12079483
-0.083167553 -0.23401599 0.46826151 -0.3487592 -0.88132769 0.31879225 0.11335589
-0.075091898 -0.234016 0.46444449 -0.27933306 -0.92312002 0.26423964 0.10586865
-0.061432779 -0.234016 0.4686774 -0.18007064 -0.96091992 0.21025586 0.082210436
-0.058312789 -0.234016 0.46166116 -0.14881328 -0.9757933 0.16025639 0.067007281
-0.028693849 -0.234016 0.4605985 -0.034844495 -0.99776101 0.057086132 0.017381633
-0.019119561 -0.234016 0.4626331 -0.030155441 -0.99897206 0.033845652 0.0088286093
-1.606345e-05 -0.234016 0.46530309 0.0066823834 -0.99980605 0.018526865 0.0014881452
0.002111502 -0.234016 0.46644521 0.0059222602 -0.99981326 0.018394308 0.0014712467
0.017470418 -0.234016 0.46795604 0.064771384 -0.99576241 0.065283388 0.028752429
0.021521511 -0.234016 0.46782172 0.074343234 -0.99425393 0.077021062 0.033823494
0.063857734 -0.234016 0.46617571 0.23861428 -0.94195819 0.23617367 0.093318753
0.094673812 -0.23401599 0.4676877 0.3129465 -0.85325146 0.41716474 0.1238071
0.10506411 -0.23401599 0.46541604 0.36514333 -0.81236559 0.45467857 0.12235375
0.11393782 -0.23401599 0.4632147 0.45669237 -0.71445137 0.53008616 0.12645231
0.12598643 -0.234016 0.46461454 0.63358498 -0.52855247 0.56497997 0.12801105
0.13721889 -0.234016 0.46141756 0.67685664 -0.49719077 0.5428319 0.13221605
0.11300351 -0.17260654 0.46525028 0.68240547 -0.12510823 0.72018784 0.051258102
-0.10358697 -0.16526955 0.46464962 -0.80094641 -0.036445245 0.59762579 0.014063725
0.11111993 -0.16611068 0.4670831 0.66541296 -0.071974695 0.74299753 0.031882014
-0.1041078 -0.15482517 0.46390295 -0.80629355 0.031821903 0.59065902 0.0035183341
0.11461018 -0.15785414 0.46256608 0.66840279 -0.0031175932 0.74379307 0.01019563
0.13690874 -0.14578418 0.46142897 0.66149861 0.046532623 0.74850136 0.0087853651
0.11511021 -0.11179753 0.46187744 0.65907937 0.015111128 0.75192159 0.0052601602
-0.097452782 -0.10179535 0.46377927 -0.79980385 0.057689343 0.5974828 0.0014152111
0.11684657 -0.10608836 0.4624635 0.65858591 0.015540873 0.75234509 0.005297686
-0.10143697 -0.095214069 0.46030447 -0.81057554 0.058071524 0.58274788 0.0056932271
0.11454671 -0.095439419 0.46267065 0.64682937 0.016227294 0.76246214 0.0056901961
0.10504769 -0.084325083 0.46975875 0.64535737 0.027444215 0.76338768 0.006217543
0.10985336 -0.07269685 0.46504986 0.65741348 0.043298371 0.75228506 0.01137878
0.12870619 -0.077992722 0.46084371 0.67016053 0.034884725 0.74139601 0.011201076
-0.092235252 -0.068727188 0.46661514 -0.79951453 0.030155417 0.59988928 0.001009877
0.10428995 -0.068906978 0.46944022 0.64732379 0.021666501 0.76190716 0.0048078415
0.11421593 -0.05253353 0.46321601 0.67465568 0.020405954 0.73785049 0.014645813
0.10628296 -0.034915566 0.46767926 0.65769136 0.014711561 0.75314385 0.010286329
0.10416887 -0.024476506 0.46701309 0.66205901 0.011789735 0.74935901 0.011373047
-0.099182203 -0.0043719136 0.46181202 -0.77012664 0.078329146 0.63306367 0.0076207584
-0.094155341 0.012273797 0.46759582 -0.75552654 0.20902362 0.6208775 0.03928268
0.10388069 0.020400923 0.46426797 0.64169604 0.3644186 0.67485213 0.075639531
0.12814392 0.030891532 0.46872085 0.66322744 0.33079079 0.67134714 0.058379702
0.094560474 0.057732161 0.46806201 0.3652193 0.84643483 0.38750857 0.083263129
0.10893489 0.059051789 0.46514848 0.50409895 0.71152931 0.48949999 0.089586876
-0.084472068 0.061100878 0.46970528 -0.44196561 0.83486056 0.32813764 0.097803369
-0.074874498 0.063469484 0.46467894 -0.36058813 0.8986311 0.24987675 0.087436616
-0.060734276 0.064986281 0.4649255 -0.29351619 0.93261516 0.20994578 0.072176479
-0.056703106 0.065039828 0.46198416 -0.237744 0.95254123 0.19011316 0.061115284
-0.029381333 0.065444715 0.46053615 -0.091078274 0.99333435 0.070651494 0.021248236
-0.018962709 0.065113194 0.46266121 -0.047253482 0.99739152 0.054565012 0.014546368
-0.0019594929 0.065353915 0.46245795 0.029935719 0.99915606 0.028123965 0.0029877299
0.0021571778 0.065088637 0.46637702 0.037360899 0.99849951 0.040037334 0.0034255402
0.017529367 0.063585036 0.46849665 0.051046286 0.99733871 0.052055329 0.0047000647
0.021637745 0.063349269 0.46778816 0.048542731 0.99737978 0.053639717 0.0048530456
0.0641829 0.061606176 0.46655318 0.23891182 0.94894493 0.20597234 0.056512661
-0.1002659 -0.23401599 0.47298741 -0.62987417 -0.57063729 0.52690768 0.10249854
-0.093798302 -0.23401599 0.47462082 -0.49839303 -0.7462396 0.44128323 0.11531355
-0.086495936 -0.23401599 0.47559121 -0.43970197 -0.80865061 0.3908278 0.11558562
-0.077212714 -0.23401599 0.4762359 -0.36632288 -0.85928977 0.35697153 0.11638321
-0.068868399 -0.234016 0.47891179 -0.28424737 -0.91556871 0.28449488 0.10698593
-0.035912309 -0.234016 0.47316289 -0.10120082 -0.98864782 0.11105826 0.046162259
-0.0223915 -0.234016 0.47903499 -0.08506979 -0.99165201 0.096899435 0.038489569
0.01648456 -0.234016 0.4761748 0.084390983 -0.99258864 0.087441102 0.034425221
0.02911496 -0.234016 0.47365949 0.082474262 -0.99129128 0.10266264 0.041574437
0.03037921 -0.234016 0.4732691 0.082474262 -0.99129128 0.10266264 0.041574437
0.053510129 -0.234016 0.47256711 0.20506951 -0.96068901 0.18714467 0.077342443
0.076289266 -0.23401599 0.47481665 0.28255194 -0.91151595 0.29883623 0.10190229
0.084026806 -0.23401599 0.47620523 0.36304206 -0.85174108 0.37780637 0.11305184
0.094286546 -0.23401599 0.47464678 0.38563636 -0.79279858 0.47196934 0.11714268
0.10410394 -0.23401599 0.47437817 0.46975309 -0.69086611 0.54957813 0.12489097
0.1123858 -0.23401599 0.47031349 0.55345994 -0.60224134 0.57531512 0.12138692
0.10171833 -0.17425415 0.47632861 0.66625416 -0.12612364 0.73498172 0.044697728
-0.096293598 -0.15907325 0.47497529 -0.79483545 -0.010304821 0.60673749 0.0075548738
-0.095700994 -0.14023903 0.4755553 -0.79194218 0.055446353 0.60807341 0.0023955349
-0.095581427 -0.13379554 0.47531801 -0.79440385 0.057959817 0.60461831 0.0021011378
-0.089249469 -0.11037268 0.47655389 -0.80108166 0.054780621 0.59604311 0.0017921367
0.10587318 -0.11631124 0.47139269 0.66116601 0.015730934 0.75007474 0.0052032126
-0.08790116 -0.10509932 0.47872123 -0.80100447 0.056763489 0.59596121 0.0014361083
0.095554598 -0.10925955 0.47010368 0.65297723 0.027275326 0.75688624 0.00512625
-0.093196481 -0.093787417 0.47157857 -0.80131954 0.047163215 0.59637457 0.0014671204
0.085651241 -0.091673955 0.47871953 0.62555259 0.042983558 0.77899706 0.0047839899
0.10155549 -0.098999813 0.47133905 0.6527369 0.027626887 0.75708085 0.0050110635
-0.087919295 -0.075669631 0.47644761 -0.79723281 0.032065403 0.60281986 0.0010914993
0.093427256 -0.074820116 0.47974953 0.63217276 0.039765324 0.77380651 0.0043506571
0.10354019 -0.064685792 0.47021246 0.6471824 0.023262126 0.76198018 0.004191054
0.098806545 -0.04476941 0.47440049 0.63707972 0.02798507 0.77028978 0.0039713834
0.10248756 -0.048464675 0.47773585 0.63928545 0.026327495 0.76851869 0.004109873
-0.09558773 -0.015363169 0.4714852 -0.78666264 0.03253011 0.61652547 0.0013412673
0.09650781 -0.010864651 0.47159129 0.62277734 0.08949019 0.77726442 0.014399106
0.10047109 -0.010151091 0.47700173 0.62048197 0.074187323 0.78070384 0.0085718734
-0.087158188 -0.00025147659 0.47877005 -0.77055514 0.11647418 0.62664068 0.015083297
-0.090347767 0.029342394 0.47143453 -0.69949931 0.42727154 0.57283485 0.088437557
-0.083736598 0.037222434 0.47895566 -0.63932538 0.60514331 0.47440991 0.10423838
-0.089337327 0.047554746 0.47064018 -0.53531307 0.72712296 0.42980468 0.10503838
-0.085205488 0.059489343 0.47034654 -0.49349782 0.78739554 0.36941609 0.10281143
0.077234365 0.057704732 0.4766891 0.33945167 0.88745862 0.3117525 0.069421165
0.086594753 0.05497605 0.47593021 0.39575681 0.82981133 0.39343318 0.076163232
0.091945373 0.053329017 0.47630206 0.44956934 0.7642318 0.4624252 0.078959785
-0.077852815 0.062233359 0.47655475 -0.45139414 0.83761054 0.30765539 0.094307981
-0.068761237 0.064400002 0.47888979 -0.41979143 0.87132215 0.25411206 0.086616464
-0.036053799 0.065052502 0.47280613 -0.18424647 0.97183508 0.14693466 0.036969636
-0.022503123 0.064246804 0.47907737 -0.079809323 0.98843485 0.12894583 0.022460951
0.016237542 0.063323699 0.47589496 0.066948608 0.99319351 0.095312916 0.017133521
0.029168665 0.062816843 0.47388878 0.14928578 0.98109758 0.12313101 0.041276399
0.030297888 0.062816061 0.47342589 0.14209005 0.98193073 0.12499 0.04060965
0.053150102 0.061939891 0.47240841 0.19539313 0.96619385 0.16819943 0.047171
0.1122695 0.060389187 0.47049096 0.51183075 0.69949734 0.49873114 0.084758736
-0.1003655 -0.234016 0.48159969 -0.65239727 -0.51438135 0.55658752 0.098970912
-0.093251593 -0.23401599 0.48151049 -0.57015109 -0.65232038 0.4994055 0.1074926
-0.084100015 -0.23401599 0.48360622 -0.50265324 -0.74788904 0.43359163 0.12001637
-0.075828433 -0.23401599 0.48702502 -0.4068794 -0.84029913 0.35825482 0.12131941
-0.06346336 -0.234016 0.4870705 -0.32831764 -0.88139755 0.33962619 0.10450779
-0.02472344 -0.234016 0.48248649 -0.098992661 -0.98690546 0.12735009 0.045316797
-0.01757801 -0.234016 0.48254061 -0.07684797 -0.99209803 0.099175833 0.034652513
-0.0079911351 -0.234016 0.48245221 -0.027325872 -0.99677891 0.075400144 0.02127352
0.00065809488 -0.234016 0.4809739 -0.014620887 -0.99700195 0.075982906 0.018339442
0.015851706 -0.234016 0.48581585 0.10376716 -0.98419285 0.14351624 0.051240355
0.025949776 -0.234016 0.48376581 0.091659032 -0.98540664 0.14343065 0.050539877
0.036955919 -0.234016 0.48404601 0.14729294 -0.97248292 0.18050429 0.074299313
0.043459579 -0.234016 0.48682535 0.15714969 -0.96681964 0.20140441 0.076307103
0.061515749 -0.23401599 0.48631319 0.2632238 -0.92770499 0.26471999 0.093650103
0.074236847 -0.23401599 0.48613912 0.37313578 -0.85384595 0.36292812 0.11243109
0.083992675 -0.23401599 0.48432121 0.4242937 -0.78782129 0.44644421 0.10972384
0.094669804 -0.23401599 0.48251542 0.42538503 -0.75646287 0.49680132 0.11559283
0.10358711 -0.234016 0.48053992 0.51532954 -0.6221087 0.58942026 0.12163852
-0.1003655 -0.1982024 0.48159969 -0.77418274 -0.18753508 0.60454261 0.050455756
0.084748499 -0.17655395 0.48797655 0.66180694 -0.13226293 0.73791462 0.04271229
0.095622569 -0.17581318 0.48189431 0.65120095 -0.11227932 0.75055367 0.040359553
0.10311035 -0.17517579 0.48078108 0.64678663 -0.11292495 0.75426453 0.040629085
-0.092268556 -0.15192537 0.48100713 -0.78607965 0.052757654 0.61586964 0.0023627675
0.098673023 -0.13178548 0.48100367 0.65017205 0.022295728 0.75945979 0.0044003003
0.083313629 -0.12245277 0.48301369 0.6437338 0.026760597 0.76478153 0.004566201
0.083952948 -0.10210006 0.4859941 0.62803441 0.041393232 0.77708393 0.0042843041
-0.083959408 -0.09483929 0.48427591 -0.80086046 0.053295691 0.59647477 0.0012046436
0.083359882 -0.08598914 0.48924321 0.62856913 0.04048264 0.77669954 0.0047616861
-0.08336331 -0.061900876 0.48258221 -0.79580158 0.026119879 0.604994 0.001035201
0.089426726 -0.058299411 0.4825224 0.6294449 0.022269821 0.77672601 0.0047835344
0.090493836 -0.057996869 0.48376212 0.6294449 0.022269821 0.77672601 0.0047835344
-0.081480935 -0.042149596 0.48366317 -0.79071778 0.020867091 0.61182517 0.0010268893
-0.079891853 -0.045284193 0.48758993 -0.78968149 0.021622971 0.61313587 0.0010692076
0.08370702 -0.046679437 0.48289645 0.63104898 0.02733513 0.77526128 0.0046610567
0.071672931 -0.035950035 0.4889558 0.64142156 0.028671822 0.76665264 0.0048721693
0.083602004 -0.036010388 0.48251128 0.63189936 0.032782268 0.77435684 0.0044583175
0.079265535 -0.028929781 0.48553053 0.63104033 0.022122107 0.77543455 0.0055265147
0.080523729 -0.024876732 0.48520577 0.62813479 0.032820355 0.77741206 0.0050625233
-0.08000195 -0.012238727 0.48720589 -0.77922189 0.058946136 0.62397009 0.0031183476
-0.086306959 -0.0016238915 0.48030382 -0.76851904 0.11469751 0.62946254 0.014291999
0.082036346 0.0044525983 0.482517 0.61948997 0.19394648 0.76066881 0.035700303
-0.082772367 0.011725313 0.48418412 -0.7691493 0.18076271 0.61297166 0.035206109
-0.075513065 0.036821142 0.4878009 -0.67008358 0.57549691 0.46881908 0.10082661
-0.081601895 0.04573407 0.48027787 -0.59130436 0.67709172 0.43807083 0.10741022
0.088293321 0.049497161 0.48684406 0.51673561 0.63626498 0.57284492 0.079570748
0.059493065 0.059832465 0.48550335 0.26742345 0.92978001 0.25297022 0.055515651
0.069546789 0.058276739 0.48156181 0.35416201 0.88481426 0.3027755 0.074203074
0.077827357 0.055008925 0.48485693 0.40850532 0.82388628 0.39285469 0.075882658
0.085218675 0.05276347 0.48331431 0.42713413 0.79852903 0.42415556 0.073079675
-0.072143823 0.061447922 0.48448542 -0.46631852 0.83211899 0.30020848 0.091117106
-0.063929796 0.064614795 0.48735309 -0.38660046 0.87888604 0.2794627 0.078377314
-0.024134263 0.06420289 0.4808144 -0.1101289 0.98348182 0.14364906 0.027123883
-0.017821183 0.063262992 0.48326075 -0.074330151 0.98820692 0.13387367 0.02404833
-0.0075271819 0.06406033 0.48056221 -0.049651612 0.99064761 0.12709078 0.021959318
0.0006505627 0.063957438 0.48094106 0.0012388692 0.98996842 0.14128374 0.029377624
0.016034329 0.063095018 0.48573974 0.074268177 0.98787934 0.13630341 0.025156241
0.0259993 0.062624417 0.48379129 0.16112249 0.97296995 0.16543595 0.046426184
0.036986809 0.062180072 0.4843221 0.176604 0.96622175 0.1876874 0.055782612
0.043567508 0.061495531 0.48669541 0.21153797 0.95210314 0.22079676 0.060661417
-0.082718037 -0.23401599 0.49499682 -0.55937898 -0.67685676 0.47849774 0.10972978
-0.076788619 -0.23401599 0.49333292 -0.49825829 -0.74043536 0.45110336 0.11577177
-0.065228909 -0.234016 0.49464411 -0.34806007 -0.86520123 0.36094469 0.11028755
-0.057938129 -0.234016 0.49459839 -0.25745967 -0.91054684 0.32344851 0.10549461
-0.04386029 -0.234016 0.49945951 -0.21607801 -0.94669271 0.23892108 0.082818747
-0.01003118 -0.234016 0.49998701 -0.065735869 -0.97643685 0.20554769 0.068693332
0.015055726 -0.234016 0.49544153 0.12960297 -0.97600096 0.17500061 0.064165302
0.033748269 -0.234016 0.495289 0.18298824 -0.95281142 0.24221002 0.088692285
0.058520913 -0.23401599 0.49506164 0.34560367 -0.86962116 0.35258651 0.10146196
0.063814759 -0.23401599 0.49588796 0.35203037 -0.85985416 0.369764 0.099347129
0.073296681 -0.23401599 0.49390921 0.41257659 -0.81418037 0.40852293 0.10724448
0.084006526 -0.23401599 0.49465811 0.47107264 -0.70445073 0.53088576 0.10783012
0.09178482 -0.234016 0.49185541 0.48825881 -0.65496325 0.57673788 0.10990869
0.1002716 -0.234016 0.49262211 0.57541567 -0.47561279 0.66534907 0.1057183
-0.076579973 -0.2027723 0.49395102 -0.7481941 -0.31477326 0.58405769 0.090427458
0.078083158 -0.20322703 0.49208349 0.5863871 -0.38412255 0.71316206 0.11790391
0.083909668 -0.20152272 0.49982423 0.59959948 -0.26560831 0.75493896 0.07255733
-0.085759327 -0.19742958 0.49049067 -0.75544727 -0.25300115 0.60439217 0.075075299
-0.08186052 -0.18627954 0.49780387 -0.76979876 -0.1694615 0.61538011 0.049517002
0.070023455 -0.18333595 0.49818739 0.6099385 -0.25077266 0.75172353 0.068421699
0.082364313 -0.17603928 0.49179479 0.66147798 -0.1113814 0.7416476 0.033916466
0.10014988 -0.17746288 0.49258968 0.6491785 -0.082587913 0.75613922 0.030817909
-0.083023727 -0.1634896 0.49939299 -0.79077363 -0.034140803 0.61115593 0.011147127
0.07959646 -0.16228202 0.49757829 0.64259309 -0.022266762 0.76588404 0.010757255
0.072382443 -0.15287641 0.4933297 0.63082546 0.017271455 0.77573258 0.0057928511
-0.080399267 -0.12700003 0.494802 -0.79375952 0.041021336 0.60684693 0.002164789
-0.079800919 -0.12421608 0.49385822 -0.79347825 0.04258487 0.60710692 0.0019832877
0.07630495 -0.095687486 0.49596772 0.63295197 0.048679583 0.77265918 0.0050361957
0.081426874 -0.098224498 0.49273634 0.63875932 0.040102776 0.76836079 0.0046322327
-0.078638598 -0.078077368 0.49218768 -0.79330474 0.034955095 0.60782051 0.0011140618
0.079901308 -0.071407557 0.49234861 0.6278801 0.036728349 0.77744305 0.0049688029
0.080568932 -0.072594248 0.49250805 0.62765187 0.036469296 0.77763951 0.0050670085
0.062864937 -0.050673265 0.49770227 0.6431821 0.01450884 0.76557583 0.0048532304
0.059732031 -0.045069844 0.49765864 0.64363235 0.0078181149 0.76529497 0.0043636276
0.061935 -0.032550581 0.49372846 0.64515781 0.013821064 0.76392436 0.0043350593
-0.070248112 -0.011933878 0.4988552 -0.77654731 0.058244735 0.62736106 0.0032386272
0.069364488 -0.0017992178 0.4952454 0.63694787 0.13420172 0.7591359 0.022208659
0.070144668 -0.0014149559 0.49438491 0.63193208 0.13212338 0.76367885 0.022121759
-0.076657124 0.0062346947 0.49434066 -0.77064735 0.13884728 0.62195188 0.02061376
0.072175913 0.0009618724 0.49524552 0.62937385 0.13730504 0.76487637 0.022475857
0.087554343 0.01166427 0.49070439 0.62902546 0.19903824 0.75147247 0.035137024
-0.01003118 0.057736401 0.49998701 -0.058477879 0.94282085 0.32812986 0.07419803
0.049776662 0.058879722 0.49930853 0.32331276 0.87680984 0.35591203 0.071320139
0.059008498 0.057689227 0.49592543 0.35647643 0.85664207 0.37294638 0.062616959
0.070574611 0.054617099 0.4938823 0.44886467 0.76655811 0.45924854 0.068295807
-0.064427011 0.064795978 0.49388823 -0.38945439 0.87491161 0.28784516 0.077127568
-0.057564296 0.063568875 0.49424213 -0.33653334 0.90772527 0.25055951 0.068289772
-0.044204637 0.061253354 0.49993035 -0.27859336 0.92523223 0.2575483 0.064590521
0.015195389 0.06291642 0.49563396 0.057906628 0.97649115 0.20763361 0.038953621
0.03369832 0.062520571 0.49537688 0.21979696 0.95359349 0.20578821 0.06267006
-0.084381253 -0.23401599 0.50205708 -0.63226199 -0.55452728 0.54105842 0.097551942
-0.074583344 -0.23401599 0.50572914 -0.53529841 -0.67871624 0.50279218 0.10175578
-0.065130405 -0.23368433 0.50437123 -0.35841718 -0.85554874 0.37359539 0.11923999
-0.054730181 -0.23369364 0.50524646 -0.34677887 -0.87990785 0.32481793 0.10822855
-0.048655342 -0.23381411 0.50730592 -0.29557765 -0.91371566 0.27885041 0.10115646
0.0049602389 -0.234016 0.50456619 0.044121809 -0.96979433 0.23990068 0.080329418
0.013970435 -0.234016 0.50475919 0.12080402 -0.96066332 0.25006473 0.082999922
0.023045177 -0.23389053 0.50673193 0.16481021 -0.95819533 0.23387903 0.081982717
0.048334975 -0.23401599 0.50391346 0.28753054 -0.88475382 0.36679274 0.10162131
0.053469174 -0.23401599 0.50693822 0.39009207 -0.80645841 0.44435695 0.10695515
0.065813631 -0.23401599 0.50402266 0.43052068 -0.75617945 0.4927927 0.10601782
0.074086741 -0.23401599 0.50209343 0.42564905 -0.77029353 0.47483766 0.10314091
-0.074769393 -0.18488736 0.50654703 -0.78338784 -0.15334785 0.60231888 0.044433754
0.06712053 -0.1855645 0.50233054 0.60400885 -0.23456715 0.76167691 0.064104669
0.070947371 -0.18763621 0.50007355 0.61674249 -0.24597777 0.74774569 0.067476295
-0.082570307 -0.17170611 0.50016654 -0.79613543 -0.080095932 0.59979421 0.022490058
-0.082321577 -0.15956511 0.50068122 -0.78741759 -0.0085938135 0.61636013 0.0067102057
0.062294353 -0.14443946 0.50472063 0.64262319 0.031208986 0.76554656 0.0044739596
-0.075249746 -0.13438563 0.50615871 -0.78365028 0.040578224 0.61987555 0.0026408809
-0.069507703 -0.13034919 0.50885266 -0.76842088 0.035890013 0.63893771 0.0032660197
-0.065239124 -0.092092127 0.5081172 -0.76102632 0.034271423 0.64781517 0.0040821377
0.052482758 -0.097168677 0.50972319 0.63842297 0.045157395 0.7683599 0.004532516
0.065063268 -0.094576359 0.50781727 0.63703722 0.044291344 0.7695595 0.0047533098
-0.06839963 -0.088717766 0.50353086 -0.77681828 0.040023595 0.62845176 0.0023419047
0.064751826 -0.089247338 0.50546896 0.63421875 0.043663617 0.77191979 0.0044891024
-0.078833491 -0.073623508 0.50095987 -0.78848064 0.032452304 0.61420292 0.0014197878
0.066393577 -0.074269168 0.50294566 0.64046359 0.03443031 0.76721644 0.0043513677
0.06686534 -0.068368673 0.50094748 0.63874936 0.02836833 0.76889175 0.0041836109
-0.063412458 -0.027395604 0.50710386 -0.75799686 0.025032932 0.65177768 0.0046062181
-0.067214318 -0.01563723 0.50263244 -0.76912552 0.034926508 0.6381427 0.0028180589
0.072904415 -0.0021981045 0.50157928 0.64996374 0.10350443 0.75288385 0.013565316
0.074118793 0.005111265 0.50365788 0.64266461 0.14225036 0.75282609 0.024560822
-0.066038638 0.025972748 0.50597453 -0.74067593 0.28651351 0.6077081 0.055327516
-0.062908582 0.037402496 0.50477993 -0.68864107 0.44874719 0.56956077 0.081411429
0.048266646 0.0575836 0.50706297 0.39539105 0.80322248 0.44553298 0.078065313
0.053636119 0.052613147 0.50907743 0.45841941 0.7157281 0.52686334 0.083831474
-0.062867664 0.065220378 0.50537318 -0.3884809 0.88681883 0.25026983 0.065747373
-0.055048011 0.063649401 0.50522655 -0.34656018 0.89886111 0.26822519 0.067208096
-0.049317405 0.062261574 0.50719357 -0.31274596 0.90482563 0.28892997 0.069383018
0.0048886612 0.060966507 0.50458264 0.00060881051 0.95030993 0.31130487 0.065894514
0.014303418 0.062768728 0.50446069 0.047087882 0.95735711 0.28504401 0.059500884
0.023301661 0.063409574 0.50680554 0.12046858 0.94729596 0.29684618 0.061674375
-0.072960526 -0.23330487 0.51191539 -0.55588043 -0.64303094 0.5267905 0.11469466
-0.06340456 -0.23324436 0.51681483 -0.57361239 -0.66690767 0.47560808 0.11082361
-0.05599881 -0.23130326 0.51646096 -0.44384128 -0.78715044 0.42825121 0.11170106
-0.046558764 -0.2336833 0.51185071 -0.27903226 -0.91014969 0.30621657 0.0991069
-0.02975622 -0.234016 0.51705539 -0.1824239 -0.91402864 0.36231637 0.099204138
0.015738087 -0.23350213 0.51670468 0.16263323 -0.91797191 0.36177075 0.099304326
0.029057553 -0.23368624 0.51160324 0.20172314 -0.93742317 0.28380552 0.091547832
0.033672538 -0.2328157 0.51775563 0.25882772 -0.90411091 0.33998787 0.09818358
0.047837861 -0.23379955 0.5147565 0.37261739 -0.81751573 0.4391177 0.11581875
0.052847244 -0.23381226 0.51369309 0.41606686 -0.75361961 0.50886738 0.11612296
-0.060866993 -0.21081808 0.51980019 -0.68737042 -0.3906416 0.61230808 0.10260948
-0.064592168 -0.20628664 0.51670915 -0.73134613 -0.33602384 0.59348202 0.090535492
-0.065703928 -0.17522365 0.51899713 -0.7485587 -0.0594863 0.66039479 0.018148754
0.048649453 -0.15412687 0.5182789 0.61216533 0.014933576 0.7905888 0.0049123564
-0.06047976 -0.14112736 0.51990837 -0.71209693 0.016846614 0.70187908 0.014542706
0.052229665 -0.1453194 0.51596045 0.6275835 0.027406497 0.77806675 0.0044903858
0.056548629 -0.13313217 0.51521695 0.63557643 0.03208705 0.77137095 0.0045642098
-0.059547033 -0.12167389 0.51903969 -0.72414452 0.034255497 0.68879706 0.012382421
-0.059220679 -0.11086611 0.51833665 -0.72648096 0.039825995 0.68603158 0.011039857
-0.060549878 -0.10808615 0.51732159 -0.73525983 0.044741753 0.67630702 0.0079963896
0.05848249 -0.086618923 0.51095855 0.64034563 0.042244501 0.76692432 0.0044390825
-0.058033708 -0.079800725 0.51920569 -0.69661385 0.03616583 0.7165342 0.025265818
0.04826751 -0.070437789 0.51365381 0.63591808 0.028808381 0.77121872 0.0046770805
-0.063586645 -0.065605305 0.5137831 -0.73930836 0.033851493 0.67251569 0.0079578469
0.051793691 -0.066668987 0.51509428 0.64237106 0.025300628 0.76597613 0.0044656694
0.04741751 -0.045683309 0.51485586 0.63532972 0.014019252 0.7721138 0.0044503496
-0.056067888 -0.034902882 0.51879543 -0.69221324 0.028334783 0.72113669 0.017387778
0.048473712 -0.031055763 0.51163077 0.63734019 0.014441296 0.77044731 0.0045670867
-0.059023052 -0.018383324 0.51500416 -0.73085088 0.030420752 0.6818589 0.010284695
-0.055549212 0.028569572 0.51981735 -0.66964495 0.32385823 0.66834986 0.064645179
-0.054462474 0.033952262 0.51791632 -0.63634384 0.40009934 0.65953547 0.075660259
0.032706846 0.059278216 0.51611656 0.39305961 0.73694819 0.54991955 0.087252557
0.046189167 0.057275768 0.51195139 0.42688549 0.74395949 0.51409447 0.088895738
-0.055346556 0.06162861 0.51976472 -0.42652687 0.76117718 0.48855317 0.084220782
-0.046964161 0.06251356 0.5118143 -0.27792609 0.8953346 0.34804183 0.074834689
-0.032439996 0.065544449 0.5195682 -0.20271376 0.9126491 0.3549349 0.081457891
0.015772752 0.062211074 0.51667935 0.089484565 0.90558487 0.41461858 0.088916048
0.028894436 0.062598422 0.51177227 0.25334987 0.87794405 0.40623665 0.080838561
-0.051597659 -0.23039041 0.52216953 -0.38728249 -0.82306391 0.4154253 0.10316649
-0.044893451 -0.23349905 0.52607751 -0.33991918 -0.8202135 0.46011397 0.10965961
-0.035906088 -0.23387241 0.5278129 -0.26000035 -0.83030409 0.49294528 0.11464955
0.016278166 -0.23392242 0.52520692 0.2077916 -0.86162513 0.46306023 0.10851818
0.026373699 -0.23092151 0.52864742 0.30077299 -0.76905227 0.56399846 0.11092903
0.035777114 -0.2312789 0.5230906 0.39582536 -0.7870394 0.47317147 0.099257343
0.049425509 -0.23354459 0.5211091 0.41195238 -0.77137065 0.48505947 0.11829802
0.055361822 -0.23384906 0.52094388 0.45929512 -0.73581189 0.49762326 0.11309419
0.06037724 -0.234016 0.5239526 0.49969104 -0.63829267 0.5855692 0.10810185
-0.060124073 -0.22806445 0.52074027 -0.53353524 -0.68781495 0.49218974 0.11062999
-0.054346006 -0.21446715 0.52607781 -0.57878262 -0.47321665 0.66413611 0.10785004
0.036748037 -0.21738619 0.52612966 0.51453793 -0.53318745 0.67153698 0.11733417
-0.04790768 -0.18472677 0.52044851 -0.6467973 -0.19521512 0.73725462 0.075949647
-0.060821824 -0.17434892 0.5246703 -0.7075367 -0.047842827 0.70505524 0.019962408
-0.05341563 -0.17937647 0.52450293 -0.67651379 -0.12360881 0.72598213 0.048968788
-0.054212421 -0.13746195 0.52704942 -0.64296085 -0.0034286296 0.76589143 0.054403964
0.0591354 -0.12640993 0.52166218 0.63554221 0.034077998 0.77131367 0.0049735014
-0.059190895 -0.11028963 0.52070588 -0.7153511 0.041791905 0.69751436 0.013772727
0.039704435 -0.10233279 0.52226889 0.57146972 0.061000448 0.81835282 0.011210167
0.030810161 -0.092930213 0.52951902 0.49302483 0.047872193 0.86869723 0.027755735
0.058468714 -0.095009871 0.52322316 0.63590717 0.046904255 0.77033895 0.0047021476
-0.053628162 -0.08284238 0.52666545 -0.66720837 0.048202194 0.74330992 0.035252601
0.027778761 -0.089144655 0.52997404 0.48566681 0.045583669 0.87295467 0.028203169
-0.054233685 -0.061619326 0.52497309 -0.67222166 0.030653957 0.7397151 0.02893666
-0.054519385 -0.058196396 0.52468538 -0.68114436 0.031415835 0.73147476 0.025751051
0.049467597 -0.043478128 0.5215984 0.62772143 0.016579153 0.77826148 0.0048794365
-0.054353379 -0.032623824 0.52119088 -0.68220878 0.03795746 0.7301715 0.019596638
0.050500706 -0.033989828 0.52083677 0.62756979 0.017451489 0.77836472 0.0045247474
0.031781293 -0.01155604 0.52605593 0.52739489 0.010954486 0.84954971 0.025821049
-0.051458836 0.028873537 0.52549529 -0.62980729 0.31679478 0.7092135 0.075107336
-0.050365135 0.034981038 0.52237546 -0.60426748 0.40477735 0.68630618 0.089442685
-0.048118975 0.036775742 0.5258081 -0.57081592 0.4162263 0.70776051 0.092716239
0.03326045 0.048916858 0.52991426 0.43296391 0.61823535 0.6559934 0.092036836
-0.044995178 0.058048245 0.52612233 -0.40340441 0.75550497 0.51621425 0.095459975
0.033657704 0.057978317 0.52007771 0.41738975 0.69667077 0.58346862 0.091699339
-0.036519248 0.061465535 0.5269044 -0.25367919 0.83772898 0.48358759 0.095061421
0.0048796521 0.065686762 0.52874923 0.038600318 0.88286859 0.46803114 0.10087314
0.018669486 0.061335191 0.52140015 0.17642374 0.83658868 0.51864636 0.10057703
-0.055643227 -0.23352371 0.53409654 -0.51860994 -0.67309076 0.52725011 0.10067305
-0.043093581 -0.23357664 0.53570402 -0.37466735 -0.72476745 0.57821846 0.11490969
-0.036608588 -0.23401599 0.53638291 -0.31534088 -0.74994266 0.58150333 0.12624566
-0.024457797 -0.23401599 0.53701341 -0.23147829 -0.78398389 0.57600963 0.1354178
-0.0045686662 -0.234016 0.53076929 0.0064936555 -0.83917409 0.5438242 0.13161507
0.0064334143 -0.2338585 0.53597641 0.065773129 -0.82610464 0.55966514 0.12834387
0.01616279 -0.23345228 0.53786701 0.20092496 -0.7971158 0.56941694 0.12272296
0.023982666 -0.23109099 0.5338853 0.29445758 -0.76843584 0.56815594 0.10996598
0.026001902 -0.22858284 0.53745121 0.33858669 -0.69168526 0.63791108 0.11712731
0.034638744 -0.22051878 0.53011501 0.47526237 -0.55370975 0.68376261 0.11037298
0.035603028 -0.21730569 0.5313068 0.50258917 -0.50589031 0.70105577 0.11072858
-0.046455827 -0.20868312 0.53636253 -0.51667535 -0.36088315 0.77640843 0.10401811
-0.051458083 -0.17477979 0.53084016 -0.61309248 -0.082135461 0.78572983 0.042758245
-0.046956107 -0.17638691 0.53673357 -0.57382137 -0.063506521 0.81651461 0.052313481
0.027582616 -0.17195983 0.53347516 0.48470631 -0.089738198 0.8700614 0.05300276
-0.047668114 -0.16137101 0.53294307 -0.56244004 -0.036826849 0.82601762 0.049438585
0.018556025 -0.16423035 0.53962308 0.38842902 -0.052063659 0.92000669 0.049409352
-0.050635684 -0.13553722 0.53130984 -0.63403434 0.013497615 0.7731871 0.039414193
0.013285145 -0.13241519 0.53984809 0.30649078 0.019698715 0.95166981 0.068928018
0.022963146 -0.13563316 0.53650868 0.41225129 -0.11741082 0.90347302 0.069240488
0.031075727 -0.13608405 0.53673512 0.51537263 0.032143492 0.85636318 0.024648914
-0.052625183 -0.097214721 0.53045809 -0.62585163 0.051246691 0.77825677 0.045775089
0.028991641 -0.094014302 0.53563851 0.47401133 0.063485809 0.87822711 0.027126741
0.018185021 -0.087406904 0.5394423 0.40206566 0.068191737 0.91306794 0.043736063
0.02460151 -0.087070011 0.53221214 0.4586463 0.053955 0.8869794 0.033591043
-0.042719517 -0.074379653 0.53565621 -0.59655869 0.02602898 0.80214727 0.054658327
-0.03978584 -0.039399751 0.53762811 -0.53729635 0.048148531 0.84201807 0.044256743
-0.04173518 -0.027198736 0.53649676 -0.5694114 0.057931282 0.82000893 0.046317704
-0.039823029 -0.029219745 0.53870505 -0.54615366 0.069672756 0.8347826 0.048155736
0.027999267 -0.01561226 0.53549677 0.50967771 -0.0086825006 0.86032164 0.022699654
-0.032925878 -0.004231004 0.5337429 -0.51486027 0.081097543 0.85342962 0.054915302
0.02087797 0.0076138605 0.53293395 0.46905085 0.14517504 0.87115759 0.073845558
0.025286654 0.011643425 0.53553206 0.51432282 0.1733952 0.83988458 0.071490631
-0.047533408 0.02693928 0.53199327 -0.58438891 0.28353688 0.76032645 0.076338053
-0.042533126 0.035500199 0.5348981 -0.50395817 0.37793896 0.77665198 0.10120811
-0.039566465 0.036009625 0.53892851 -0.47255003 0.3861163 0.7922188 0.10498843
0.030918181 0.035741594 0.53130782 0.48102781 0.43779323 0.75957185 0.094820857
0.033887155 0.049019877 0.53029251 0.44170558 0.61098701 0.65695596 0.091671929
-0.036677741 0.0538067 0.53378356 -0.35738084 0.65218192 0.66853398 0.11314157
0.0132135 0.05783378 0.53567779 0.18651444 0.70741093 0.68174928 0.12526338
0.02417795 0.053821966 0.53281945 0.30635494 0.68997544 0.65580529 0.11139297
-0.025277399 0.062656865 0.53543663 -0.13063711 0.79072267 0.59807318 0.11840521
-0.019401157 0.062837884 0.53739202 -0.071876198 0.79389745 0.60378861 0.12155424
-0.0043545859 0.064161912 0.53790385 0.0032512387 0.80577666 0.59221059 0.11809136
0.0038207965 0.062023424 0.53894377 0.087026164 0.76235402 0.64128214 0.12101986
-0.044319157 -0.23401599 0.54263502 -0.4448916 -0.60230911 0.66279352 0.12233373
-0.035044998 -0.23401599 0.54620624 -0.31994253 -0.63106865 0.7066747 0.13320376
-0.02690321 -0.23401599 0.5489127 -0.26894134 -0.62902272 0.72938395 0.14019035
-0.0055427551 -0.23401599 0.54039413 0.0092577115 -0.7997328 0.60028476 0.13964845
0.0043446752 -0.23401599 0.54630405 0.087896176 -0.73950654 0.66738617 0.14176308
0.014685403 -0.23357946 0.54410535 0.17927113 -0.7567628 0.62862706 0.12628999
0.024355499 -0.23311961 0.5441317 0.37979415 -0.61259437 0.69316995 0.11764474
-0.043381859 -0.21137053 0.54041845 -0.47934937 -0.37181193 0.79497176 0.11029445
0.035955776 -0.21526128 0.54031515 0.56218201 -0.32838005 0.75902438 0.08925654
0.015716016 -0.20092662 0.5407362 0.37741628 -0.32322308 0.86780399 0.11247521
0.039783355 -0.2078193 0.54198116 0.60212964 -0.21086206 0.77005005 0.061774004
-0.042861506 -0.19392267 0.54301262 -0.51795685 -0.21634869 0.82759529 0.085666761
-0.039255816 -0.19599187 0.5490818 -0.460076 -0.23643327 0.85582089 0.088491887
0.022904789 -0.19259571 0.54717499 0.46690589 -0.16271311 0.8692084 0.077289753
0.0097649442 -0.18607989 0.54954338 0.33369431 -0.12581898 0.9342472 0.086887456
0.031241165 -0.17228423 0.54098761 0.52125418 -0.052992251 0.85175461 0.040635098
-0.033402175 -0.16940726 0.54945529 -0.46430022 -0.028530465 0.88521832 0.057153977
-0.03708715 -0.15444575 0.54481316 -0.43711504 -0.063006967 0.89719599 0.062099807
-0.041156564 -0.14993601 0.5405646 -0.4803364 -0.081561558 0.87328386 0.061079398
-0.039695747 -0.1376272 0.54334903 -0.44366154 -0.021615423 0.89593375 0.062573373
0.016441183 -0.13020943 0.54322213 0.36712906 0.023706444 0.92986786 0.0528678
0.031253915 -0.13287945 0.54111636 0.50472319 0.029365741 0.86278164 0.025170766
-0.034701936 -0.12346396 0.54837936 -0.35770822 0.04148813 0.9329114 0.070208535
0.036297612 -0.12986268 0.54553223 0.53218341 0.030072117 0.84609485 0.019478654
-0.039209239 -0.11136804 0.5450936 -0.40994957 0.019792233 0.91189343 0.069403261
-0.043881267 -0.10486123 0.54197896 -0.47829846 0.027254011 0.87777436 0.066046588
-0.037845366 -0.10426151 0.54609275 -0.40315664 0.028184103 0.91469693 0.066572987
-0.042139292 -0.096854135 0.54337811 -0.45993492 0.028865632 0.88748336 0.074302785
0.017219679 -0.092072129 0.54513866 0.4086552 0.077984124 0.90935111 0.038358498
0.030306498 -0.092634946 0.54327142 0.46774021 0.058584128 0.88192236 0.027068479
-0.032631762 -0.082862407 0.54841304 -0.37427902 0.010072368 0.92726141 0.061181583
0.013307471 -0.088955626 0.54140437 0.35516077 0.075249985 0.93177152 0.062779859
0.021232327 -0.089954272 0.54408193 0.4258866 0.063912451 0.90251637 0.03567031
-0.036460485 -0.061565973 0.54154748 -0.48302358 0.051221594 0.8741079 0.063246392
0.0063358694 -0.057692096 0.54896462 0.27684277 -0.0010636908 0.96091467 0.060658805
0.013461682 -0.05365698 0.54813707 0.3407591 0.0067708706 0.9401263 0.059875425
-0.031704672 -0.047056224 0.54726785 -0.40786761 0.042945348 0.91203052 0.060298633
0.015953038 -0.044018824 0.54265583 0.39266193 0.021451056 0.91943264 0.061301533
-0.037373204 -0.039884053 0.54122025 -0.53615367 0.047299486 0.84279418 0.044793338
-0.030316245 -0.010509951 0.54093838 -0.42600963 0.058393646 0.90283227 0.048534617
0.0048931423 -0.017404867 0.5445829 0.12042946 0.0045299903 0.9927116 0.058010537
0.025070637 -0.01619455 0.54320323 0.48511741 -0.014812437 0.87432355 0.025294531
-0.028662145 -0.0057222424 0.54689795 -0.4078688 0.071957543 0.91020066 0.052003078
0.014632844 -0.0051846332 0.54402322 0.37437698 0.03817448 0.92649049 0.05797565
0.027438544 0.011849523 0.54258347 0.52219236 0.15425703 0.83876097 0.062941656
-0.032859724 0.025677105 0.545784 -0.39334252 0.29811934 0.86971635 0.10761696
-0.037932154 0.036703847 0.54127109 -0.46102226 0.38795808 0.79808956 0.10928415
-0.031235972 0.048220109 0.54547435 -0.30295351 0.52261025 0.79693019 0.12566113
-0.029736888 0.049262002 0.54746962 -0.26169652 0.53482711 0.80341452 0.12694806
0.0075953947 0.04319093 0.54777968 0.17866378 0.55008405 0.81577379 0.12693724
0.015709208 0.042588167 0.5422675 0.2429858 0.57916307 0.77815682 0.123688
0.0048997086 0.057615895 0.54665571 0.15439767 0.61608297 0.77240098 0.12598254
0.01188913 0.056145336 0.54038781 0.19480653 0.6510976 0.73356825 0.12755489
0.0018630538 0.060026478 0.5478757 0.091239728 0.66935474 0.73731917 0.12516226
-0.040727876 -0.23401599 0.55166721 -0.4103308 -0.54180717 0.73353499 0.13299353
-0.033211194 -0.23401599 0.55285901 -0.29669952 -0.63051504 0.71723098 0.10546402
-0.025598545 -0.23401599 0.55524045 -0.22577496 -0.60465974 0.76381421 0.14717451
-0.015427021 -0.23401599 0.55680341 -0.062700525 -0.64048278 0.76540869 0.12436196
-0.0043555149 -0.23401599 0.5541575 0.00078728405 -0.63161683 0.77528036 0.15037996
0.0051751882 -0.23401599 0.55403501 0.10203514 -0.68269622 0.72354323 0.14167982
0.013429849 -0.23401599 0.55219996 0.20107214 -0.64953208 0.73326534 0.13120715
0.021705743 -0.23358011 0.55180001 0.31474075 -0.6100626 0.72716022 0.12221345
-0.037004281 -0.19842428 0.55277193 -0.4180651 -0.22801939 0.87933427 0.088610761
0.010518161 -0.18302676 0.55205989 0.32534128 -0.1139967 0.93870008 0.076861531
0.0062232511 -0.17366888 0.55494797 0.24472107 -0.06444329 0.96744955 0.071528137
0.0080427891 -0.16534562 0.55301356 0.27192807 0.00021946723 0.96231759 0.056428682
-0.025375215 -0.15360689 0.55548984 -0.33390525 -0.078684084 0.93931687 0.065332413
-0.00414652 -0.15818498 0.55945855 0.096265554 -0.00071423565 0.99535543 0.061766513
0.0082127312 -0.15775514 0.5512442 0.25024122 -0.018950099 0.96799809 0.052227143
-0.024884939 -0.14438398 0.55611759 -0.23057655 -0.027362848 0.97266936 0.068755127
-0.030065807 -0.12403359 0.55186611 -0.27311808 0.039727207 0.96115988 0.076976366
-0.025098288 -0.11252023 0.55477488 -0.23157218 0.03680608 0.97212124 0.074143499
-0.019685838 -0.11085925 0.55860412 -0.21688028 0.042757042 0.97526139 0.073743418
-0.019163489 -0.10826769 0.55934268 -0.19175035 0.050266687 0.98015565 0.073655598
-0.029073659 -0.091144793 0.55350381 -0.29466456 0.010867188 0.95553899 0.078728355
-0.019332534 -0.092585616 0.55930382 -0.19544509 0.030718135 0.98023349 0.071185306
0.0023793613 -0.098875538 0.55163366 0.26213446 0.094204128 0.96042234 0.07242965
-0.028640289 -0.081901133 0.55282891 -0.33596557 0.0012012094 0.94187349 0.068558514
-0.019973394 -0.089466162 0.55977052 -0.21266453 0.016814332 0.97698063 0.074652873
-0.0036639031 -0.084171459 0.55893463 0.11692289 0.031772643 0.99263263 0.07017383
-0.022953076 -0.075083189 0.55499858 -0.3022857 0.026357142 0.9528529 0.060986396
-0.014891984 -0.075182632 0.55754495 -0.13637283 0.021621425 0.99042159 0.066235721
-0.025206903 -0.067416832 0.55264419 -0.30175978 0.034542881 0.95275807 0.063056037
-0.005233007 -0.068597421 0.55427456 0.084213123 0.034427367 0.99585283 0.068315752
0.0036778641 -0.067270704 0.55354512 0.22420745 0.048094459 0.97335392 0.06264475
-0.024683628 -0.05480716 0.55340433 -0.33419618 0.041188296 0.94160312 0.062704578
-0.023198819 -0.036368486 0.55512464 -0.26657641 0.064120479 0.9616785 0.056135967
-0.02322416 -0.017489843 0.55371463 -0.37806526 0.056326564 0.92406386 0.051640194
-0.016122846 -0.014923977 0.55815065 -0.27843678 0.049751762 0.95916516 0.053593624
-0.0078825913 -0.015835432 0.55194575 -0.11296517 0.038611881 0.99284846 0.059163392
-0.015489494 -0.0012100312 0.55596519 -0.28795514 0.078963436 0.95438284 0.058183458
-0.0037755796 -0.0048369551 0.55467814 -0.041794587 0.050889842 0.99782938 0.060427696
0.0024241889 -0.0032437989 0.55134112 0.032576688 0.063282534 0.99746388 0.065961629
-0.02599863 0.0042995857 0.551157 -0.35055408 0.11774737 0.92911112 0.066086598
0.0030071479 0.00011307615 0.55190361 0.040507205 0.088957511 0.99521142 0.071078718
-0.026543239 0.01586148 0.55180508 -0.3685284 0.14493446 0.91824877 0.080351017
-0.018656461 0.014202803 0.55561686 -0.25624108 0.14044815 0.95635504 0.081965588
-0.0037690569 0.012599961 0.55552787 -0.017724765 0.16213393 0.98660958 0.089040153
-8.3789098e-05 0.0200196 0.55584985 0.13326056 0.21214588 0.96810937 0.086546831
0.0031650045 0.020768479 0.55309862 0.1847468 0.21921203 0.95802647 0.088255577
-0.027911793 0.04910513 0.55101252 -0.21279694 0.53541738 0.81734061 0.12653784
-0.014978852 0.057836946 0.55358237 -0.092463858 0.59826386 0.79594648 0.12670788
0.019952312 0.058875985 0.55323136 0.38527861 0.4712877 0.79337782 0.10640085
-0.004076832 0.060477622 0.55094194 0.032443706 0.64589059 0.76274025 0.12738352
-0.023567861 -0.23401599 0.56435829 -0.16176569 -0.50398338 0.84842944 0.13908257
-0.014622752 -0.23401599 0.56473488 -0.11282647 -0.50501347 0.85570532 0.13898371
-0.0075601507 -0.23401599 0.56493402 0.014161834 -0.44637537 0.89473379 0.13480918
0.00078143663 -0.23401599 0.56592113 0.1568809 -0.44008172 0.88414735 0.12547676
-0.029604981 -0.19581164 0.56909561 -0.31800321 -0.16517089 0.93359125 0.084587947
-0.020163301 -0.18461272 0.56737143 -0.15567583 -0.10114568 0.98261625 0.075167075
-0.019302854 -0.18310781 0.56488508 -0.14908735 -0.10190542 0.98355901 0.073668636
-0.014334515 -0.1729126 0.56221962 -0.11713849 -0.075052932 0.9902755 0.066898517
-0.0084780883 -0.17437659 0.56186026 -0.043688331 -0.07680922 0.99608821 0.070094146
-0.0103659 -0.16329379 0.56174535 -0.059622478 -0.038201854 0.99748975 0.059286777
-0.0068398812 -0.16938457 0.56137717 -0.0051233647 -0.052260406 0.99862033 0.064928427
-0.014240989 -0.15270969 0.56236756 -0.12674168 -0.044583742 0.99093336 0.077212662
-0.0082641765 -0.15256172 0.56610072 -0.026989909 -0.056506388 0.9980374 0.070377842
-0.016445961 -0.14576167 0.56179696 -0.12357188 -0.019649528 0.99214101 0.075995907
-0.016000733 -0.13779287 0.56291318 -0.097671613 -0.00026532533 0.99521863 0.076848976
-0.015703311 -0.12220842 0.562024 -0.11342606 0.029741341 0.99310118 0.070420325
-0.01110832 -0.10709932 0.56223881 -0.089297898 0.053015921 0.99459302 0.071690455
-0.0077479081 -0.10042055 0.56225181 -0.017952051 0.071911186 0.99724948 0.081759855
-0.014923744 -0.09528672 0.56220973 -0.16165011 0.039881226 0.9860419 0.072818853
-0.0074926731 -0.095598176 0.56173903 -0.012046259 0.068336464 0.99758965 0.076938234
-0.013380163 -0.086103149 0.56219733 -0.14764123 0.0083044702 0.9890061 0.069854401
-0.0037783268 -0.082828857 0.56182075 0.073816672 0.019081313 0.99708933 0.066038713
-0.015227193 -0.044331603 0.56040961 -0.064790942 0.051310372 0.99657887 0.067552231
-0.014312539 -0.0085939756 0.56139964 -0.24352534 0.063630544 0.96780503 0.047783382
-0.016511295 0.026878521 0.56077635 -0.1198497 0.26088569 0.95790118 0.099393383
-0.021154761 0.041079029 0.56885129 -0.16227438 0.32750019 0.93081182 0.10318016
-0.017693689 0.046006382 0.56569099 -0.082157753 0.38451543 0.91945523 0.11218974
-0.01781269 0.054607585 0.56295985 -0.10932577 0.44356188 0.88955086 0.11667132
-0.0088940104 0.063759707 0.56110805 0.00049704919 0.54236269 0.84014434 0.12463847
-0.01510159 -0.23401599 0.57174206 -0.10263752 -0.47235656 0.87541121 0.14331184
-0.0063235015 -0.23401599 0.57216859 0.033058327 -0.48649898 0.87305552 0.1365542
0.00076299912 -0.234016 0.57859761 0.19800475 -0.39802226 0.89575249 0.1226179
-0.010842298 -0.13619517 0.57006186 -0.04223932 0.0081264963 0.99907452 0.072206073
