# .PCD v0.7 - Point Cloud Data file format
VERSION 0.7
FIELDS x y z
SIZE 4 4 4
TYPE F F F
COUNT 1 1 1
WIDTH 1408
HEIGHT 1
VIEWPOINT 0 0 0 1 0 0 0
POINTS 1408
DATA ascii
-0.098380268 -0.2722829 0.51729262
-0.093837649 -0.26870459 0.59337258
-0.093045123 -0.2496406 0.43531579
-0.099829488 -0.2280913 0.58805102
-0.096638232 -0.1621801 0.50667262
-0.099091619 -0.25431049 0.5411588
-0.1016148 -0.14872789 0.6488297
-0.097271353 -0.1926803 0.52257842
-0.099589877 -0.26924199 0.63623881
0.017685469 -0.14054421 0.52143979
0.043559309 -0.1345823 0.59651011
-0.09300676 -0.2292051 0.62667131
-0.095864393 -0.1495962 0.57128447
-0.1071401 -0.3739084 0.61577988
-0.1015188 -0.3275021 0.488823
-0.1062411 -0.37979099 0.53490901
-0.1028423 -0.3179853 0.62966669
-0.094321012 -0.1695452 0.52514088
-0.1012973 -0.284861 0.53410292
-0.1050427 -0.27478081 0.59446788
-0.1040041 -0.33205351 0.46544871
-0.084334143 -0.1388606 0.47191629
-0.1018106 -0.2237635 0.63731092
-0.1028021 -0.40663871 0.50331479
-0.098419547 -0.1982239 0.51062739
0.095749617 -0.1367263 0.50417727
0.007841289 -0.1338466 0.53921831
-0.096796483 -0.1574218 0.48886281
-0.063757479 -0.13813379 0.47713229
-0.095799766 -0.1391125 0.60067749
-0.090942949 -0.14460079 0.46237051
-0.015721081 -0.1316487 0.59212732
-0.093496442 -0.2274145 0.61059952
-0.102148 -0.32060161 0.53341281
-0.104205 -0.33293399 0.50107282
-0.1006877 -0.33557671 0.49771139
-0.1033399 -0.38993919 0.49966139
-0.101865 -0.3026 0.61212277
-0.102006 -0.3742635 0.52004111
-0.099421144 -0.38855001 0.46763781
-0.1030257 -0.32240289 0.49154571
-0.1001825 -0.4272753 0.4858005
-0.1063829 -0.38506949 0.60389781
-0.095355988 -0.1438919 0.52604878
-0.1065035 -0.26642981 0.56465852
-0.1004117 -0.2491228 0.4859871
0.063485563 -0.137812 0.46522599
-0.1081946 -0.3836365 0.56755108
-0.08683145 -0.13352311 0.43461671
-0.098426066 -0.37623101 0.4847455
-0.099021912 -0.22217441 0.60820562
-0.09845072 -0.2160408 0.60226011
-0.035148799 -0.1404788 0.54959518
-0.1071912 -0.38526389 0.57283252
-0.095699102 -0.1479336 0.56140172
-0.1031215 -0.41796961 0.49828199
-0.1042815 -0.2656928 0.60477817
-0.0093886256 -0.1348384 0.52156419
-0.092857808 -0.14402039 0.4307951
-0.1022395 -0.28727329 0.58423972
-0.03573883 -0.1386326 0.5169245
-0.097420931 -0.30928701 0.43831199
-0.1017985 -0.25730401 0.59753919
0.02003294 -0.1356287 0.4512361
-0.070023358 -0.1378573 0.49595979
-0.099225007 -0.2110195 0.59140939
-0.098225437 -0.1881336 0.61059552
-0.078889973 -0.13129631 0.52356458
-0.095172971 -0.1428266 0.5512768
-0.097639501 -0.1670381 0.5382579
-0.097132087 -0.13615841 0.53112638
-0.1015136 -0.35594481 0.47014001
-0.1019378 -0.42217901 0.64933819
-0.1012878 -0.2348133 0.60362428
-0.1008827 -0.3262192 0.47869691
-0.1018608 -0.31279099 0.64273387
-0.099244922 -0.2478573 0.451873
-0.1042071 -0.2718963 0.57174683
-0.1058799 -0.3782706 0.53612697
-0.1035787 -0.41546309 0.48486409
-0.01138845 -0.132404 0.5529806
-0.093305834 -0.3052941 0.61597979
-0.1022056 -0.32435149 0.49818489
-0.062006291 -0.1339712 0.4625437
-0.097509772 -0.24754369 0.53926188
-0.1031202 -0.26348981 0.59195
-0.1039233 -0.33758369 0.64408088
-0.096085846 -0.1723657 0.56248432
-0.09758082 -0.20295089 0.52165377
-0.1047424 -0.35828441 0.63085228
-0.1048519 -0.3263571 0.61132282
-0.099166811 -0.27839011 0.46236569
-0.1005793 -0.3691045 0.46089289
-0.09510532 -0.1636821 0.44021881
-0.087056696 -0.13294961 0.53312069
-0.098790228 -0.1903073 0.63897169
-0.046427369 -0.13301 0.61143458
-0.093893498 -0.15769809 0.49566519
-0.099756896 -0.213879 0.58221811
-0.1019346 -0.32609239 0.56082189
-0.1002854 -0.28453681 0.48020709
-0.104782 -0.4231804 0.64524043
-0.1034996 -0.30651259 0.57709533
-0.098024398 -0.2403947 0.55648631
-0.096117876 -0.1718559 0.45663181
-0.081390262 -0.1399453 0.4817999
-0.1034853 -0.30135509 0.60511857
-0.099419951 -0.25257021 0.56065577
-0.1015391 -0.30257079 0.49560711
-0.1064775 -0.3626774 0.56752771
-0.092241853 -0.1640809 0.43292999
0.091836751 -0.136097 0.59184229
-0.097352616 -0.2866033 0.45477629
0.048349019 -0.1340206 0.4785015
-0.01890463 -0.1320681 0.53224438
-0.098989069 -0.15716571 0.62594891
-0.095274717 -0.28103319 0.6043961
-0.1006668 -0.2525937 0.6473645
-0.1025707 -0.3909857 0.64289242
-0.096455596 -0.1441327 0.58556378
-0.09749189 -0.1368321 0.44009909
-0.093026876 -0.38067099 0.4363471
0.120746 -0.13678659 0.62937522
-0.09802708 -0.2175224 0.46049109
-0.1066012 -0.33682159 0.62708819
-0.1030259 -0.32720619 0.63254029
-0.1015102 -0.2356527 0.58192551
-0.096535534 -0.17080159 0.48406431
-0.085790992 -0.4240624 0.4446739
-0.1062575 -0.33524179 0.56961149
-0.089936621 -0.1907061 0.58868152
-0.1009795 -0.23032179 0.59711468
-0.0910303 -0.208602 0.43305621
-0.1021676 -0.3286781 0.58224171
-0.1044691 -0.30347079 0.48124969
-0.1003781 -0.2260621 0.62528622
-0.1024852 -0.41438079 0.4900445
-0.1029266 -0.33868319 0.54960889
-0.097320437 -0.1820484 0.49894401
-0.1049979 -0.39675301 0.63738477
-0.1048813 -0.2270903 0.61201793
0.1010317 -0.1388766 0.4494468
0.096605718 -0.1323069 0.49295729
-0.1005745 -0.23744559 0.60554159
0.073573589 -0.1392922 0.57320869
-0.09610793 -0.14759441 0.51909637
-0.096978366 -0.22832491 0.52314031
-0.02521098 -0.13394579 0.47155511
0.039981011 -0.1390056 0.48219639
-0.016551079 -0.13724279 0.48806369
-0.047810789 -0.1379445 0.43781891
0.089606524 -0.1327167 0.534374
-0.021415651 -0.1528921 0.43204561
0.120902 -0.1936883 0.4398708
-0.096175008 -0.39122561 0.44389749
-0.060456399 -0.13664541 0.5835973
-0.07075417 -0.1353557 0.59278589
-0.097987123 -0.1865654 0.58254051
-0.098994143 -0.2198669 0.58450907
-0.1050151 -0.30571491 0.59374231
-0.095396698 -0.2353688 0.5195871
0.051200271 -0.13561711 0.44640291
-0.1063339 -0.42871839 0.3756218
-0.097676903 -0.1893865 0.60329902
-0.1556624 -0.42830041 0.51227409
-0.1067696 -0.27088591 0.44847551
-0.09933728 -0.3285349 0.45209721
-0.1003976 -0.29124561 0.4415172
-0.1069511 -0.32239231 0.48834351
-0.097516388 -0.14325321 0.59669912
-0.1007072 -0.3400107 0.61521691
0.053295251 -0.1328007 0.6121664
-0.099285103 -0.2959632 0.63582361
-0.074667417 -0.1364194 0.5145548
-0.1005705 -0.39250091 0.63453162
-0.085697979 -0.13435531 0.52091128
-0.1021726 -0.20599461 0.51659888
-0.096700966 -0.1906639 0.58859158
-0.1013826 -0.2700814 0.63895679
-0.1001966 -0.23845109 0.59747529
-0.093391508 -0.15878309 0.51178831
-0.1033799 -0.28298771 0.58105618
-0.1028045 -0.39051229 0.45553291
-0.091356426 -0.29450589 0.43220749
-0.0051327939 -0.1314041 0.64954859
-0.053162191 -0.42583609 0.64969963
-0.019067589 -0.1368382 0.64882189
0.044908699 -0.13025869 0.63480788
-0.089883663 -0.29933599 0.64556968
-0.0944933 -0.38171959 0.64003432
-0.084793873 -0.36900821 0.64276081
-0.079876333 -0.24667931 0.64810961
-0.044994861 -0.30011269 0.64953029
-0.044115599 -0.2720609 0.64741772
-0.058602091 -0.24244159 0.64714688
-0.079327106 -0.2020129 0.64774352
-0.072067708 -0.2109907 0.64991373
0.1214767 -0.2611424 0.64732689
-0.05097973 -0.13391431 0.58315682
-0.031857941 -0.2725817 0.64958382
-0.045249581 -0.31715509 0.64898491
0.1198623 -0.2068048 0.64756548
-0.021965619 -0.1495374 0.6494019
-0.084633321 -0.31334129 0.64589548
-0.043519258 -0.25763091 0.64984578
-0.086112201 -0.35591599 0.64672393
-0.035679668 -0.28718719 0.6490882
-0.03145716 -0.26133269 0.6496098
-0.0068842471 -0.1423254 0.64995837
0.1246484 -0.2068599 0.64977503
-0.070369147 -0.22689649 0.64985323
0.1247079 -0.3642529 0.6478858
-0.05375969 -0.3115789 0.64870721
0.1240855 -0.33302629 0.64690721
-0.06396386 -0.29061389 0.64623219
-0.03689244 -0.13740709 0.64631152
0.052216832 -0.1339176 0.45335039
0.1142184 -0.1324663 0.50535148
0.1227664 -0.30470261 0.64452922
-0.071538597 -0.18722489 0.64710319
0.052321389 -0.4299545 0.64879102
-0.046439979 -0.17744569 0.64662188
-0.088502713 -0.1395061 0.59012997
0.058873121 -0.1292053 0.62439692
-0.056596249 -0.2861084 0.64732093
-0.078110687 -0.1638031 0.64209849
0.111735 -0.29579791 0.64819431
0.070370689 -0.1343753 0.44358411
0.061406579 -0.1383528 0.64788139
-0.039193511 -0.1244542 0.62326193
0.1130941 -0.32851231 0.64526957
-0.019392731 -0.16825721 0.64652848
-0.072506219 -0.13428339 0.62285691
0.1242943 -0.16188011 0.64854228
-0.043925341 -0.41100979 0.64823431
-0.03292549 -0.1457472 0.64819938
0.078135177 -0.149698 0.64676023
-0.02187762 -0.13912 0.64854878
-0.01344392 -0.13706359 0.58507282
-0.0540573 -0.4250972 0.6492663
0.1170086 -0.21518479 0.63647437
0.089645803 -0.1356892 0.60106492
0.068084121 -0.1317589 0.63269418
0.086199582 -0.1931677 0.64669311
0.1088717 -0.18845171 0.64845783
-0.09260115 -0.1371551 0.52283013
0.066763893 -0.25982821 0.6489107
-0.01479737 -0.1356512 0.43555921
0.089649171 -0.13541821 0.44292131
0.1237355 -0.13409869 0.61154032
0.111741 -0.1378471 0.5927701
-0.069035977 -0.31438231 0.64925277
-0.03329977 -0.31693831 0.64685082
-0.091575436 -0.1410967 0.52164447
0.033371549 -0.1381478 0.4632484
-0.042481542 -0.31436029 0.63922572
0.061483849 -0.17011771 0.64803338
-0.04748508 -0.1374115 0.64737898
-0.093295127 -0.1314128 0.50615048
-0.03824475 -0.40293929 0.64932668
0.1024314 -0.1476921 0.64801228
0.099725232 -0.1349545 0.62974578
0.084692962 -0.1361465 0.54501837
0.059418861 -0.2138308 0.64855081
-0.05941537 -0.1443973 0.64741838
-0.02603868 -0.2268465 0.64740568
-0.02703774 -0.1614366 0.6412431
-0.065150738 -0.23566809 0.64138651
-0.088087469 -0.2714889 0.63574278
0.083304167 -0.13154361 0.63433802
-0.068732619 -0.14373019 0.61871678
-0.077209286 -0.2202207 0.64885992
-0.038983289 -0.2370218 0.64810449
-0.02596271 -0.2333401 0.64655352
-0.063133508 -0.2208263 0.64432222
-0.087836891 -0.1349761 0.54946262
-0.03716052 -0.1263473 0.4817065
-0.035533909 -0.135453 0.43266049
-0.07875672 -0.1423364 0.41162261
-0.09930405 -0.1303477 0.49475101
-0.057882991 -0.2395768 0.64994907
0.041426148 -0.13529161 0.57910848
0.1013156 -0.13547421 0.4687973
-0.02281284 -0.1291122 0.42905059
0.033447672 -0.1341642 0.44071561
0.1272337 -0.14394321 0.64117569
0.1204756 -0.33686569 0.64105999
0.1202744 -0.4099445 0.64119482
-0.082411923 -0.28046271 0.64399707
0.02618158 -0.13502879 0.4873367
-0.04888567 -0.1281396 0.63984698
-0.02652958 -0.1379879 0.55276948
-0.024234381 -0.1339438 0.58392203
-0.02631164 -0.13492841 0.54798079
-0.01458342 -0.2013661 0.64827162
-0.01251148 -0.1958888 0.64715469
-0.020603869 -0.18685859 0.648628
0.002078071 -0.1844144 0.64400399
0.004541039 -0.33370861 0.64994532
0.01128148 -0.1346831 0.64933097
0.019096229 -0.1312656 0.61623108
0.01983634 -0.1298613 0.64718783
0.039009001 -0.1382245 0.6494478
0.033932179 -0.1280846 0.64089072
0.0151124 -0.2001406 0.6464532
0.069059223 -0.1309955 0.59115952
-0.01782316 -0.14115021 0.4773044
0.020949259 -0.25417799 0.64990687
0.1010636 -0.2825892 0.64661771
0.019244241 -0.26141521 0.6495235
0.0046116412 -0.2165397 0.64723372
-0.062878191 -0.33039159 0.64543879
0.04600358 -0.1360573 0.55999649
0.06277597 -0.1280919 0.57708818
0.02200559 -0.2075116 0.6485967
-0.0023332981 -0.17942549 0.6477614
0.1325945 -0.42751229 0.63132972
0.017531071 -0.2181439 0.64989668
0.03142865 -0.1502376 0.64809817
-0.03258482 -0.1549115 0.64939928
0.025526639 -0.1783233 0.64958447
0.02211334 -0.1879705 0.64772499
0.0120336 -0.40543589 0.64884079
0.0085525513 -0.1883893 0.64955223
-0.070070647 -0.1769443 0.64517552
0.1217903 -0.1340349 0.57360917
0.12787689 -0.42562971 0.42806059
0.1320468 -0.35967001 0.49721071
0.12816881 -0.26931199 0.43653941
0.13162731 -0.4086878 0.60003722
0.13710649 -0.29397261 0.557289
0.1308317 -0.13622101 0.51838207
0.1237089 -0.3604683 0.43543169
0.12860741 -0.2359447 0.45180711
0.1304623 -0.36144829 0.62704521
0.128518 -0.13122261 0.61449909
0.092042796 -0.13307039 0.57110977
0.1271576 -0.27073011 0.4348397
0.1333244 -0.1860723 0.60590792
0.1222813 -0.42503339 0.43459079
0.1280669 -0.19338819 0.5278908
0.13050909 -0.1734118 0.60860938
0.13182271 -0.26323161 0.63271892
0.1133284 -0.1354975 0.56319559
0.1293731 -0.18568879 0.6091913
0.1319723 -0.37291649 0.54950571
0.1300178 -0.1355726 0.54376823
0.1310712 -0.41255701 0.55174261
0.1309164 -0.23860919 0.45518371
0.1310513 -0.1500176 0.51824361
0.128668 -0.29679099 0.43449581
0.1246636 -0.42567271 0.4397319
0.1305773 -0.2154865 0.60819018
0.1336977 -0.27509049 0.47844201
0.1239353 -0.25939119 0.43078601
0.1273129 -0.1881803 0.54989398
0.1300184 -0.15601119 0.43482271
0.13147449 -0.2117615 0.47871709
0.1312331 -0.1975159 0.63323611
0.1312927 -0.14959051 0.61486208
0.13416611 -0.26101989 0.46428889
0.1295986 -0.1997169 0.64072758
0.12794331 -0.1406834 0.63281989
0.077294767 -0.1387872 0.47020149
0.12941641 -0.26619941 0.53911889
0.1314861 -0.28246781 0.5567323
0.13063399 -0.40774789 0.62557292
0.1312384 -0.2891618 0.60262138
0.1314026 -0.3757973 0.5521487
0.13442381 -0.2473373 0.54017979
0.1308635 -0.41276851 0.49184409
0.12895641 -0.27773529 0.50127208
0.1309859 -0.38096231 0.49537471
0.1340477 -0.33951601 0.51309133
0.12957691 -0.21547081 0.64821339
0.13440169 -0.2336417 0.47728941
0.130971 -0.17315909 0.48288411
0.1308302 -0.14090119 0.51886141
0.1088901 -0.1369943 0.43474111
0.13010611 -0.142252 0.57106239
0.13147689 -0.16029359 0.62384689
0.126919 -0.15547059 0.43699309
0.1313073 -0.36101219 0.54804713
0.1309126 -0.35271189 0.53937691
0.1320233 -0.1809085 0.4852201
0.1327057 -0.33353701 0.49844629
0.1305598 -0.3996318 0.53802723
0.1297752 -0.13825551 0.53298718
0.13515989 -0.1477747 0.597516
0.1315525 -0.2044798 0.50972158
0.13119709 -0.15394729 0.49309379
0.1250388 -0.13322911 0.62384897
0.1329637 -0.1760698 0.4638004
0.1242141 -0.39313939 0.43665209
0.13048171 -0.21725041 0.60505939
0.1308362 -0.42939419 0.42543241
0.1316141 -0.2531929 0.46600741
0.1301315 -0.27278259 0.60680139
0.1301737 -0.36985439 0.50876391
-0.079307728 -0.1331736 0.43106729
0.13166671 -0.1393813 0.4699668
0.1290314 -0.42456409 0.48627129
0.1311111 -0.31457901 0.62967938
0.1305155 -0.36915869 0.53483617
0.1296733 -0.1858744 0.64161199
0.1345208 -0.1852579 0.43510291
0.1315202 -0.1912493 0.46069109
0.1353242 -0.18941949 0.4988617
0.13170239 -0.31536269 0.61637461
0.1352358 -0.28581029 0.45845091
0.12879901 -0.39588061 0.44508979
0.1321492 -0.3700245 0.5410217
0.1347357 -0.34337559 0.44602981
0.1260125 -0.28524771 0.64838159
0.1304737 -0.16699439 0.62800568
0.1300517 -0.32534069 0.61116189
0.1317001 -0.1963018 0.62740737
0.1320077 -0.27645329 0.6255374
0.1067445 -0.1327557 0.51597142
0.072330303 -0.1328437 0.46252149
0.13272519 -0.4141764 0.46792009
0.13174149 -0.2781094 0.47557411
0.1322355 -0.15779839 0.62766677
0.1314175 -0.30336931 0.45821181
0.13183489 -0.1499638 0.62837058
0.1330214 -0.14382701 0.4369241
0.1312585 -0.42196441 0.4746851
0.1305864 -0.15752921 0.59907508
0.1320654 -0.1408187 0.4527314
0.12875479 -0.16839521 0.47210759
0.13203169 -0.23364121 0.50601298
0.12986679 -0.3426587 0.50317711
0.12813319 -0.33479011 0.43558571
0.1296768 -0.33779389 0.47369301
0.1296863 -0.34976631 0.47213271
0.1216402 -0.1326732 0.52958179
0.1300381 -0.1411209 0.54552978
0.1301835 -0.2508871 0.45824379
0.1370223 -0.34540009 0.48825681
0.1345633 -0.1450703 0.50279748
-0.076875091 -0.13025481 0.61523128
0.1315995 -0.2092966 0.63336903
0.1085131 -0.13655581 0.48931229
0.1262285 -0.295912 0.43617189
0.1301017 -0.26605299 0.4514598
0.1233292 -0.1355381 0.4841432
0.1295456 -0.2117665 0.48229221
0.1333404 -0.2888872 0.4558998
0.1313936 -0.1863592 0.53391647
0.1330509 -0.17108519 0.50643623
0.1347809 -0.1735743 0.46878079
0.128608 -0.1830758 0.46061131
0.13042121 -0.3901234 0.61494029
0.13314649 -0.2162903 0.50777727
0.1258954 -0.40036941 0.44966999
0.1355992 -0.4099932 0.46412659
0.1346301 -0.2649059 0.64471412
0.079168677 -0.13456111 0.4339456
0.1384984 -0.1352952 0.43946549
0.126096 -0.35939091 0.4337061
0.1234465 -0.37148419 0.43417689
0.1251583 -0.39076981 0.42719439
0.1303246 -0.2067741 0.43456551
0.1304602 -0.32433471 0.61658287
0.13327441 -0.1748022 0.4627414
0.1346609 -0.29258749 0.53133827
0.1298302 -0.1363914 0.58654511
0.1314287 -0.27583659 0.50779742
0.1357279 -0.1924752 0.4592312
0.1316116 -0.28513649 0.46746269
0.1294964 -0.23052301 0.43511581
0.1309891 -0.23636679 0.47829631
0.1327574 -0.30098221 0.54275638
0.1261581 -0.36221719 0.4263882
0.1265047 -0.34872901 0.64260823
0.1319185 -0.30803519 0.50145799
0.13295069 -0.4210597 0.63062978
0.1306067 -0.26254621 0.63482833
0.1368904 -0.28843549 0.63583821
0.13264699 -0.25667271 0.6259315
0.12969349 -0.36181191 0.64113498
0.034094449 -0.1326251 0.4762024
0.068120122 -0.1330207 0.54644239
0.032867432 -0.13665789 0.51248652
-0.068577647 -0.1292467 0.56796032
-0.073839597 -0.12852859 0.60750222
0.087719202 -0.13780411 0.44176361
0.1027513 -0.1430838 0.58861452
0.12818851 -0.13594221 0.56770378
0.12642799 -0.1326997 0.52745569
0.133728 -0.32004991 0.42933539
0.13333879 -0.3212961 0.42795059
0.13742501 -0.2315205 0.57576382
0.1389633 -0.2269042 0.57808018
0.1268031 -0.3172701 0.44079021
0.12617031 -0.3171528 0.43433201
0.1325033 -0.2033509 0.51248938
0.1306615 -0.28112629 0.60112619
0.12796549 -0.2148463 0.43851441
0.1260854 -0.22175001 0.52898139
0.1298894 -0.3284829 0.60284418
0.1310087 -0.28651151 0.4334766
0.1315528 -0.26326159 0.57306802
0.1315264 -0.32894531 0.6040684
0.1312332 -0.24067891 0.5090754
0.1368994 -0.3032079 0.4319784
0.13749629 -0.34138271 0.47066271
0.132112 -0.29290879 0.44573069
0.13217381 -0.26366079 0.57559103
0.13042679 -0.2398847 0.55280232
0.1266003 -0.2307748 0.55014521
0.134436 -0.22476929 0.5713675
0.13009229 -0.2272937 0.42949769
0.1295215 -0.41221011 0.52575159
0.1251289 -0.24782839 0.5623647
0.1382674 -0.29231331 0.531174
0.1285958 -0.36526251 0.60358721
0.1267996 -0.21642581 0.53856301
0.13238101 -0.37509409 0.52289742
0.1300943 -0.37538719 0.52030897
0.128427 -0.3342199 0.5110665
0.1155311 -0.1304979 0.53836012
0.12984399 -0.26890561 0.51622993
0.1259404 -0.2271543 0.55067569
0.1289629 -0.26529729 0.55368221
0.13187709 -0.28113371 0.60112518
0.1308967 -0.36553839 0.47956929
0.1354361 -0.2155437 0.47759089
0.1357491 -0.2298062 0.45593241
0.1366671 -0.37177461 0.55409008
0.1349899 -0.29269969 0.45895961
0.131695 -0.39716509 0.53746033
0.13105901 -0.2519097 0.63652271
0.1333638 -0.2376014 0.56112713
0.12675419 -0.4097836 0.59662312
0.1115404 -0.13498101 0.59104502
0.1321494 -0.225043 0.57040519
0.127391 -0.13988639 0.62054288
0.1323754 -0.27995729 0.42698619
0.1336167 -0.2794666 0.42947051
0.13015001 -0.41108641 0.55495209
0.03916705 -0.13381509 0.50691271
0.1217468 -0.13574889 0.54887438
0.128767 -0.40930471 0.64187551
0.1297963 -0.33894229 0.57205123
0.1306037 -0.33153519 0.5730918
0.1300943 -0.2512283 0.52402318
0.13135409 -0.3468211 0.57425988
0.1334766 -0.299272 0.44250071
0.1276187 -0.1685192 0.6422497
0.13553201 -0.21982449 0.52156693
0.13544419 -0.2816208 0.44657499
0.1309533 -0.2441722 0.64006001
0.1273001 -0.34376481 0.64814591
0.13188709 -0.32796791 0.51273108
0.1377407 -0.13718601 0.4452948
0.1296915 -0.29645911 0.56923252
0.130937 -0.31304821 0.59878129
0.1239534 -0.38089341 0.63970149
0.1302205 -0.1698346 0.43460199
0.1319498 -0.33171749 0.62957752
0.1122301 -0.2585687 0.4785082
0.1313201 -0.204376 0.47389939
0.1321847 -0.33629841 0.42865321
0.13082939 -0.3189292 0.49057689
0.1307994 -0.28195879 0.52579123
0.1311195 -0.34704721 0.57626933
0.1279169 -0.39773959 0.63550693
0.1295065 -0.3692587 0.52897388
0.12839229 -0.35614699 0.62247872
0.1332656 -0.1606932 0.55895352
0.1293176 -0.37659299 0.47512671
0.13042159 -0.38425729 0.63714337
0.1278719 -0.33834681 0.46082231
0.13225 -0.1666588 0.4888626
0.1286758 -0.2352704 0.51161963
0.1297572 -0.18005741 0.60155398
0.12813041 -0.2062325 0.61475021
0.12950151 -0.3834407 0.54916322
0.1294993 -0.1875359 0.54134762
0.13608681 -0.27463081 0.57768488
0.1294242 -0.177085 0.61577702
0.1320913 -0.25816101 0.50520599
0.1293253 -0.2502692 0.51309478
0.1315224 -0.31533921 0.62304062
0.1317631 -0.1773784 0.59690708
0.1226376 -0.13367219 0.60428268
-0.040640879 -0.1312775 0.62441373
0.037375212 -0.13328721 0.57580858
0.1167265 -0.1333092 0.50440693
0.1754901 -0.43187919 0.56316477
0.067285419 -0.1289092 0.59389269
0.1199268 -0.33455941 0.64037412
-0.049738899 -0.1751723 0.64927989
0.02940825 -0.12881 0.5678758
-0.097042009 -0.40389451 0.643058
0.1204935 -0.368476 0.64498538
0.1219893 -0.3730031 0.63812202
0.1021329 -0.1312419 0.58276379
0.116984 -0.25956759 0.64146811
0.04753444 -0.4035396 0.64975512
-0.01227197 -0.13293751 0.6456064
-0.024778649 -0.13535669 0.64833868
-0.057030391 -0.13044611 0.6453402
0.1222812 -0.30436239 0.64414042
-0.094186343 -0.29838741 0.64588243
-0.093407467 -0.2788578 0.64636612
-0.01000744 -0.1387718 0.6476357
-0.081908643 -0.2482263 0.64899862
-0.0095871389 -0.1684366 0.64944851
-0.01056857 -0.1313355 0.64082992
-0.092870273 -0.18853471 0.64209747
0.01714262 -0.1334217 0.56417263
0.01877713 -0.1359081 0.4711833
-0.057208791 -0.34758341 0.64966571
0.067990139 -0.1311059 0.44337019
-0.039897319 -0.1350432 0.64561433
-0.07344462 -0.2269959 0.64825922
-0.060272928 -0.28549671 0.64799148
-0.022946119 -0.13650291 0.47646669
-0.049091671 -0.30259591 0.64574492
-0.049418781 -0.3385537 0.64681858
-0.02115415 -0.1666093 0.64673811
0.0078942776 -0.1338826 0.6485455
0.01319909 -0.1322639 0.60736418
0.01575732 -0.1309521 0.6457808
0.016813699 -0.130431 0.64109868
-0.035862789 -0.1293554 0.4418034
0.036726281 -0.13591491 0.64871871
-0.062921792 -0.1333334 0.4692798
-0.056705039 -0.1346792 0.57717419
0.0963315 -0.2029372 0.6489898
0.056061421 -0.30681551 0.64829499
0.01365972 -0.2900508 0.64874399
0.075733513 -0.14277761 0.64849848
0.02725799 -0.14767949 0.64667279
0.019408779 -0.2355334 0.64991379
0.084728271 -0.1892897 0.64831221
0.018261921 -0.25701821 0.64856112
0.087742597 -0.1611847 0.64998162
-0.075385407 -0.1351818 0.6491195
-0.03168935 -0.2395757 0.64927828
-0.046390101 -0.40087211 0.64905077
-0.046336468 -0.4123362 0.64813161
-0.022537891 -0.1357324 0.42185849
0.080453932 -0.1305515 0.6332339
0.01319753 -0.19872759 0.64516431
0.084710233 -0.1336745 0.4343845
0.047179941 -0.16863111 0.64831227
0.1636871 -0.43169349 0.58673352
-0.089541793 -0.35993719 0.64312208
-0.086515114 -0.19757541 0.64123678
0.071840748 -0.1378558 0.64487082
-0.041717049 -0.1304355 0.58424282
0.074754998 -0.1332269 0.55889177
0.1234899 -0.27124271 0.6456821
-0.01922892 -0.13403539 0.6474843
-0.085157111 -0.35598421 0.64698827
-0.09122318 -0.1863327 0.58661282
-0.086191587 -0.1321976 0.44593081
-0.09634608 -0.2121128 0.57932538
-0.085396953 -0.1874454 0.64513338
-0.088266253 -0.14130419 0.51534897
-0.082762957 -0.1328232 0.6279009
-0.095445037 -0.19655161 0.6131897
-0.098493248 -0.2713798 0.52024072
-0.091950148 -0.13636591 0.64023292
-0.098476887 -0.16511241 0.44606951
-0.094299078 -0.1894507 0.63370037
-0.091515332 -0.170387 0.62161922
-0.02429134 -0.1320374 0.48322141
-0.09291406 -0.1302707 0.53240907
-0.094320238 -0.2257894 0.62318271
-0.096606672 -0.1563098 0.4414928
-0.094711483 -0.2079106 0.64096659
-0.081448697 -0.2028643 0.64969379
-0.095985577 -0.3138625 0.64101988
-0.087334692 -0.28455341 0.64923912
-0.087302864 -0.1419531 0.64497977
-0.095355392 -0.2488946 0.64266598
-0.1037323 -0.40871611 0.53068823
-0.099916041 -0.21432699 0.58363843
-0.098605722 -0.28023261 0.51165748
-0.1028791 -0.31504309 0.54035008
-0.095093369 -0.1402145 0.52080071
-0.097005777 -0.14532159 0.465808
-0.096684627 -0.1342344 0.50482148
-0.094372422 -0.1380889 0.54879189
-0.097979307 -0.1910271 0.50374591
-0.094269007 -0.1660378 0.51977372
-0.095015079 -0.1653295 0.45685321
-0.096250243 -0.1506509 0.44917551
-0.093403697 -0.1682781 0.48479161
-0.093512177 -0.18258861 0.51725411
-0.099058993 -0.1889073 0.49123791
0.016921161 -0.13254181 0.63977742
-0.1068804 -0.30682859 0.58715761
-0.1036631 -0.3811017 0.6163367
-0.082507432 -0.1617886 0.55635679
-0.097687632 -0.2064119 0.4451912
-0.097574197 -0.17090739 0.50488222
-0.102932 -0.37369779 0.55504948
-0.099305689 -0.2110711 0.45285159
-0.094208628 -0.1679697 0.54085392
-0.098225527 -0.32034099 0.47434801
-0.096109927 -0.31127319 0.63484782
-0.1021054 -0.3955937 0.51041311
-0.09737432 -0.1860249 0.59743363
-0.094103463 -0.37656811 0.4325383
-0.094039798 -0.4153614 0.42454109
-0.098054051 -0.2296385 0.55499411
-0.095141008 -0.18672369 0.56430179
-0.099319957 -0.2788921 0.47201681
-0.095061719 -0.1800621 0.50903958
-0.1029815 -0.33082211 0.49711761
-0.1022715 -0.3532913 0.58608651
-0.06157824 -0.1320758 0.5774309
-0.093739629 -0.1488637 0.56706089
-0.09858489 -0.16749769 0.4458338
-0.097219259 -0.1709099 0.51427352
-0.096307069 -0.1590223 0.50230438
-0.1009577 -0.2851845 0.56243283
0.083443113 -0.1314338 0.56994921
0.1154278 -0.1330038 0.56548268
-0.093447059 -0.14148609 0.52181572
-0.1007012 -0.414094 0.47962299
-0.094537944 -0.1774431 0.55547118
-0.095061056 -0.1566702 0.46361539
-0.09956792 -0.20024461 0.49534771
-0.072396703 -0.132607 0.56132019
-0.096889913 -0.24427339 0.46478701
-0.103627 -0.41252851 0.5053249
-0.096277237 -0.1685081 0.47972691
0.065604627 -0.1281864 0.4657439
-0.092903674 -0.16687509 0.52058238
0.024103699 -0.1285086 0.50821918
0.1038288 -0.13356049 0.4989154
-0.1005802 -0.33144969 0.49387729
-0.098334312 -0.1645692 0.53242022
-0.01314205 -0.1317461 0.52962297
-0.095918797 -0.1480577 0.43908921
-0.090165913 -0.138512 0.4571158
-0.001881719 -0.13147061 0.5628922
-0.09575545 -0.1469367 0.52286458
-0.096706003 -0.22024371 0.42977259
-0.097159266 -0.1523452 0.57230967
-0.095983863 -0.1352817 0.43482101
-0.091367356 -0.1320115 0.56432688
-0.1004997 -0.33323821 0.59148872
-0.096305519 -0.13640849 0.43497509
-0.098303743 -0.1442333 0.45558411
-0.01657635 -0.1278628 0.58457971
0.03225803 -0.134597 0.47313741
0.1030487 -0.134618 0.44125551
-0.099947207 -0.41660139 0.46496919
0.0085157156 -0.13040221 0.58159101
-0.082686901 -0.13923129 0.53208119
0.1267453 -0.1386517 0.6425826
-0.058750872 -0.17321169 0.42857161
-0.094946243 -0.1615998 0.43386289
-0.098114252 -0.2117027 0.43145239
-0.091965437 -0.4075262 0.42563811
-0.093023933 -0.1309242 0.57387352
-0.092795096 -0.1406469 0.54763383
-0.0956375 -0.1824498 0.53323698
-0.088845968 -0.1358638 0.46570641
-0.070612192 -0.1318634 0.58567148
0.070123732 -0.13627701 0.45999649
-0.09592092 -0.38803649 0.43709821
-0.1010342 -0.25212929 0.56186259
-0.095282853 -0.29306391 0.43011761
-0.026911801 -0.1376477 0.42888069
0.063779444 -0.1811724 0.43274161
0.0038016741 -0.1892588 0.42920691
-0.0039497688 -0.1494808 0.42754069
-0.089272857 -0.189008 0.43019289
-0.038682111 -0.16144601 0.42575231
-0.021363471 -0.1613746 0.42389581
-0.070286408 -0.2218968 0.4272379
-0.037937518 -0.17238811 0.42782131
0.068618447 -0.15756419 0.42954201
-0.019369069 -0.2373931 0.4257184
0.12550861 -0.1964757 0.42817441
0.0025299189 -0.18632969 0.43219361
0.054158211 -0.26670519 0.4265365
0.090702772 -0.246031 0.42538351
-0.0078048711 -0.2335223 0.429654
0.081326008 -0.23733281 0.43036121
-0.03536785 -0.1882475 0.42701289
-0.032993641 -0.2163578 0.4309133
-0.079752982 -0.25234851 0.42774141
-0.0063315029 -0.19220421 0.4301028
-0.069973953 -0.2030313 0.42822659
0.075042747 -0.20282251 0.42773879
0.1041299 -0.27035779 0.42944059
-0.082396626 -0.2129271 0.42570931
-0.021687821 -0.1723056 0.42774439
0.038912501 -0.178242 0.4295986
0.1056278 -0.25403309 0.42897069
0.044212248 -0.1985355 0.43060261
0.1064985 -0.196557 0.42798689
-0.030761961 -0.2350186 0.42707911
0.035372909 -0.18115529 0.42839369
0.081744589 -0.194746 0.4246988
0.02598482 -0.2063053 0.43242469
-0.037261371 -0.21476699 0.4329308
-0.074124083 -0.1866014 0.42790931
0.030218789 -0.20573729 0.42940441
0.0029817519 -0.219576 0.43006101
0.02911398 -0.1713424 0.43150029
0.06086741 -0.17953961 0.4298752
0.102184 -0.1946874 0.43181539
-0.028947679 -0.2298228 0.42721039
0.1105633 -0.2471544 0.4275752
0.08870478 -0.2269229 0.429039
-0.05556342 -0.26643521 0.42782649
0.01502237 -0.21097299 0.4278709
-0.069655113 -0.195131 0.4308129
0.1232061 -0.1900501 0.4301649
0.1059154 -0.23327599 0.4271653
-0.03146413 -0.3059504 0.42509991
0.01598933 -0.2274514 0.42523891
-0.018895511 -0.2444014 0.41981241
0.057336781 -0.21063299 0.43081811
0.037292659 -0.19378939 0.4313412
-0.06166843 -0.25300059 0.4260318
0.06126719 -0.1683253 0.4355379
0.119789 -0.25693071 0.43032819
-0.035685111 -0.17834 0.4281702
0.117789 -0.2449356 0.42344549
0.087219052 -0.1892736 0.4327808
0.06071499 -0.2191826 0.42887321
-0.01384105 -0.1513982 0.43016651
0.083353393 -0.21045481 0.42898819
0.038828399 -0.22149999 0.43114981
-0.037163399 -0.1367579 0.42702639
-0.03321502 -0.2261636 0.42706949
0.099165909 -0.148405 0.42930099
0.1132651 -0.1487744 0.42929789
0.094743848 -0.1909743 0.4251762
0.025632549 -0.27580351 0.4273797
0.1132147 -0.2398711 0.42845601
-0.01122788 -0.2283053 0.43441901
0.097741216 -0.2358389 0.42838749
0.12612531 -0.15055101 0.42640561
0.087678812 -0.29628819 0.42373511
0.090560123 -0.20369411 0.4307954
0.04177472 -0.1718428 0.43303689
0.03157318 -0.2407091 0.4273842
0.1122014 -0.222115 0.4271391
-0.0179915 -0.1632091 0.42198211
0.1069387 -0.2420793 0.43325081
0.01216352 -0.1843491 0.4313601
0.1131237 -0.14155319 0.43412551
-0.02714326 -0.2415797 0.4252145
-0.078602783 -0.18298361 0.42681119
-0.01107266 -0.2038611 0.42917591
0.1069949 -0.15064999 0.43491319
0.041787069 -0.22221211 0.424079
0.1235931 -0.28714949 0.41978699
0.1148302 -0.28134859 0.42433089
0.01109356 -0.21707571 0.4298296
-0.065177098 -0.2416324 0.42681921
0.1043331 -0.27092209 0.42893729
-0.042444792 -0.1645847 0.42743549
-0.068373419 -0.23912551 0.4350391
0.083259687 -0.1401723 0.42518571
0.033469111 -0.36309811 0.40799221
0.0064013 -0.3870205 0.42232701
-0.05145264 -0.37411579 0.42349389
-0.002618134 -0.33977571 0.42681989
-0.030058149 -0.33236209 0.41903681
-0.056549791 -0.34958699 0.42054871
-0.052846041 -0.40509859 0.4196817
0.0090824366 -0.4198404 0.42591619
-0.065065444 -0.3735553 0.42008409
-0.090769053 -0.40563011 0.42542449
0.01173976 -0.2280217 0.42543739
-0.066946208 -0.25450221 0.4242861
0.0447894 -0.3116675 0.42204669
-0.076397114 -0.3563194 0.42187029
-0.062771931 -0.3854222 0.4263905
-0.094572566 -0.29163039 0.42872101
-0.0040986538 -0.1519037 0.42336619
0.055326939 -0.3171199 0.42668739
-0.090612411 -0.18896089 0.42691311
-0.070425272 -0.20452499 0.42429829
-0.072229147 -0.23809171 0.43078431
0.02572134 -0.1716125 0.43035579
0.095722198 -0.2998507 0.42534259
0.1250477 -0.18443871 0.43203381
-0.075682431 -0.1918347 0.42646849
-0.095808603 -0.37645471 0.42580989
-0.072116762 -0.16615251 0.4198952
-0.032312751 -0.2167411 0.42964211
-0.067508221 -0.3305248 0.4204444
0.1201515 -0.32893711 0.42818031
-0.095593721 -0.28375101 0.4295952
-0.09014973 -0.168267 0.42400059
0.044849899 -0.37640321 0.41842529
-0.03762335 -0.152493 0.42354709
-0.095182329 -0.1662908 0.4304654
-0.097304299 -0.24496339 0.4656167
-0.105086 -0.40382671 0.53655732
0.042445239 -0.2738896 0.4239113
-0.078851253 -0.32043439 0.42271709
-0.096560933 -0.1608602 0.43420711
-0.1020252 -0.31888831 0.54210031
-0.105042 -0.30329511 0.53910381
-0.093715787 -0.15364289 0.45024431
-0.096352667 -0.2055268 0.4969236
-0.096465439 -0.2191668 0.43079111
-0.098763287 -0.359548 0.4680317
-0.099533498 -0.3874971 0.46447611
-0.094626367 -0.41692039 0.42531011
-0.095453233 -0.33777571 0.43410239
-0.1027304 -0.215295 0.58499962
-0.094701618 -0.1475929 0.51961303
-0.099237382 -0.29948181 0.46773449
-0.095715821 -0.2086993 0.4444595
-0.094825603 -0.2043899 0.4997271
-0.098364107 -0.32216761 0.4722304
-0.1039275 -0.30005971 0.62651318
-0.1086462 -0.4252862 0.528148
-0.1002707 -0.41059759 0.53014618
-0.1074254 -0.38036579 0.4361414
-0.098657608 -0.1881 0.55861908
-0.1054354 -0.3391408 0.4763388
-0.1006645 -0.33205861 0.50167382
-0.097914606 -0.30861691 0.44545519
-0.1034466 -0.30677271 0.59369922
-0.098310292 -0.1875862 0.63283718
-0.007281601 -0.39618501 0.4173584
-0.098501742 -0.28087559 0.4724572
-0.1048169 -0.39593899 0.52312988
-0.1022261 -0.3325226 0.60287333
-0.096008122 -0.132679 0.64052337
0.063336983 -0.1818904 0.4323096
-0.088663161 -0.13385279 0.62123692
-0.1001564 -0.22745021 0.55817169
-0.1050991 -0.29979041 0.58711731
-0.1034074 -0.34775159 0.55569851
-0.092316777 -0.35670131 0.4255963
-0.09847191 -0.30994129 0.4759993
-0.099831909 -0.23334891 0.59891438
-0.098372132 -0.23992249 0.63063598
-0.1023566 -0.27310821 0.57058638
-0.098194107 -0.35600141 0.61870831
-0.1031834 -0.1953865 0.63551122
-0.096609592 -0.13839009 0.52058131
-0.097355343 -0.18585271 0.59687501
-0.095147453 -0.18170179 0.50938118
-0.1005906 -0.28702629 0.56294078
-0.098937213 -0.1653399 0.45413399
-0.098294497 -0.1925346 0.49232209
-0.099545062 -0.28014311 0.51104027
-0.096412271 -0.30974939 0.61371821
-0.1013085 -0.33161429 0.58869082
-0.081434786 -0.41699839 0.42079249
-0.097694367 -0.33353221 0.56155783
-0.088987589 -0.19715969 0.51216352
-0.097062588 -0.2219829 0.4797866
-0.1027986 -0.3953307 0.51079959
-0.1057206 -0.3584035 0.56752688
-0.096437164 -0.1392616 0.54521918
-0.1004189 -0.2707932 0.59123278
-0.098788172 -0.2408715 0.53588492
-0.095096111 -0.29174519 0.63599849
-0.06817311 -0.1373492 0.42409769
-0.09834978 -0.3070682 0.50234199
0.081196673 -0.2072697 0.42742869
0.053672791 -0.16840319 0.43281269
0.06654501 -0.1602791 0.43000761
0.099719293 -0.38430399 0.425152
-0.1023765 -0.2303777 0.54779118
-0.094157927 -0.13400321 0.50655001
-0.095734566 -0.19475099 0.56348491
-0.1014565 -0.1545787 0.45957801
-0.017338309 -0.1488712 0.42554849
-0.036762211 -0.1745932 0.43054271
-0.097940713 -0.20733979 0.51518238
-0.1066338 -0.3688975 0.55427998
-0.098356932 -0.34472129 0.6331231
-0.01407933 -0.200717 0.42925641
-0.04964745 -0.16592731 0.42673749
-0.094395913 -0.1695075 0.48297009
-0.1032219 -0.24124201 0.44452381
-0.099244058 -0.39451921 0.4992893
-0.098675877 -0.14467929 0.4566738
-0.084029377 -0.1644717 0.42380741
-0.099832922 -0.2557078 0.52757978
-0.097521663 -0.256367 0.56634808
-0.096173286 -0.1723821 0.51458281
-0.095789067 -0.19396231 0.55056238
-0.096272618 -0.1489245 0.44241959
0.1018066 -0.1485422 0.42819679
0.04748651 -0.19057611 0.4160338
0.034852181 -0.34413081 0.42573109
0.01911116 -0.33925489 0.42563689
0.079816163 -0.3391335 0.42514649
-0.03087437 -0.1855825 0.42020911
-0.088309817 -0.13677301 0.57949322
-0.098000653 -0.19938751 0.62099802
0.1138279 -0.1318198 0.60357249
-0.095721297 -0.1498597 0.44565609
-0.097901821 -0.22696701 0.61579221
-0.098196149 -0.28389081 0.51312423
-0.1002508 -0.30635679 0.62941879
-0.1030939 -0.3844015 0.61762023
-0.098456047 -0.29339969 0.47478729
-0.095632881 -0.167457 0.51866537
-0.1038976 -0.27374691 0.54776132
-0.094944119 -0.1415426 0.58179259
-0.094144277 -0.13074809 0.53602773
-0.1009373 -0.16706359 0.44457689
0.023825729 -0.1496994 0.42877069
-0.096161783 -0.1821609 0.64580423
-0.099391043 -0.2757678 0.5238716
-0.093718618 -0.1840103 0.51580268
-0.095220119 -0.1761962 0.55436063
0.006845295 -0.1374391 0.43567219
-0.06362161 -0.1363353 0.4457016
-0.096591771 -0.1561386 0.53119189
0.1171591 -0.1519693 0.42588821
0.1140597 -0.1934924 0.42439869
0.071987718 -0.21312121 0.4242368
0.05385327 -0.34900931 0.4266637
0.070720203 -0.3618418 0.41801271
0.1184095 -0.329267 0.42688301
0.016827021 -0.41405889 0.41909251
0.1083655 -0.131742 0.63599843
-0.099268816 -0.2122882 0.4543446
-0.094891787 -0.2693547 0.43022859
-0.1026704 -0.33571881 0.57073188
-0.066567361 -0.28836349 0.41709551
-0.103146 -0.17078701 0.50383669
-0.0932464 -0.3115997 0.58525687
-0.093034737 -0.2068882 0.58061582
-0.1022415 -0.26487741 0.5581485
-0.064368129 -0.1351897 0.52416402
-0.098743111 -0.26991159 0.60293031
-0.097089112 -0.14092021 0.49813911
-0.098136961 -0.19893169 0.53092712
-0.015941739 -0.2246013 0.42751089
0.099935502 -0.13029499 0.4971768
0.068434238 -0.35384989 0.4242596
-0.057486031 -0.36260369 0.4224517
0.095307201 -0.40797111 0.4341864
-0.093369283 -0.1383013 0.59820199
-0.081885837 -0.13555861 0.55366808
0.099283099 -0.33862069 0.4213807
-0.097922146 -0.15828981 0.44383159
-0.041676339 -0.1284993 0.63010728
-0.094319344 -0.25394189 0.53903478
-0.065728247 -0.1283073 0.62219769
0.1764542 -0.4233076 0.45217401
-0.097818971 -0.1599925 0.50083971
-0.1030239 -0.2275271 0.57875031
0.117396 -0.28295761 0.42620951
-0.028969171 -0.39180559 0.41654229
-0.074162297 -0.1369479 0.4696691
0.044732392 -0.1332079 0.58763409
-0.090099692 -0.32419699 0.49789411
-0.009377867 -0.1701175 0.4241187
-0.1015832 -0.3442494 0.63577223
0.078453057 -0.1887712 0.42891869
0.088348977 -0.1356114 0.47373959
-0.043166641 -0.3382811 0.42455021
-0.059046801 -0.12823451 0.41909879
-0.001415879 -0.123812 0.64589649
0.095709167 -0.13198531 0.43701679
0.1159465 -0.1328467 0.56651223
-0.089308679 -0.1341189 0.56425691
-0.1027326 -0.31627479 0.54562187
-0.099235587 -0.3005414 0.52894562
-0.093292713 -0.1431769 0.61735767
-0.044337329 -0.13259301 0.59017467
0.065183878 -0.1349439 0.64574379
-0.097496629 -0.389851 0.53457618
-0.102376 -0.38467389 0.60219502
-0.093940683 -0.2239425 0.54618198
0.090866387 -0.2301655 0.4231272
0.079771638 -0.2353601 0.42873141
0.12646119 -0.25759131 0.42869201
-0.01439869 -0.27725971 0.42646921
0.109324 -0.37113911 0.4215638
-0.080938458 -0.1361454 0.45495439
-0.091060072 -0.19118939 0.58537978
-0.072360367 -0.192913 0.42649299
-0.094270714 -0.135819 0.52348912
-0.093791403 -0.1702902 0.54028612
-0.073836148 -0.30241409 0.4282153
-0.093126297 -0.30004469 0.54162687
-0.1021017 -0.42384249 0.64009643
0.026723379 -0.12926 0.63609552
-0.02241713 -0.12981769 0.42984739
-0.090212263 -0.36999309 0.64142817
-0.0041877031 -0.135336 0.44789979
0.038648311 -0.1378715 0.42930761
-0.090670377 -0.14034911 0.45927709
-0.099214971 -0.2292615 0.47299951
-0.090033859 -0.1337554 0.43214771
-0.03053844 -0.1339737 0.54038692
-0.05863231 -0.1344381 0.57727963
0.087934911 -0.1512107 0.43629599
0.06838119 -0.1377012 0.45979029
0.092393577 -0.32893091 0.43450889
0.04264361 -0.3718937 0.42800719
0.028060731 -0.1318344 0.58197582
0.0031028991 -0.1331649 0.63441539
-0.094480127 -0.1608814 0.4938072
-0.068225652 -0.13131601 0.64148891
-0.082657099 -0.23243091 0.40753719
-0.098281197 -0.2818377 0.4745824
-0.095287561 -0.21434461 0.43285361
-0.096723258 -0.30741951 0.61234438
-0.1021495 -0.37310189 0.51586998
-0.098371543 -0.25205171 0.546682
-0.096542329 -0.26908839 0.4396342
-0.087525159 -0.2097023 0.43401381
-0.091828912 -0.36515599 0.47587621
-0.1012595 -0.169526 0.47650099
-0.1011967 -0.2660189 0.53795183
-0.103469 -0.31391251 0.57049829
0.1007625 -0.13269231 0.4645794
-0.001556695 -0.1353154 0.60153472
-0.095528327 -0.2340809 0.53129637
0.017810941 -0.1338754 0.4295111
-0.0057276492 -0.1325676 0.481902
0.002157867 -0.13528191 0.55396742
-0.04752335 -0.1492977 0.42784849
-0.096105747 -0.1488048 0.64939708
-0.034624401 -0.1363402 0.52740502
0.040519599 -0.1322505 0.46188661
0.09050858 -0.1353337 0.57586563
0.088871181 -0.1202228 0.56431091
0.086804509 -0.2615239 0.4327327
-0.099053711 -0.31381649 0.4437449
-0.081721753 -0.3173629 0.42390579
-0.052441031 -0.40786701 0.42039719
0.1139453 -0.14878049 0.42669329
0.06697005 -0.1577813 0.4271245
-0.076361522 -0.3204082 0.42480251
-0.081684619 -0.208593 0.42207551
-0.058547009 -0.39249051 0.4179092
-0.074855059 -0.1901027 0.42696029
-0.093342103 -0.29090399 0.42605391
-0.083290428 -0.16448539 0.42649329
0.1046197 -0.14871 0.42996469
-0.082316883 -0.42285541 0.41663671
0.1051341 -0.1358273 0.44112971
0.1168568 -0.1319513 0.62560052
0.039387971 -0.1306126 0.58401233
0.094550587 -0.1417217 0.42667279
-0.079900853 -0.25151399 0.4245396
-0.068084411 -0.1453052 0.42516249
0.08987242 -0.13578419 0.42809609
-0.075019307 -0.2261942 0.42265609
-0.01496114 -0.13109531 0.56081229
-0.0099329352 -0.1320643 0.59282869
-0.081802219 -0.37993321 0.41863579
0.09820579 -0.1328962 0.50905192
-0.0609194 -0.1341532 0.47050509
-0.080067188 -0.1973649 0.42545
0.1189433 -0.13395029 0.50594687
-0.1366764 -0.43038839 0.31306931
-0.082853884 -0.32394359 0.42135829
-0.060825061 -0.19503359 0.4253518
-0.062103812 -0.1524518 0.42546809
-0.20586289 -0.43192121 0.43093619
0.1243813 -0.1510607 0.4268899
-0.01267134 -0.4036153 0.42178231
0.1263027 -0.1925047 0.43290281
0.1052637 -0.196189 0.42748651
0.103068 -0.1350963 0.58312172
0.080604292 -0.1349199 0.4312939
0.096690521 -0.1333466 0.47284561
0.067601733 -0.13401601 0.48236009
-0.03583369 -0.13316581 0.63079822
-0.088466719 -0.1869089 0.42335999
-0.06230465 -0.1354551 0.6102069
-0.093182497 -0.2113747 0.42966959
-0.078970857 -0.13298079 0.50279349
-0.05938169 -0.39529371 0.4046315
-0.085765667 -0.39855191 0.42285079
0.1162477 -0.1666088 0.42990121
-0.056399569 -0.1334694 0.63984942
0.07158263 -0.1366253 0.4608767
0.1198519 -0.1332081 0.60830963
0.1017559 -0.1548623 0.42210001
-0.052380372 -0.43107501 0.2026615
-0.23153719 -0.43208429 0.32825011
0.060885709 -0.1342767 0.42423671
0.1221423 -0.1346665 0.56621128
0.1021591 -0.13186359 0.63946301
0.05756776 -0.1302696 0.62637001
0.066533342 -0.1329508 0.63835472
-0.085510723 -0.138552 0.63743627
-0.071271509 -0.1298712 0.5058279
-0.05336415 -0.1326019 0.56251347
-0.05512403 -0.13130569 0.48720321
0.1227378 -0.16259509 0.42385641
0.1228742 -0.13854361 0.60167599
0.08363539 -0.1315859 0.44063419
0.1203332 -0.15431321 0.42800081
0.076960012 -0.1340137 0.47520179
0.1207289 -0.1370772 0.42810199
0.1061457 -0.1373354 0.4816153
0.081218392 -0.129609 0.62582272
0.1175232 -0.2301185 0.42378241
0.083678417 -0.1326766 0.54781878
-0.058332808 -0.1331909 0.54559052
-0.0094312727 -0.1273405 0.55894941
-0.084389001 -0.1777384 0.42365089
-0.064537898 -0.1336472 0.47890201
-0.085863963 -0.12691011 0.49929121
-0.089323387 -0.13414159 0.476576
-0.025567161 -0.130769 0.51009071
-0.089555137 -0.1309302 0.54312992
-0.088295966 -0.128538 0.53783947
-0.03234151 -0.13742059 0.50601399
-0.09349478 -0.39439559 0.44421139
-0.019724321 -0.38391209 0.42167211
0.1213661 -0.1412777 0.55066699
0.053491261 -0.13755129 0.469001
0.071148023 -0.1361704 0.56587613
0.08096157 -0.1290011 0.57574981
0.06746006 -0.1346378 0.59182781
0.1199499 -0.201314 0.42605391
-0.03827098 -0.1383878 0.5435859
-0.093215451 -0.1348047 0.46321169
0.070294507 -0.1742745 0.42366159
-0.095376737 -0.16282719 0.42220259
0.1132495 -0.1908631 0.42462751
0.05846769 -0.13907801 0.5769816
-0.08833658 -0.17128479 0.4269025
-0.082005948 -0.1542272 0.4297328
-0.008737877 -0.1318951 0.64460772
-0.099982977 -0.42580059 0.63659072
0.01742127 -0.1315272 0.64802361
-0.018314211 -0.13397761 0.64994371
0.03093374 -0.2734459 0.64907199
0.12548959 -0.2095515 0.64571768
0.1220316 -0.25948119 0.64309973
0.065817393 -0.41251871 0.64909738
-0.047682639 -0.1739468 0.64919102
-0.02738158 -0.15951771 0.64994389
0.01188851 -0.146815 0.6471259
-0.091662169 -0.27434739 0.64643681
0.1035243 -0.1328555 0.5918836
-0.095935032 -0.38739169 0.64040041
0.02913416 -0.14968739 0.64899838
-0.085023239 -0.36854991 0.6448189
0.035392709 -0.1947473 0.64917088
-0.02205083 -0.21246471 0.64689219
0.1217297 -0.32743359 0.64301813
-0.070965879 -0.21049149 0.64976603
0.042403441 -0.21138079 0.64934498
-0.05699306 -0.1367953 0.42510211
0.006220005 -0.128388 0.64356279
0.1209997 -0.3685593 0.64668381
-0.071079858 -0.2275106 0.64893001
-0.071157038 -0.1868612 0.64813328
-0.069972053 -0.30034709 0.64909512
-0.078249373 -0.2196736 0.64924532
-0.016175799 -0.1320235 0.44748971
-0.0354275 -0.13535631 0.43271229
-0.051639918 -0.13315611 0.58857012
-0.091729842 -0.13808949 0.64415199
-0.043361001 -0.3162412 0.64897919
-0.085069962 -0.3565976 0.6492604
-0.086967804 -0.28649101 0.64969587
-0.061977681 -0.2372146 0.64859641
0.12609451 -0.25375551 0.64504158
0.12522811 -0.2703687 0.64702672
-0.03417654 -0.28713661 0.64835417
0.1234957 -0.3669889 0.6474191
-0.037414249 -0.1361091 0.64669508
-0.073634692 -0.1609288 0.64980549
0.1245157 -0.1347426 0.55370098
0.086047187 -0.1369655 0.49525431
0.1238861 -0.133993 0.59012079
0.067006961 -0.13058519 0.63401753
0.070889339 -0.1357604 0.43387571
0.11447 -0.1318545 0.45407239
0.123882 -0.13838729 0.51104617
-0.022344381 -0.279295 0.64880317
-0.0084944814 -0.17019591 0.64685702
0.1244963 -0.30278569 0.64705312
-0.02350557 -0.3027786 0.64993602
-0.01918989 -0.16801821 0.64609218
-0.037975881 -0.2546767 0.64782012
-0.058768231 -0.1797699 0.64647591
-0.091081187 -0.1329422 0.60121691
-0.03457484 -0.13353211 0.62894708
-0.037947752 -0.1322245 0.61627603
-0.056463461 -0.2865437 0.64923161
-0.055907469 -0.3136262 0.64683259
0.084116489 -0.1359309 0.64962572
0.1181706 -0.1381347 0.64775848
-0.00757926 -0.31737989 0.64997321
-0.01332681 -0.1964716 0.64951187
-0.02083816 -0.1858459 0.64962572
0.066982821 -0.23019931 0.64771032
-0.054558199 -0.1322089 0.64386111
-0.086236142 -0.3234328 0.64835209
0.024912911 -0.1353513 0.64928162
0.0031862999 -0.2380124 0.64862841
-0.069798402 -0.1570444 0.64653999
0.03096791 -0.15106741 0.64789248
-0.060441639 -0.1441682 0.64741439
-0.069259137 -0.31601599 0.64958578
-0.033645589 -0.1455725 0.64654732
-0.00072819373 -0.1572178 0.64831018
-0.071031108 -0.33982071 0.64759171
0.0081871971 -0.19018941 0.64746422
0.087877847 -0.42600721 0.64978433
7.8622252e-05 -0.42975831 0.64895952
0.08357586 -0.1306797 0.62673467
0.098604187 -0.1315672 0.62988353
0.1232081 -0.20680261 0.64482969
0.089114793 -0.2356267 0.64612508
0.12978411 -0.13363419 0.48215801
-0.064436831 -0.22000641 0.64695519
0.0054007922 -0.22268149 0.64940149
-0.028997039 -0.2929942 0.6490888
-0.01043803 -0.1613481 0.64899749
-0.052248958 -0.2421672 0.64851618
-0.064369969 -0.32681799 0.64993942
0.02173385 -0.18891039 0.64918268
-0.035324339 -0.2217982 0.64851773
-0.05294209 -0.2013187 0.64757842
0.0096468292 -0.13643581 0.64426571
-0.0064635952 -0.15699729 0.6445539
-0.0032238769 -0.17791291 0.64725018
0.025900049 -0.1771933 0.64800519
-0.080444843 -0.1947488 0.64941442
-0.1019129 -0.32092449 0.63366348
0.1114197 -0.1359175 0.44476199
-0.0022279581 -0.26581511 0.644463
0.049555451 -0.1325392 0.64578718
-0.01288899 -0.17444199 0.64528018
-0.033341691 -0.15706401 0.6453613
-0.064366207 -0.25439289 0.64863592
-0.027655549 -0.23466609 0.64646143
0.1229763 -0.34989879 0.64823967
0.01129434 -0.1682145 0.64896393
-0.032577518 -0.41413459 0.64985597
0.063330613 -0.29859179 0.64900482
-0.025280461 -0.13445251 0.5573464
-0.0094963573 -0.146328 0.64332008
-0.071165822 -0.2130605 0.64958668
-0.1035386 -0.4289346 0.62943119
-0.069857933 -0.2658439 0.64865589
0.1246763 -0.1345343 0.64509588
0.016051911 -0.19782659 0.6497339
0.03225898 -0.19133949 0.64893818
0.029108969 -0.2746585 0.64964533
0.1227248 -0.26913401 0.64957899
-0.02054242 -0.14677811 0.64545041
-0.04627306 -0.2186977 0.64910883
0.1157075 -0.26503709 0.64821899
0.04963785 -0.22540189 0.64826632
0.054742999 -0.42906499 0.64931887
-0.098898403 -0.1339047 0.59833437
0.1094853 -0.1897582 0.64697582
-0.092087626 -0.39181179 0.64490157
-0.031101931 -0.25177819 0.64701039
-0.089747407 -0.42632249 0.64858341
-0.081125267 -0.2061165 0.64759183
-0.084175467 -0.2945258 0.64645749
-0.0096449256 -0.1302802 0.6489715
-0.023487121 -0.1366204 0.64981842
0.1211761 -0.364521 0.6439997
-0.01416573 -0.1923517 0.64703351
-0.043746479 -0.26769689 0.64519602
-0.022388229 -0.2084526 0.64949417
-0.02007889 -0.1641874 0.64743513
-0.02905675 -0.15711699 0.64587802
-0.046050861 -0.29775581 0.64929241
-0.02596022 -0.42547181 0.64918852
0.087508842 -0.22185791 0.64935797
-0.065955549 -0.2882928 0.64961851
-0.009069737 -0.1660196 0.64699203
-0.0072973971 -0.1532573 0.64697498
-0.033895969 -0.1421763 0.64898372
-0.03417198 -0.2597869 0.64876252
-0.047024619 -0.27115509 0.64807308
-0.081453711 -0.2463271 0.64917117
0.01429546 -0.1696143 0.64791763
0.060209829 -0.2101416 0.64868951
-0.04709943 -0.25665829 0.64750922
0.02116717 -0.2079086 0.64822602
0.0073055588 -0.1862615 0.64873302
-0.0050091152 -0.1850272 0.6474843
-0.0056433678 -0.228654 0.6486342
0.01508656 -0.19460361 0.64765298
0.06617149 -0.2264671 0.64856648
-0.086569071 -0.35426691 0.64991999
-0.017637391 -0.158191 0.64930111
-0.084702849 -0.36569849 0.64865398
0.029905319 -0.1469195 0.64827353
0.05843541 -0.1842936 0.64975882
-0.065618709 -0.25086221 0.64881259
-0.001754649 -0.1535197 0.6463334
-0.0110808 -0.1583239 0.64871222
-0.043868698 -0.25560611 0.64718223
-0.090743527 -0.27565351 0.64969963
