# .PCD v0.7 - Point Cloud Data file format
VERSION 0.7
FIELDS x y z normal_x normal_y normal_z curvature
SIZE 4 4 4 4 4 4 4
TYPE F F F F F F F
COUNT 1 1 1 1 1 1 1
WIDTH 576
HEIGHT 1
VIEWPOINT 0 0 0 1 0 0 0
POINTS 576
DATA ascii
0.033383198 -0.13556895 0.44077107 -0.0083518093 0.7032361 -0.71090734 0.072786838
0.051150244 -0.13471851 0.44629866 -0.023721531 0.78799021 -0.61523068 0.075507216
0.068070397 -0.13501629 0.44330728 0.032425769 0.73770988 -0.67433876 0.10259584
0.070367195 -0.13510652 0.44356731 0.058384065 0.71847367 -0.6930995 0.10670403
0.087085515 -0.13531645 0.44176683 0.18804644 0.73603255 -0.65030354 0.12016362
0.1027866 -0.13697191 0.44482014 0.36692622 0.7378819 -0.56647629 0.13829015
0.11103234 -0.13720542 0.44557419 0.45645973 0.7251603 -0.51554537 0.13597392
0.13696593 -0.13651811 0.44514921 0.66191965 0.66105348 -0.35337061 0.11009272
-0.10211676 -0.43684256 0.45753053 -0.85225147 -0.45825785 -0.25232351 0.083616003
-0.096926622 -0.43689993 0.45512912 -0.79188812 -0.54191446 -0.28149951 0.095063135
-0.08091633 -0.43547878 0.45529503 -0.5832954 -0.77025747 -0.25781783 0.12053735
0.02003294 -0.43731391 0.4512361 -0.0020786095 -0.99996537 -0.0080575943 0.0014206872
0.052216832 -0.43731391 0.45335039 0.0026215755 -0.99994427 -0.010225712 0.0012755084
0.06838119 -0.43731391 0.45979029 0.062391676 -0.99781263 -0.021845708 0.02094603
0.070123732 -0.43731391 0.45999649 0.075207718 -0.99621928 -0.043485846 0.026648859
0.11446193 -0.43707442 0.45408863 0.29416895 -0.93915743 -0.17733592 0.11380944
0.12861882 -0.43656287 0.45189252 0.48849082 -0.8222909 -0.29191515 0.14511982
0.13297525 -0.43726182 0.45642817 0.48209921 -0.85142481 -0.20653369 0.13170339
-0.09893842 -0.38856453 0.45607468 -0.9521783 -0.11235304 -0.28413615 0.04260068
-0.09922336 -0.32854605 0.45207894 -0.96530485 0.00027643799 -0.26112559 0.029303139
0.13198991 -0.30346245 0.4581978 0.97068787 0.011847269 -0.24005161 0.041547403
0.13282192 -0.29243287 0.45883104 0.97250742 0.032390207 -0.23060843 0.037784703
-0.098410681 -0.28675842 0.4547931 -0.97344589 0.031022634 -0.22680551 0.032183327
0.13282144 -0.28725895 0.45711243 0.96362495 0.072581679 -0.25721368 0.044333465
0.13083977 -0.26573917 0.45117345 0.93788266 0.10205796 -0.33160272 0.054690845
0.13153465 -0.25084314 0.45802048 0.93266875 0.11198522 -0.34291157 0.066065729
-0.097037986 -0.24529274 0.45312959 -0.89942831 0.038770515 -0.43534532 0.091512382
0.13119909 -0.23779997 0.45287931 0.90852803 0.09111809 -0.40776744 0.075650804
0.1357491 -0.2298062 0.45593241 0.92284912 0.060047638 -0.38045216 0.069422752
-0.098166175 -0.21306701 0.45468521 -0.91261971 -0.0099919885 -0.40868735 0.077601172
0.13189705 -0.19253451 0.45879024 0.89403307 0.13061988 -0.42853633 0.087183952
-0.097449198 -0.17170009 0.45674458 -0.91135615 0.23770657 -0.33604404 0.085821815
-0.096969031 -0.16530101 0.45700756 -0.89472121 0.30976084 -0.32174852 0.089159273
-0.094968267 -0.15453179 0.45441833 -0.82418734 0.43175855 -0.36646935 0.10412952
-0.092605501 -0.14735137 0.45696589 -0.76661235 0.53821838 -0.35018063 0.10627911
-0.08880543 -0.1416267 0.45903027 -0.73003578 0.59434772 -0.33734038 0.10923655
-0.084700793 -0.13835323 0.45586446 -0.64392728 0.6794728 -0.35167363 0.11213748
0.020171622 -0.13557142 0.45136544 -0.031510558 0.79073972 -0.611341 0.079714425
0.052207764 -0.13438001 0.45333093 -0.035108101 0.81987876 -0.57145983 0.075759314
0.11379699 -0.13672246 0.45462444 0.49335724 0.74986303 -0.44079942 0.12303889
0.13273302 -0.137758 0.45274299 0.702555 0.61955541 -0.35009655 0.11072879
-0.10223605 -0.43644845 0.46312729 -0.8548075 -0.45939386 -0.24137408 0.082749128
-0.097400397 -0.43677095 0.4649491 -0.80636692 -0.54583663 -0.22767279 0.09172485
-0.08883778 -0.43692011 0.46569517 -0.68171388 -0.70026553 -0.21188287 0.10341685
-0.074161351 -0.43714651 0.46967602 -0.56908464 -0.79555249 -0.20793965 0.10206676
-0.062464043 -0.43731391 0.46591175 -0.43109015 -0.87852967 -0.20578378 0.10001823
0.033371549 -0.43731391 0.4632484 -0.0025916758 -0.99996513 -0.0079445299 0.0012753383
0.040519599 -0.43731391 0.46188661 -0.0037922575 -0.99995232 -0.0090041943 0.0013797199
0.053491261 -0.43731391 0.469001 0.0022560116 -0.9999541 -0.0093100872 0.0012264923
0.064545095 -0.43731391 0.46548495 0.062391676 -0.99781263 -0.021845708 0.02094603
0.071956471 -0.43731391 0.4616991 0.078933932 -0.99585032 -0.045295116 0.02817657
0.10103905 -0.43731391 0.46668833 0.18848513 -0.97589427 -0.11001728 0.077476524
0.12868896 -0.4358651 0.4630186 0.40126637 -0.90075314 -0.16622002 0.11488287
-0.099947207 -0.41660139 0.46496919 -0.90239441 -0.34580132 -0.25711051 0.078363687
0.13272519 -0.4141764 0.46792009 0.93288153 -0.31100443 -0.18168204 0.11051754
0.1354861 -0.40977034 0.46433994 0.93319637 -0.31134048 -0.17947613 0.11547234
-0.099776149 -0.38809651 0.46615613 -0.96436554 -0.1112837 -0.24003141 0.036834843
-0.098637111 -0.36519158 0.46465844 -0.97722781 -0.038535893 -0.20866431 0.02976873
-0.10006735 -0.35546401 0.46967304 -0.97083902 -0.021182848 -0.23879479 0.016859109
-0.099583641 -0.35995722 0.46855742 -0.97167039 -0.017485991 -0.23569228 0.015930945
-0.10129397 -0.33267802 0.46562335 -0.98035896 -0.02436322 -0.19571105 0.021402149
0.13314253 -0.33775553 0.46128622 0.9781701 -0.057488594 -0.19969587 0.040234268
-0.099689476 -0.31219357 0.46603742 -0.98115063 0.038883798 -0.18929236 0.024734583
-0.099269122 -0.29813206 0.46564931 -0.97977245 0.062584318 -0.19007684 0.027125044
0.13277109 -0.2853159 0.46768802 0.97860008 0.057438262 -0.19759245 0.034894697
-0.1003173 -0.27852595 0.46243152 -0.97734326 0.042411998 -0.20736806 0.037723243
-0.098723553 -0.2782712 0.46671137 -0.98092467 0.048970804 -0.18811901 0.034615461
0.13209738 -0.26108199 0.46456763 0.96219563 0.10598385 -0.25089243 0.047131225
0.13229734 -0.25316182 0.4658286 0.96120733 0.078666903 -0.26437101 0.056779556
-0.098400995 -0.2458102 0.46504056 -0.95532823 0.058991559 -0.28959957 0.062563919
-0.098777518 -0.21761945 0.46035683 -0.94592077 -0.02897406 -0.32310137 0.070323654
0.13184495 -0.19127779 0.46065673 0.90084118 0.14228652 -0.41017032 0.08988975
0.12883522 -0.18369517 0.46196884 0.88627058 0.20717454 -0.41425017 0.10347085
0.13190152 -0.175258 0.46605158 0.88262641 0.29262635 -0.36788666 0.10410967
-0.094827205 -0.15694359 0.4657003 -0.86813569 0.41175631 -0.277123 0.090499744
-0.091484025 -0.14579765 0.46365169 -0.78048486 0.54292637 -0.30995855 0.10412218
-0.087310463 -0.14050695 0.46270677 -0.70907599 0.62696844 -0.3226791 0.11049289
-0.086322501 -0.13986547 0.46541929 -0.71249056 0.62794662 -0.31311378 0.10922601
-0.07424701 -0.13646372 0.4696683 -0.51847506 0.81425399 -0.26110181 0.10501221
-0.062185582 -0.13471209 0.46592802 -0.3490077 0.90383971 -0.24752252 0.095160604
0.032960344 -0.13487077 0.46308619 -0.027003413 0.85940039 -0.51058972 0.071641862
0.040468656 -0.13460904 0.46196991 -0.039852615 0.85870665 -0.51091564 0.071384996
0.05351432 -0.135142 0.4691028 -0.037629835 0.92081779 -0.38817346 0.067181505
0.065763213 -0.13484114 0.46374166 0.02717643 0.90204108 -0.43079391 0.095515959
0.072887957 -0.13498206 0.46335113 0.098954685 0.8810457 -0.46256509 0.10653546
0.1011356 -0.1353969 0.46671522 0.37496036 0.84431797 -0.38279474 0.11422476
0.13117728 -0.13644911 0.46932492 0.75155401 0.6050204 -0.26290077 0.097795196
-0.09672299 -0.43368936 0.47444299 -0.79815155 -0.57233441 -0.18811572 0.096295014
-0.086807407 -0.43670809 0.47423521 -0.69624472 -0.69679457 -0.17239678 0.10019586
-0.063071594 -0.43731391 0.47551313 -0.41983548 -0.89905626 -0.12424186 0.08805345
-0.02407855 -0.43731391 0.47401088 -0.028407531 -0.99920237 -0.028064964 0.0068319924
-0.01782316 -0.43731391 0.4773044 -0.017253811 -0.99946278 -0.027864693 0.0060618292
0.01877713 -0.43731391 0.4711833 -0.0026942042 -0.99996585 -0.0078124464 0.0013159665
0.032415312 -0.43731391 0.47467253 -0.0042709978 -0.99995267 -0.0087419301 0.0013454828
0.048349019 -0.43731391 0.4785015 -0.0016480259 -0.99997354 -0.0070904335 0.0013431933
0.07712739 -0.43731391 0.47270164 0.079574853 -0.99671429 -0.015116538 0.021181092
0.088348977 -0.43731391 0.47373959 0.096649244 -0.99462432 -0.037167143 0.028186303
0.096690521 -0.43731391 0.47284561 0.12725995 -0.99095732 -0.042526368 0.045094233
0.11221926 -0.4369992 0.47851205 0.2878409 -0.95760405 -0.011923515 0.09561938
0.12792939 -0.43480951 0.47453645 0.50852859 -0.8595686 -0.050403245 0.120327
0.13180077 -0.42196539 0.47477236 0.90566033 -0.39324203 -0.1585563 0.11554518
-0.10135386 -0.41598356 0.47556162 -0.90474981 -0.37331313 -0.20509768 0.075968027
-0.099745698 -0.39003909 0.47007981 -0.96466911 -0.12521105 -0.23180969 0.042786632
-0.098906942 -0.36522201 0.47696149 -0.97882366 -0.028974639 -0.20264418 0.01909684
0.13029513 -0.36552656 0.47963029 0.99145377 -0.049715303 -0.12061437 0.02734117
0.13172533 -0.3450408 0.47216868 0.98630637 -0.051393062 -0.15671159 0.031281494
-0.10200308 -0.33689225 0.47646278 -0.98649418 -0.0019428395 -0.16378489 0.01555342
0.13264082 -0.33857474 0.47240168 0.99069703 -0.038438182 -0.13054506 0.022072259
-0.10106353 -0.3225219 0.47457123 -0.98811406 0.011516479 -0.1532905 0.016816275
-0.10035697 -0.3100394 0.47519526 -0.98774314 0.046961151 -0.14885613 0.018536918
-0.10028304 -0.30731761 0.47777966 -0.98669112 0.052415226 -0.1539261 0.021201044
-0.099784233 -0.29260895 0.47577038 -0.98329884 0.071779095 -0.16724575 0.024732551
-0.099135652 -0.28132403 0.47346699 -0.98567802 0.043473288 -0.16293837 0.027227258
-0.098961934 -0.27892986 0.47208542 -0.9846437 0.043613452 -0.16904029 0.028257867
0.13264722 -0.2767396 0.47714692 0.98297054 0.078964487 -0.1659324 0.028017009
-0.099149711 -0.24269868 0.4706994 -0.97649437 0.038260058 -0.21212009 0.039951023
-0.10049275 -0.22316298 0.47911498 -0.98457521 -0.017808888 -0.17405315 0.032741915
-0.099701904 -0.22928849 0.4729403 -0.97504127 -0.0076681091 -0.22189149 0.047410849
-0.10073956 -0.21795745 0.4748086 -0.97909844 -0.019129703 -0.20248544 0.038102847
0.13187939 -0.21385773 0.47749758 0.96182626 -0.018046927 -0.27306509 0.060402095
0.13102476 -0.20456149 0.47367796 0.96482211 0.037686475 -0.26018858 0.058888845
-0.096685126 -0.17014849 0.4761835 -0.94387215 0.2565144 -0.20810044 0.065863468
-0.096232802 -0.16851521 0.47972506 -0.94326842 0.26731837 -0.19694062 0.064896509
0.13200691 -0.16859201 0.47212878 0.88311768 0.35947868 -0.30146009 0.098817654
-0.086970486 -0.14071171 0.47646609 -0.75783843 0.61551052 -0.21639721 0.095417082
-0.084293775 -0.13871029 0.47191796 -0.67694789 0.69660807 -0.23765267 0.10100109
-0.063354939 -0.13426158 0.47551414 -0.36075935 0.91269094 -0.19195813 0.087933339
-0.024238525 -0.13496503 0.47386095 -0.0099629341 0.96650571 -0.25645143 0.059411805
-0.017658385 -0.13540068 0.4767417 0.038082071 0.96431726 -0.26199609 0.058797278
0.018771274 -0.13551465 0.47114959 -0.043108866 0.9065451 -0.419902 0.065472655
0.033246972 -0.13542682 0.47459549 -0.038354218 0.92542899 -0.37697503 0.060748965
0.048349001 -0.1352973 0.47834352 -0.038805593 0.95643401 -0.28935817 0.058132872
0.076945297 -0.13485782 0.47524461 0.086119168 0.96237379 -0.25772119 0.08106181
0.088355877 -0.13501231 0.47371235 0.24362627 0.92022341 -0.30632526 0.099474534
0.096608698 -0.13514178 0.47253951 0.32331091 0.88968402 -0.32238558 0.10447046
-0.10127637 -0.43369037 0.48436755 -0.83583325 -0.53613263 -0.11808743 0.08137881
-0.095649257 -0.43516991 0.48481429 -0.72987288 -0.67558551 -0.10425872 0.084502667
-0.081371874 -0.43695971 0.48180163 -0.61310625 -0.77894604 -0.13169576 0.093538217
-0.05512403 -0.43731391 0.48720321 -0.30555582 -0.95138943 -0.038650781 0.059008244
-0.03716052 -0.43731391 0.4817065 -0.084345631 -0.99579626 -0.035717189 0.018349379
-0.02429134 -0.43731391 0.48322141 -0.024311012 -0.99937212 -0.02577693 0.0063531189
-0.016551079 -0.43731391 0.48806369 -0.0010543981 -0.99997777 -0.0065879766 0.0010160404
-0.0057276492 -0.43731391 0.481902 4.9233891e-05 -0.9999764 -0.0068693799 0.0010798513
0.02618158 -0.43731391 0.4873367 -0.0045484276 -0.99996042 -0.0076447553 0.0011639835
0.039981011 -0.43731391 0.48219639 -0.005228587 -0.99995351 -0.0081032244 0.0012275095
0.067601733 -0.43731391 0.48236009 0.057967693 -0.99831772 0.0012217319 0.012193649
0.10732037 -0.43709663 0.48546398 0.23036711 -0.97299343 0.014659935 0.078701623
0.12813388 -0.43594229 0.48513871 0.55785817 -0.82944494 -0.028555959 0.1115812
-0.10001465 -0.42718461 0.48580915 -0.82823914 -0.5462389 -0.12507252 0.081279695
0.13079464 -0.42452201 0.48621082 0.87662697 -0.47309834 -0.087767765 0.11080946
-0.10236853 -0.41527873 0.48490676 -0.92691153 -0.35146442 -0.13155927 0.06360203
-0.098426066 -0.37623101 0.4847455 -0.98540235 -0.080695592 -0.14990143 0.025031969
0.13207658 -0.34525564 0.48809835 0.99289322 -0.039468698 -0.11227338 0.019426093
-0.10278706 -0.33726048 0.48358417 -0.99176335 0.01137154 -0.12757844 0.010103072
-0.10117984 -0.32398316 0.48619023 -0.99398434 0.021386461 -0.10741406 0.0084539233
-0.10045857 -0.30350429 0.48181522 -0.98925126 0.051749121 -0.13676251 0.018266795
-0.099553406 -0.28489196 0.48417181 -0.98951012 0.053819779 -0.13406412 0.02062789
-0.099087439 -0.27899787 0.48000079 -0.98767292 0.047325715 -0.14920639 0.026246699
-0.1004117 -0.2491228 0.4859871 -0.98794562 0.044781063 -0.14818271 0.026018977
-0.099835485 -0.22315975 0.48152128 -0.98804784 -0.0096129617 -0.15384744 0.027525503
0.12966265 -0.21177308 0.48229867 0.96752864 -0.011195376 -0.25251338 0.056443967
0.13260902 -0.18070854 0.48522365 0.96151304 0.22667372 -0.1552797 0.061052103
-0.096472606 -0.17080711 0.48406506 -0.96059173 0.23654164 -0.14598484 0.051443812
0.13215448 -0.17299397 0.48291278 0.92961633 0.31904939 -0.18444791 0.07723441
-0.096241236 -0.16817403 0.48292527 -0.95058769 0.26389706 -0.16352776 0.058467731
0.13194981 -0.16665758 0.48895258 0.9242034 0.3535009 -0.1445175 0.074089155
-0.095907442 -0.1574091 0.4888441 -0.92677915 0.362039 -0.10004103 0.06148066
-0.081538796 -0.1360597 0.48175606 -0.6042763 0.78308874 -0.14704514 0.086213402
-0.054772027 -0.13252437 0.48719999 -0.29180244 0.94996762 -0.1114134 0.067823246
-0.037095461 -0.13190156 0.48398122 -0.1421352 0.97942007 -0.14329694 0.047823425
-0.024410084 -0.13295913 0.48338366 -0.027487565 0.98230118 -0.18528055 0.046931196
-0.016334359 -0.13355455 0.48760378 -0.0036434308 0.98037237 -0.19712131 0.036949694
-0.0057941712 -0.13565058 0.48325455 -0.0034692979 0.9685865 -0.24865286 0.056330532
0.026127573 -0.13617308 0.48724294 -0.031389318 0.97804862 -0.20599909 0.041657135
0.040374827 -0.13596092 0.48264533 -0.039207399 0.96509743 -0.25893986 0.0487637
0.067598492 -0.13454665 0.48238811 0.074917436 0.97193944 -0.22298242 0.069509432
0.10748417 -0.13493937 0.48528901 0.43803254 0.88546342 -0.15518394 0.087737337
0.12651683 -0.13412556 0.4830305 0.69510233 0.70566785 -0.13735221 0.078637555
-0.096859694 -0.4350459 0.49642321 -0.74242204 -0.66720831 -0.060353767 0.084259138
-0.085853808 -0.43697941 0.49929941 -0.5407995 -0.84059882 -0.030489085 0.088199042
-0.070023358 -0.43731391 0.49595979 -0.45807335 -0.88878375 -0.015240941 0.077067025
0.086047187 -0.43731391 0.49525431 0.090830907 -0.99586552 -0.0012844887 0.021381224
0.09827061 -0.43731391 0.49506706 0.16579935 -0.98604703 0.014896056 0.052280921
0.1038288 -0.43731391 0.4989154 0.25115088 -0.96766704 0.023319377 0.075625822
0.1315849 -0.4351756 0.49524516 0.84238225 -0.53704345 -0.044458661 0.094318062
-0.10227248 -0.41608277 0.49417514 -0.92553365 -0.37043247 -0.078531437 0.060152188
0.1308635 -0.41276851 0.49184409 0.96382546 -0.2546154 -0.07881283 0.075701959
-0.10273426 -0.39397559 0.49782562 -0.98905849 -0.12873048 -0.072053567 0.024152059
-0.10194317 -0.38700676 0.49803761 -0.99107426 -0.10925068 -0.076393783 0.02095953
0.13139935 -0.35960642 0.49715164 0.9956066 -0.013543908 -0.092650712 0.012825176
-0.10236902 -0.33232841 0.49635944 -0.99670899 0.024000356 -0.077427939 0.0032927499
0.13178912 -0.3336083 0.49840209 0.99659401 -0.041958321 -0.070992045 0.011449544
-0.10128652 -0.3236292 0.49476647 -0.99637371 0.025019385 -0.08132384 0.0045760227
-0.10063452 -0.30266261 0.49530932 -0.99534035 0.041317657 -0.087123625 0.010690658
-0.098853528 -0.20490158 0.49699679 -0.99562633 0.066964015 -0.065146051 0.010379354
-0.098158814 -0.19155407 0.49392569 -0.99143118 0.10657753 -0.075534321 0.018347837
-0.097472236 -0.18551469 0.49508783 -0.98844129 0.13416624 -0.070592366 0.023399213
0.13316657 -0.1893509 0.49887636 0.98717034 0.15572409 -0.035281878 0.029658863
-0.095769182 -0.1616109 0.49529427 -0.94192386 0.32941753 -0.065296583 0.056257583
-0.095716745 -0.15754059 0.4954609 -0.92498004 0.3753964 -0.05907255 0.058074225
0.13119709 -0.15394729 0.49309379 0.86676341 0.4858371 -0.11262134 0.076935448
-0.092942789 -0.14161868 0.49755746 -0.79554814 0.60584706 -0.0072495798 0.069129914
-0.095831297 -0.13736533 0.49450108 -0.83398902 0.55113912 -0.026609821 0.064028241
-0.070171647 -0.13405621 0.49541229 -0.51507545 0.85555071 -0.052251846 0.076022163
0.085992642 -0.13667122 0.495249 0.1962924 0.97429526 -0.11053531 0.046481226
0.096899368 -0.13537237 0.49344498 0.3549369 0.93022841 -0.093246996 0.067767225
0.10200926 -0.1349501 0.49837837 0.39183131 0.91715771 -0.072731525 0.060984999
-0.10223589 -0.43564808 0.50394672 -0.77944744 -0.62583572 -0.028131451 0.080675408
-0.096175693 -0.43640855 0.50582302 -0.69386917 -0.71881151 -0.0430764 0.087573387
-0.075121179 -0.43731391 0.50431073 -0.45315233 -0.89138216 -0.0095322579 0.083521463
-0.03234151 -0.43731391 0.50601399 -0.064884908 -0.99782819 -0.011352751 0.0081907678
0.024103699 -0.43731391 0.50821918 -0.00063945015 -0.9999994 -0.00094134512 7.5292191e-05
0.03916705 -0.43731391 0.50691271 0.00012747946 -1 -0.00025054143 5.8145328e-05
0.096977703 -0.43731391 0.50661457 0.18826298 -0.98174006 0.027269067 0.059560176
0.1166294 -0.43730736 0.50523514 0.59053308 -0.80454791 0.063034512 0.10021659
0.1294131 -0.43719709 0.50222725 0.80649185 -0.59075284 0.024124652 0.094036065
0.13211901 -0.4372988 0.50650465 0.79448318 -0.60596889 0.039978404 0.098917283
-0.10341252 -0.41244236 0.5052349 -0.95752084 -0.28637692 -0.033796664 0.058721293
-0.10320426 -0.40662906 0.50329345 -0.96809256 -0.2477264 -0.037795302 0.055075407
0.1311975 -0.36989501 0.50876319 0.99574476 -0.08752162 -0.028850865 0.017180489
0.13176322 -0.34276518 0.50362831 0.99927223 -0.017228756 -0.034031831 0.0027109771
-0.10256147 -0.33265224 0.50185072 -0.99845237 0.026119249 -0.049098942 0.0010066734
-0.10143936 -0.32293731 0.50071549 -0.99785495 0.02550306 -0.060292426 0.0019748546
-0.10156792 -0.31239566 0.50894654 -0.99882442 0.031258099 -0.037051167 0.0007250593
-0.10110759 -0.3080985 0.50264239 -0.99870294 0.030790167 -0.040552359 0.00095507246
-0.096008874 -0.28259221 0.5058794 -0.99805003 0.037878681 -0.049611557 0.0055044079
0.12895641 -0.27773529 0.50127208 0.99687207 0.034281865 -0.071210332 0.0089803543
0.13007697 -0.27572331 0.50786364 0.99957901 0.020138631 -0.020886319 0.0021392438
0.13090992 -0.25814167 0.50518161 0.99783814 0.022270679 -0.061831605 0.0063106767
0.13150713 -0.24070273 0.50904113 0.99957168 0.0048957556 -0.02885386 0.0030904512
0.13218476 -0.23365766 0.50618154 0.99880373 -0.0012464729 -0.048883896 0.00516717
0.13269135 -0.21627423 0.50833029 0.99940705 0.022712592 -0.025879195 0.0035867186
-0.0988065 -0.20511764 0.50060618 -0.99674726 0.063963808 -0.049026333 0.0077958629
0.13233139 -0.20441981 0.50962615 0.99403119 0.1073828 -0.019260498 0.015355356
-0.097659364 -0.19257027 0.50495517 -0.99256837 0.11805618 -0.029508514 0.011378869
-0.096732356 -0.18092757 0.50951767 -0.98113626 0.19297296 0.011533208 0.030274328
-0.096188806 -0.17153476 0.50578493 -0.96917105 0.24638046 0.0020062481 0.036262084
0.1330509 -0.17108519 0.50643623 0.96143049 0.27498609 -0.0058435728 0.04893472
-0.09566278 -0.16130883 0.50365561 -0.94458932 0.32825014 -0.0017105229 0.050579898
-0.095640473 -0.159152 0.50220895 -0.9275856 0.37358719 -0.0042036748 0.057766538
0.13026237 -0.14847778 0.50410956 0.83643085 0.54570043 -0.050936744 0.073784895
-0.092493922 -0.13786322 0.50558996 -0.78617096 0.61755425 0.023707803 0.072791941
-0.085186921 -0.13546969 0.5005703 -0.70371193 0.71042573 0.0092121437 0.076351643
-0.076351553 -0.13400844 0.50423616 -0.66490489 0.7466194 0.021470563 0.08533062
-0.03234151 -0.13742059 0.50601399 -0.20380381 0.97807705 -0.042770602 0.03823749
0.039044037 -0.134076 0.50673425 -0.0027620778 0.99978262 -0.020665765 0.00082118268
0.096988805 -0.13476747 0.50650752 0.32176486 0.94565797 -0.046888035 0.053544678
0.11567322 -0.13700318 0.50554341 0.56910098 0.82020694 -0.058177434 0.060477108
0.024311686 -0.12808198 0.50870419 -0.010031153 0.99984187 -0.014683676 0.0010349071
-0.10197861 -0.43336207 0.51335549 -0.82269663 -0.56794012 0.024786307 0.084768236
-0.095956556 -0.43530822 0.51544011 -0.72437793 -0.68894953 0.025002424 0.095419116
-0.088349015 -0.43682778 0.51442754 -0.53380871 -0.84554809 0.0098380996 0.10172591
-0.074667417 -0.43731391 0.5145548 -0.39646724 -0.9174279 -0.033761326 0.084633887
-0.03573883 -0.43731391 0.5169245 -0.1250262 -0.99206775 -0.013040385 0.026184749
-0.025567161 -0.43731391 0.51009071 -0.026318299 -0.99964964 -0.0028219649 0.0017566959
0.025222421 -0.43731391 0.51538211 -0.00013389789 -1 -0.00026543872 5.5513454e-05
0.032867432 -0.43731391 0.51248652 -7.7585237e-06 -1 -0.0002038269 7.19175e-05
0.1067445 -0.43731391 0.51597142 0.40536618 -0.91366524 0.029903285 0.095754847
0.12803082 -0.43730944 0.51261139 0.79491961 -0.6052295 0.042426739 0.098941855
0.13185854 -0.43731394 0.51563317 0.85776055 -0.50963432 0.067229047 0.087737389
-0.10323062 -0.39630663 0.51205081 -0.98612541 -0.16356561 -0.02833776 0.036822204
-0.10249173 -0.38154158 0.51038682 -0.99394166 -0.10167834 -0.04173125 0.02012443
-0.10231954 -0.37363815 0.51791298 -0.99704218 -0.067681529 -0.036416136 0.011126971
-0.10411759 -0.33687022 0.51365113 -0.99876308 0.028886918 -0.040470876 0.00067400309
0.13145275 -0.33687198 0.51208377 0.99996239 -0.0065376363 -0.0056995144 0.001238299
0.13148867 -0.32795998 0.51272482 0.99999988 0.00022617698 -0.00043901007 0.00094908878
-0.10111102 -0.30021334 0.51633036 -0.99895984 0.035555795 -0.028550245 0.00057831389
-0.098333307 -0.28208619 0.51333839 -0.99921411 0.032045469 -0.023330683 0.00061842531
-0.097703636 -0.27240393 0.51746011 -0.99934697 0.030723868 -0.019018978 0.00050371775
0.13100941 -0.26890916 0.51618189 0.99992752 0.009079149 -0.0079084365 0.001782628
0.13115796 -0.25026563 0.51326919 0.99985206 0.012171207 -0.012156211 0.0022281655
-0.095755093 -0.23535775 0.51954275 -0.99918747 0.038975637 -0.010262116 0.00060634449
0.13104473 -0.23563439 0.51126546 0.99984819 0.009663933 -0.014501233 0.0022503124
-0.099238239 -0.20699212 0.51595926 -0.99748868 0.070782557 -0.0024729343 0.0029016049
0.13185626 -0.20332086 0.51241922 0.99387038 0.11025821 -0.0080545023 0.026446003
-0.097918928 -0.19720793 0.51118535 -0.99481732 0.10115309 -0.010326261 0.0070776576
-0.096595228 -0.1827528 0.51535469 -0.98218566 0.18754989 0.011675907 0.028254479
-0.096042752 -0.17247026 0.51589161 -0.96457905 0.26250061 0.026091438 0.042494189
-0.095606148 -0.16671535 0.51923132 -0.95170045 0.30498663 0.035347622 0.050741475
-0.094753951 -0.15507045 0.51399112 -0.90786642 0.41731301 0.040353786 0.059319224
-0.093448535 -0.14771372 0.51928079 -0.83555222 0.54820311 0.03641307 0.069085106
0.1279999 -0.14132498 0.51919341 0.83445692 0.55103433 -0.0065449281 0.071144558
0.13383532 -0.14866211 0.51815528 0.89714164 0.44168895 0.0069112498 0.067997448
-0.090877891 -0.13914296 0.51566076 -0.75705451 0.65243191 0.034657974 0.078327492
-0.075070851 -0.1343876 0.5146054 -0.63773721 0.76970071 0.029190583 0.083224878
-0.035504945 -0.13890007 0.51695293 -0.2623651 0.96448916 -0.030417517 0.055469982
-0.025567161 -0.130769 0.51009071 -0.10184189 0.99446499 -0.025838928 0.01388158
0.024625001 -0.13442248 0.51399517 -0.0097022634 0.99984878 -0.014435844 0.00099200779
0.032767706 -0.13683744 0.51227593 -0.012641761 0.9997561 -0.018110866 0.00093320187
0.10671684 -0.13391724 0.51592147 0.42802629 0.90186942 -0.058523089 0.059673734
0.12309371 -0.13963792 0.51135713 0.72356576 0.68921882 -0.037817687 0.067738734
-0.10340411 -0.43284652 0.52324194 -0.80326021 -0.5953784 0.01725167 0.086371556
-0.09572234 -0.43507949 0.52314711 -0.7191332 -0.69389343 0.036869582 0.096407816
-0.085675754 -0.43701187 0.52090997 -0.58040011 -0.81424814 0.011652421 0.10198881
-0.078888573 -0.43722925 0.5235641 -0.49177253 -0.87070084 -0.0063127065 0.10038633
-0.064368129 -0.43731391 0.52416402 -0.29537824 -0.95492005 -0.029653927 0.076913275
-0.034624401 -0.43731391 0.52740502 -0.079461403 -0.99663347 -0.020191375 0.017434781
-0.01314205 -0.43731391 0.52962297 -0.00076776749 -0.99999964 -0.00036775891 6.7814537e-05
-0.0093886256 -0.43731391 0.52156419 -0.00068996259 -0.99999964 -0.00049278606 7.5123971e-05
0.017685469 -0.43731391 0.52143979 -0.00011059758 -1 -0.00027831623 6.1381477e-05
0.12687476 -0.43731394 0.52810585 0.83839631 -0.54373759 0.037961785 0.094811939
0.13178021 -0.43731394 0.52291757 0.80658352 -0.58556187 0.080872312 0.093872495
-0.1021075 -0.42451301 0.52697951 -0.84189093 -0.53946555 0.014021807 0.089098848
-0.10389993 -0.41017434 0.52955174 -0.94641757 -0.32226232 0.020994375 0.064487904
0.1295215 -0.41221011 0.52575159 0.94082808 -0.33576736 0.045857325 0.092142679
-0.10398647 -0.40395969 0.52364033 -0.96643347 -0.25691706 0.00011575965 0.06236561
-0.10365739 -0.39609373 0.52306914 -0.98713243 -0.15954967 -0.010658069 0.03706805
0.13138133 -0.37521383 0.52162015 0.99561346 -0.091614425 -0.018990802 0.019268217
0.13108243 -0.36915773 0.52887225 0.99723488 -0.074314587 0.000225211 0.014031797
-0.10037698 -0.29349571 0.52308083 -0.99896538 0.040073436 -0.021502873 0.00046967925
0.13325058 -0.28117371 0.52585465 0.99999017 0.0043498231 -0.00090165064 0.0015049357
-0.10012566 -0.27532461 0.5281353 -0.99939632 0.031411018 -0.014844825 0.00056397408
-0.09899763 -0.27354449 0.52205825 -0.99932706 0.031857405 -0.01818209 0.0004933629
-0.098330639 -0.25576749 0.52758825 -0.99935746 0.03263415 -0.014820214 0.00045724431
0.13111192 -0.25132391 0.52385247 0.99985075 0.017158817 -0.0020335882 0.0022080445
-0.095797628 -0.22836111 0.52328664 -0.99914616 0.040738449 -0.0068813888 0.00064708228
0.1260854 -0.22175001 0.52898139 0.99994898 0.01007821 0.00071269629 0.0017273949
0.12945119 -0.21929707 0.52046216 0.99991399 0.013115877 -0.00022469914 0.001937762
-0.098804668 -0.20279118 0.5215888 -0.99625236 0.086470835 -0.0020210736 0.0050260033
-0.097551674 -0.19264962 0.52257556 -0.9932099 0.1158888 0.010191724 0.0084728058
0.13038881 -0.19443808 0.52874047 0.98853791 0.1508608 -0.0058222944 0.023770694
-0.096856512 -0.18540177 0.52118397 -0.9841435 0.17648318 0.017758952 0.024652876
-0.095698021 -0.16810423 0.52277344 -0.95629263 0.29028305 0.035215352 0.046007141
-0.092472516 -0.14268823 0.52222496 -0.82451695 0.5652439 0.025905352 0.072681397
0.017839182 -0.14017376 0.52185714 -0.0098250527 0.99984241 -0.014787214 0.0010561995
-0.090427913 -0.13850191 0.5230999 -0.79666471 0.60420877 0.016032735 0.079454884
-0.085254945 -0.13538991 0.52084512 -0.72731423 0.6862914 -0.0042614709 0.087451279
-0.078085504 -0.13413647 0.52439934 -0.64888012 0.7605862 -0.021522967 0.090585411
-0.064368129 -0.1351897 0.52416402 -0.5171659 0.85586238 -0.0062481505 0.089308314
-0.034138937 -0.13783862 0.52745271 -0.2354092 0.97069365 -0.048337404 0.057120044
-0.01314205 -0.1317461 0.52962297 -0.013497829 0.99979943 -0.014794857 0.0014610512
-0.0093886256 -0.1348384 0.52156419 -0.0013300449 0.99992186 -0.012434292 0.001005583
0.12225105 -0.13599119 0.52883303 0.63006759 0.77562273 -0.037738405 0.060048439
-0.10249158 -0.43361157 0.53479397 -0.78202313 -0.62303871 0.016206926 0.08809562
-0.096283294 -0.43563521 0.53470075 -0.67729533 -0.73566788 -0.0079867002 0.094337791
-0.086021006 -0.43738025 0.53434467 -0.54598165 -0.83774197 0.009620606 0.10117641
-0.01890463 -0.43731391 0.53224438 -0.0036928405 -0.99999267 -0.0010627357 0.00010411686
0.1155311 -0.43731391 0.53836012 0.70502317 -0.70833832 0.034629785 0.11072073
0.12866373 -0.43731394 0.53688967 0.84825122 -0.52735001 0.048702396 0.094397455
0.13257213 -0.43731394 0.53516138 0.87400514 -0.48348215 0.048581079 0.087608159
-0.10481179 -0.40528679 0.53566557 -0.95836246 -0.28263134 0.040755425 0.060829833
-0.104105 -0.39659011 0.53015471 -0.98515463 -0.17163099 0.0036394787 0.034618404
0.13111429 -0.3984547 0.53780872 0.97017843 -0.22525331 0.089525446 0.073566452
-0.10410611 -0.38980076 0.53360653 -0.99008423 -0.1388493 0.02131197 0.02769202
-0.10411023 -0.37880456 0.53568584 -0.99542159 -0.095438212 -0.005234119 0.018001344
0.13141549 -0.36912361 0.53479862 0.99878657 -0.048492115 0.0086004613 0.0061255326
0.13074423 -0.35271487 0.53940099 0.99978954 -0.016541455 0.012133541 0.00068862736
-0.10033526 -0.32089281 0.53449929 -0.99911016 0.034740053 -0.023918387 0.00049497746
-0.10167661 -0.30214274 0.53430331 -0.99893421 0.042789493 -0.01730638 0.00049014069
0.13660865 -0.29226419 0.53145313 0.9999879 0.0039693709 0.0029058352 0.0012042813
-0.10032549 -0.28478831 0.53407246 -0.99906844 0.038896155 -0.018691709 0.00053733145
-0.10009728 -0.26617253 0.53809839 -0.99935859 0.033079695 -0.013717107 0.00047105804
-0.0996143 -0.26486969 0.53461403 -0.99935961 0.032946389 -0.013960303 0.00047307886
0.12941641 -0.26619941 0.53911889 0.99994206 0.010149372 -0.0035901738 0.0020550364
-0.098851852 -0.25478029 0.53561723 -0.99930257 0.035109263 -0.012721747 0.0005449843
-0.098139316 -0.24421638 0.5376066 -0.99913782 0.04067196 -0.0083340965 0.0006552643
-0.09684059 -0.23397101 0.53116357 -0.99909359 0.041684315 -0.0086337514 0.00066113216
0.12548445 -0.21694976 0.53810692 0.99986738 0.015755059 -0.0041331761 0.0018269711
-0.099015184 -0.20225228 0.53510207 -0.9950974 0.098654494 0.006959972 0.0055348999
-0.098387353 -0.19843182 0.53187013 -0.99405521 0.10849649 0.0091016293 0.0079932986
-0.096639991 -0.18237393 0.53318477 -0.97852165 0.20365538 0.031937759 0.034955829
0.13143276 -0.18638703 0.53392327 0.97799271 0.20863494 0.001306662 0.031064507
-0.095480874 -0.16566533 0.53538358 -0.94589829 0.32055163 0.050229717 0.058659837
-0.094733141 -0.15619819 0.5313493 -0.89999175 0.43253794 0.054090403 0.071238875
-0.092605971 -0.14101261 0.53857183 -0.84972763 0.52707958 0.012253994 0.076638095
-0.091074318 -0.13910125 0.53174043 -0.81551081 0.57840919 0.019619199 0.079562202
-0.087219998 -0.13496511 0.53416306 -0.7494086 0.66198802 0.012596531 0.089910798
-0.018594572 -0.13420324 0.53238702 -0.044706773 0.99881965 -0.018991636 0.0041906643
0.089606524 -0.1327167 0.534374 0.18665534 0.98142797 -0.044259951 0.039640769
0.11559077 -0.13041082 0.53836006 0.48756352 0.8722257 -0.038783543 0.060164746
0.12790354 -0.13972463 0.532731 0.72117716 0.69211155 -0.029751422 0.063017204
-0.10337714 -0.43636537 0.54530901 -0.7893815 -0.61341023 0.024590885 0.08849851
-0.095197998 -0.43681583 0.54423797 -0.71340775 -0.70073891 0.0037868288 0.092785902
-0.088688642 -0.43712524 0.54630351 -0.60076141 -0.79933679 -0.01210489 0.095850132
-0.058332808 -0.43731391 0.54559052 -0.26644027 -0.96210545 -0.057989072 0.06643869
-0.03465274 -0.43731391 0.54452264 -0.058031514 -0.99811107 -0.020167012 0.013728149
-0.02631164 -0.43731391 0.54798079 -0.0089915628 -0.99994648 -0.0051271985 0.00066878623
0.068120122 -0.43731391 0.54644239 0.035873126 -0.99933565 -0.0064403033 0.012489918
0.08418569 -0.43731391 0.54641855 0.09365686 -0.99551344 -0.013469847 0.036357313
0.12701513 -0.43731394 0.54731977 0.81150323 -0.58337164 0.03376345 0.10789832
0.13180941 -0.43731394 0.54440123 0.84512126 -0.53115988 0.060326602 0.10217817
0.13246024 -0.38360789 0.54895175 0.98404628 -0.16321571 0.070807137 0.050771408
0.13220185 -0.37149304 0.54522151 0.99764949 -0.059956804 0.033175692 0.0087179169
0.13225715 -0.36100319 0.54786366 0.99940056 -0.029473452 0.018163567 0.0018714853
-0.10262375 -0.33872312 0.54960102 -0.99925721 0.035098761 -0.015911032 0.00067526696
-0.10208703 -0.3170256 0.54331034 -0.99899012 0.042211179 -0.015396944 0.0005609353
-0.1050266 -0.30191156 0.54413033 -0.99900645 0.04183656 -0.015357479 0.0005294804
0.13246794 -0.30081251 0.54277605 0.99998176 0.0016271847 0.0058213398 0.0008556387
-0.10139138 -0.27374202 0.5480544 -0.99927419 0.035320882 -0.01426666 0.0007303654
-0.099357367 -0.25311393 0.54386675 -0.99917334 0.039727326 -0.0086236522 0.00067243335
-0.098456033 -0.24110834 0.54403126 -0.99907845 0.042677771 -0.0045736502 0.00066877669
0.13017407 -0.24705394 0.5400281 0.99985433 0.017019033 -0.001320648 0.0023104833
-0.098307729 -0.23060997 0.54832816 -0.99900532 0.044585455 -0.00069528533 0.00081138709
0.12855051 -0.23067008 0.54966325 0.99992764 0.011065897 -0.0047220211 0.0021618253
-0.097633742 -0.22376609 0.54562765 -0.99898124 0.045052208 -0.0026029262 0.00073211646
0.12836646 -0.18782991 0.54561388 0.97513276 0.22125159 0.012799034 0.036246203
-0.095376328 -0.17273554 0.54138279 -0.95939291 0.27787533 0.048481748 0.056104135
-0.094562486 -0.16872257 0.54202545 -0.94425213 0.3246237 0.05483887 0.065697476
-0.093670443 -0.14095898 0.54623711 -0.84981644 0.52656019 0.023375474 0.080671459
0.13041919 -0.14034373 0.54570109 0.71244973 0.70150775 0.017386988 0.07274387
-0.092452861 -0.13952944 0.54734683 -0.82813132 0.55993229 0.025970787 0.083686382
-0.087450951 -0.13531795 0.54566783 -0.74378699 0.66840941 0.00314764 0.090404689
-0.058332808 -0.1331909 0.54559052 -0.42783928 0.90368986 -0.017268788 0.082195535
-0.036551297 -0.13979527 0.5465762 -0.22825727 0.97178799 -0.059386265 0.051884227
-0.027806219 -0.1363392 0.54403543 -0.14274269 0.98961061 -0.017187035 0.031822957
0.068128102 -0.13292611 0.54645115 0.041620251 0.99888659 -0.022211021 0.0023495432
0.083941087 -0.13281408 0.54619807 0.15093097 0.98806155 -0.030890578 0.034449838
0.12501676 -0.1372343 0.54600888 0.66312289 0.74850309 0.0033515305 0.071598411
-0.10409978 -0.437314 0.55607718 -0.79843742 -0.60207039 0.0030129966 0.079588175
-0.097102426 -0.43731397 0.5554074 -0.76193225 -0.64763731 -0.0050222217 0.081367061
-0.082196638 -0.43731394 0.55501246 -0.48646614 -0.87202024 -0.054143246 0.092688598
-0.066291086 -0.43731391 0.55637717 -0.31733313 -0.94729263 -0.044004131 0.081470802
-0.025905021 -0.43731391 0.55505794 -0.0035840697 -0.99999183 -0.0018679654 0.00016295045
-0.01138845 -0.43731391 0.5529806 -0.00014942957 -1 -1.0204099e-05 7.6335731e-05
-0.0094312727 -0.43731391 0.55894941 -0.00055992603 -0.99999958 -0.00070977933 7.896014e-05
0.002157867 -0.43731391 0.55396742 1.5043198e-05 -1 -0.00012438005 7.0139249e-05
0.04600358 -0.43731391 0.55999649 -0.0011862151 -0.9999373 0.011137213 0.00048250586
0.074754998 -0.43731391 0.55889177 0.048819739 -0.99865305 -0.017572826 0.021039829
0.12547708 -0.43731394 0.5517742 0.71368688 -0.70034415 0.013004914 0.10905669
0.13269699 -0.43731397 0.55483878 0.7717579 -0.6359095 -0.0029845971 0.10193435
-0.1087673 -0.40018401 0.55729592 -0.97821778 -0.20500888 0.03257833 0.037512761
-0.10499685 -0.37302929 0.55521584 -0.9968071 -0.079299912 0.009332506 0.013439072
0.13320757 -0.37366921 0.55343878 0.99489671 -0.084180102 0.055625971 0.018247547
-0.1046598 -0.36894372 0.55454385 -0.99790186 -0.064602718 0.0042925146 0.01029674
-0.1033457 -0.34463897 0.55705434 -0.99957979 0.028986249 -0.00025427365 0.00075758109
0.13172403 -0.29388323 0.55668706 0.99999923 0.0010623513 -0.00071834377 0.0016295579
0.13131471 -0.28233469 0.55695897 0.9999972 -0.0016106914 -0.0017340287 0.0017250129
-0.10155317 -0.27201816 0.55242521 -0.99933875 0.034675442 -0.010943495 0.00062940415
-0.10176782 -0.26489452 0.55816597 -0.99935174 0.035770845 -0.0040730108 0.00085370307
0.13026354 -0.26518166 0.55357695 0.99992251 0.011557695 -0.0046298313 0.0022025884
-0.099522248 -0.24035054 0.55629712 -0.99892968 0.046164852 -0.0028852236 0.0007597548
0.12994651 -0.24001165 0.55265415 0.9998672 0.014216067 -0.0079697231 0.0026296403
-0.099235289 -0.23398724 0.55584604 -0.99894369 0.045905139 -0.002076474 0.00079891668
-0.09906242 -0.2285468 0.55658734 -0.99903417 0.043933932 -0.00071864895 0.00085793121
0.12808652 -0.22708066 0.55006206 0.99994034 0.010281006 -0.0037031067 0.0019941309
-0.098257042 -0.2162514 0.55980003 -0.99856585 0.053060692 0.0071317791 0.00069360534
-0.097200893 -0.19440445 0.55376256 -0.98890513 0.14336021 0.038916938 0.013910834
-0.096032441 -0.18831491 0.55873859 -0.98223829 0.18138194 0.048047606 0.024318976
-0.092638828 -0.17659169 0.55625635 -0.96160376 0.26637864 0.06603387 0.049672697
-0.090488493 -0.16125406 0.55814958 -0.93613875 0.34222665 0.080778219 0.061520789
-0.095021158 -0.14301991 0.55127203 -0.8673116 0.49596992 0.042241469 0.075512573
-0.081843115 -0.13511199 0.5535869 -0.66139179 0.74981385 0.018439962 0.097386211
-0.066414446 -0.13349096 0.55602968 -0.50833416 0.86105174 0.0136507 0.090016596
-0.025843922 -0.13635331 0.55506378 -0.10532285 0.99410677 -0.025667723 0.020414101
-0.011288461 -0.13384853 0.55320233 -0.0078578126 0.99989307 -0.012335595 0.001155424
-0.0094386488 -0.1331598 0.55946916 -0.010597934 0.99982053 -0.01570297 0.001290358
0.0024450563 -0.13293768 0.55387956 -0.010659392 0.99965018 -0.024205636 0.0013079699
0.046002496 -0.13606656 0.55999762 0.0036299494 0.99963212 -0.026878465 0.0011763358
0.075284965 -0.13357803 0.5588873 0.10180289 0.99450111 -0.02457081 0.019784305
0.12341163 -0.1364371 0.55215406 0.60251456 0.79810494 -0.0021683287 0.065923229
-0.10401375 -0.437314 0.56424671 -0.81446391 -0.5802108 -0.002000686 0.073987134
-0.096208408 -0.43731397 0.56384367 -0.76211685 -0.6474182 0.005246643 0.079447679
-0.089308679 -0.43731394 0.56425691 -0.60108483 -0.798998 -0.017298633 0.089740656
-0.072396703 -0.43731391 0.56132019 -0.3546401 -0.93406045 -0.041969713 0.078511141
-0.068577647 -0.43731391 0.56796032 -0.32601976 -0.94369555 -0.056123566 0.070339769
-0.05336415 -0.43731391 0.56251347 -0.17207199 -0.9840436 -0.045270149 0.0496023
-0.01496114 -0.43731391 0.56081229 -0.00057227234 -0.99999958 -0.00074982503 5.7474983e-05
-0.001881719 -0.43731391 0.5628922 0.0027525092 -0.99998569 0.0045987749 0.00036658527
0.01714262 -0.43731391 0.56417263 0.0034330054 -0.99993873 0.010528359 0.00048014687
0.02940825 -0.43731391 0.5678758 0.0002861286 -0.99990183 0.014009849 0.00053586613
0.071148023 -0.43731391 0.56587613 0.031583305 -0.99938327 -0.015350891 0.012619684
0.086157143 -0.43731391 0.56713009 0.09040606 -0.99585569 -0.0099096587 0.032982685
0.11490089 -0.43731391 0.56506348 0.385133 -0.92081231 -0.061460618 0.093134716
0.1262878 -0.43731394 0.56637806 0.75689185 -0.65318829 -0.02144476 0.090764411
0.1333638 -0.43731397 0.56112713 0.77448082 -0.63238817 -0.016269995 0.10083154
-0.1072186 -0.38376668 0.56757754 -0.98830092 -0.14631683 0.043043654 0.028243335
-0.10583041 -0.37513411 0.5622977 -0.99432361 -0.10239515 0.028908692 0.019122601
-0.10510857 -0.36271563 0.56763166 -0.99903226 -0.027848113 0.03404513 0.0037164618
-0.10424653 -0.35851204 0.56751937 -0.99952316 0.0031747189 0.030715173 0.0019686804
-0.10380165 -0.3491025 0.56047314 -0.99967653 0.025186207 0.0035409401 0.00074622018
-0.10288695 -0.33395109 0.56453687 -0.99917048 0.036167115 0.018715456 0.0014823251
-0.10286423 -0.32613224 0.56080729 -0.9992097 0.038763039 0.0088036582 0.0010917542
-0.10335119 -0.31943184 0.56433004 -0.99904239 0.040254399 0.017145617 0.0013777025
0.1296915 -0.29645911 0.56923252 0.99867922 -0.011047868 0.050177537 0.0037216994
-0.10203555 -0.28590953 0.56372184 -0.99937326 0.033066962 0.012632655 0.0013612151
-0.10184196 -0.26625192 0.56361175 -0.99937737 0.03410428 0.0090415217 0.0010957455
-0.10083032 -0.25376824 0.56374812 -0.99917978 0.040011261 0.006237736 0.0010665166
0.13037618 -0.24818462 0.56179267 0.99975741 0.011987969 0.018479288 0.0026093614
0.13142858 -0.23733167 0.5618456 0.99973905 0.013624907 0.018337371 0.0024662369
-0.099430963 -0.22893533 0.5612613 -0.99898922 0.044947799 -0.00054221973 0.00091187656
-0.096922182 -0.19494472 0.56518883 -0.98813134 0.14655645 0.046017371 0.0143289
-0.094990984 -0.18378212 0.56238043 -0.97678936 0.20471263 0.063050434 0.028404696
-0.094209149 -0.14804998 0.56446898 -0.89924359 0.43250662 0.065566204 0.070348606
-0.088085331 -0.13651431 0.5659067 -0.74833012 0.66112942 0.05394337 0.090480424
-0.072357967 -0.13389231 0.56143606 -0.5720855 0.81987798 0.022768954 0.0905625
-0.068928465 -0.13375399 0.56786919 -0.51133049 0.85938132 -0.0022305485 0.084148437
-0.053504635 -0.13344704 0.56252247 -0.41052622 0.91184688 -0.0018866933 0.078860417
-0.014763622 -0.13354935 0.56114101 -0.021034939 0.99963427 -0.016996646 0.001892693
-0.0019514983 -0.13224554 0.56295514 -0.015063293 0.9994086 -0.030912293 0.0013284211
0.017001001 -0.13236068 0.56395268 -0.014825596 0.99928308 -0.034836717 0.0012176189
0.028902004 -0.13283576 0.56830609 -0.0099283345 0.99988854 -0.011153257 0.0019821879
0.070694044 -0.13371886 0.56587213 0.059189845 0.99824631 0.00097205339 0.0044657663
0.11467952 -0.13468973 0.56508535 0.37931204 0.92499799 0.022383496 0.05430612
0.12459083 -0.1369164 0.56710577 0.52953911 0.84812295 0.016608471 0.052524649
0.092371605 -0.12748398 0.56248736 0.20789377 0.97813982 0.0047750929 0.038407307
-0.10364333 -0.437314 0.57370728 -0.83616543 -0.54774249 0.02838251 0.065384544
-0.096076362 -0.43731397 0.57560295 -0.73834378 -0.67342591 0.036687836 0.075453475
-0.088309817 -0.43731394 0.57949322 -0.6120466 -0.78940958 0.047238953 0.087919362
-0.06157824 -0.43731391 0.5774309 -0.22699459 -0.97382623 0.011659699 0.055490918
-0.057668675 -0.43731391 0.57722688 -0.17943206 -0.98359627 0.018508943 0.048557375
-0.0040405388 -0.43731391 0.57011843 0.0047428398 -0.99994361 0.0095048556 0.00037459016
0.037375212 -0.43731391 0.57580858 -0.0014160968 -0.99966735 0.025753673 0.00080000667
0.041426148 -0.43731391 0.57910848 -0.0034163336 -0.99967819 0.025136834 0.00079633563
0.05846769 -0.43731391 0.5769816 -0.0033516637 -0.99963713 0.026728576 0.00064429204
0.06277597 -0.43731391 0.57708818 -0.0025978319 -0.99967217 0.025470985 0.00062164018
0.076611727 -0.43731391 0.57469714 0.0447466 -0.9989934 0.0031576371 0.012795677
0.08096157 -0.43731391 0.57574981 0.078021534 -0.99692255 0.0076214923 0.02450203
0.091275692 -0.43731391 0.5734877 0.1187579 -0.99286193 0.011033291 0.034896661
0.1083521 -0.43731391 0.5720275 0.26315591 -0.96475327 0.00043257914 0.069125466
0.12579329 -0.43731394 0.5728302 0.6342752 -0.77310508 -0.0018945682 0.086418286
0.13327004 -0.43731397 0.57424033 0.59011918 -0.80729258 0.0061683455 0.087076157
-0.10790768 -0.38510135 0.57274282 -0.989043 -0.14140284 0.042417936 0.027948454
-0.10485129 -0.36059904 0.57353938 -0.99723369 -0.020040577 0.071578182 0.0047683646
0.13116021 -0.34693438 0.57528841 0.99586225 -0.022077015 0.088153459 0.004613664
-0.10283395 -0.33571264 0.5707342 -0.99876964 0.031551126 0.038259752 0.002249676
0.13027659 -0.33523852 0.57254773 0.99590397 -0.03550129 0.083156072 0.0032971983
-0.10358442 -0.31390518 0.57047093 -0.99852222 0.044121869 0.031727239 0.0022939297
-0.10373787 -0.30784103 0.5777092 -0.063478604 -0.62654203 0.77679831 0.070248634
-0.10221836 -0.27252072 0.57112813 -0.99874133 0.027422071 0.041998733 0.002813749
0.13608681 -0.27463081 0.57768488 0.99664462 0.016036304 0.080264449 0.0082003735
0.13241793 -0.26339412 0.57423162 0.99576676 0.044513069 0.080418721 0.0092613865
0.13824521 -0.23121068 0.57531476 0.99782813 0.014722319 0.064205453 0.0067441328
-0.10063316 -0.22773291 0.57885003 -0.98969752 0.062664129 0.12873241 0.014263047
0.13527763 -0.22555482 0.57321829 0.99833524 0.01530493 0.055610288 0.0066192504
-0.098985687 -0.21172248 0.57947695 -0.99138319 0.064754739 0.11386966 0.010525891
-0.097912222 -0.20340663 0.57663107 -0.99007952 0.10596553 0.09227059 0.011393258
-0.097604126 -0.15339953 0.57448018 -0.91758031 0.38900074 0.082004845 0.058513202
-0.095725119 -0.14966407 0.5713231 -0.91038191 0.40814599 0.067983247 0.060885519
-0.088776499 -0.13448867 0.57673788 -0.75437915 0.65176272 0.078214176 0.078926772
-0.061640307 -0.13341816 0.57731581 -0.39649102 0.91733229 0.036005799 0.075801805
-0.05768076 -0.13325641 0.57735246 -0.38449532 0.92178452 0.049765658 0.072608627
-0.0039456477 -0.13223147 0.57012773 -0.016490391 0.99983299 0.0078823576 0.0041076737
0.037425369 -0.13340648 0.57582742 -0.012113871 0.99947828 0.029939665 0.0057473099
0.041873571 -0.13364697 0.57905561 -0.0031984921 0.99876648 0.049550574 0.0090557411
0.058397409 -0.13437334 0.57611746 0.020302063 0.99907297 0.037961569 0.0055653187
0.064305261 -0.1339463 0.57871044 0.037102718 0.99605197 0.080647036 0.015095788
0.076241672 -0.13248022 0.57444698 0.13777281 0.98920929 0.049835876 0.023447564
0.082302898 -0.13161151 0.5728907 0.18960172 0.98042071 0.053163402 0.031927425
0.091027424 -0.13200614 0.57511413 0.26536903 0.96162671 0.069665812 0.043170363
0.10835902 -0.13450533 0.57216662 0.35225251 0.93507105 0.039500445 0.052207265
0.12122686 -0.13642378 0.57367283 0.42647651 0.90377927 0.036067292 0.056000762
0.13128814 -0.13889916 0.57094419 0.55437464 0.83199126 0.021431848 0.052422613
-0.10340313 -0.437314 0.58488101 -0.79265428 -0.60587662 0.06791725 0.077519588
-0.096362241 -0.43731397 0.58455169 -0.72686958 -0.68306816 0.071263857 0.083782613
-0.089936621 -0.43731394 0.58868152 -0.64023203 -0.765176 0.067887805 0.093081884
-0.070612192 -0.43731391 0.58567148 -0.34005064 -0.93601561 0.090776645 0.083313137
-0.060456399 -0.43731391 0.5835973 -0.20601515 -0.97458684 0.087967664 0.061930891
-0.051309824 -0.43731391 0.58586347 -0.11510622 -0.98996234 0.08200749 0.043445114
-0.041717049 -0.43731391 0.58424282 -0.0082715526 -0.99605387 0.088364512 0.012324775
-0.024234381 -0.43731391 0.58392203 -0.0061109103 -0.99639356 0.084631793 0.012288477
-0.015010135 -0.43731391 0.58482623 -0.015580327 -0.99688202 0.077353559 0.0099905757
0.0085157156 -0.43731391 0.58159101 0.0027691242 -0.99975979 0.021741923 0.00083282933
0.028060731 -0.43731391 0.58197582 0.0036837182 -0.99973124 0.022889975 0.00078377395
0.039387971 -0.43731391 0.58401233 -0.0026608622 -0.99968439 0.024981102 0.00075322663
0.044732392 -0.43731391 0.58763409 -0.0021271866 -0.99959129 0.028508209 0.00084418041
0.10265074 -0.43731391 0.58483332 0.22671224 -0.97357243 0.027537961 0.069213711
0.1298302 -0.43731394 0.58654511 0.5294531 -0.84663469 0.053750113 0.10056813
-0.10360516 -0.35276759 0.58599675 -0.99094582 0.016485764 0.13324659 0.015458196
-0.10253424 -0.33224896 0.58873701 -0.97970361 0.038832981 0.19665436 0.028124969
-0.1023901 -0.32871798 0.58223224 -0.9915787 0.026339013 0.12679905 0.012898247
-0.10303996 -0.3130945 0.58558011 -0.98720491 0.052857816 0.15044126 0.018805856
-0.10313406 -0.30617225 0.58473957 -0.98931992 0.043636162 0.1390757 0.019893825
-0.10303935 -0.29955098 0.58735096 -0.98822051 0.030598057 0.14994667 0.023080541
-0.10246901 -0.28515923 0.5826475 -0.99255931 0.036911007 0.11603273 0.01499898
-0.1017959 -0.23560892 0.58197969 -0.98511916 0.065387979 0.15894888 0.018091343
-0.10048783 -0.2280321 0.58808279 -0.98253328 0.057325609 0.17703734 0.021365531
-0.099484123 -0.21581241 0.58446038 -0.9873895 0.05404485 0.14879897 0.01626203
-0.098194391 -0.20657945 0.58257014 -0.98862278 0.080785975 0.12688075 0.013015021
-0.096004792 -0.19093214 0.58883792 -0.97532904 0.16735907 0.14395894 0.032857336
-0.095063969 -0.18804054 0.58502197 -0.97488344 0.17934354 0.13205381 0.030143674
-0.094265088 -0.14334573 0.58378142 -0.86089575 0.4941467 0.12115102 0.069370344
0.12800865 -0.14036383 0.58616227 0.66019642 0.73891425 0.13470906 0.083870955
-0.090322912 -0.13408986 0.58010459 -0.75371337 0.6507318 0.092001952 0.078800775
-0.070387311 -0.13457716 0.5850023 -0.51944023 0.84501845 0.12698731 0.088464849
-0.060603164 -0.13354811 0.58405817 -0.41467711 0.90391701 0.10477125 0.079418018
-0.051335461 -0.13304618 0.58583814 -0.26424521 0.95827949 0.10897209 0.06617187
