# .PCD v0.7 - Point Cloud Data file format
VERSION 0.7
FIELDS x y z
SIZE 4 4 4
TYPE F F F
COUNT 1 1 1
WIDTH 1421
HEIGHT 1
VIEWPOINT 0 0 0 1 0 0 0
POINTS 1421
DATA ascii
0.1017186 -0.2467529 0.81616229
0.0690476 -0.2470146 0.84024107
0.13669311 -0.41757849 0.79532319
-0.0076202452 -0.21605641 0.73286408
0.1031609 -0.2130667 0.71958601
0.017064299 -0.2137339 0.77795672
0.057770669 -0.32466441 0.84834361
0.1631476 -0.4386549 0.78634763
0.06212768 -0.21599901 0.75188702
0.1128935 -0.2112176 0.80021542
0.064801387 -0.4069297 0.8415426
0.096998543 -0.36542839 0.82148123
0.047689591 -0.29216221 0.85505402
0.097655334 -0.3682172 0.82318181
0.065360099 -0.3631601 0.84250331
0.16744921 -0.38581729 0.78611571
0.088852413 -0.41139951 0.83568013
0.16342419 -0.38230619 0.78547162
0.062498689 -0.3618423 0.84589088
0.1454404 -0.2103703 0.76134902
0.1064149 -0.489907 0.81882489
0.13727701 -0.2714316 0.79075599
0.1807702 -0.2126655 0.73472369
0.17002501 -0.26672289 0.77538681
0.19026139 -0.46628711 0.77024978
0.1811357 -0.4019517 0.7588433
0.08990714 -0.27016589 0.8281101
0.098242521 -0.4775407 0.82911712
0.1028901 -0.45531571 0.82589328
0.02264416 -0.21875849 0.80224001
0.082939766 -0.2872729 0.83181769
0.1368959 -0.43296239 0.80174178
0.04385129 -0.32555819 0.85779542
0.02240473 -0.37435219 0.8603617
0.1116392 -0.41140151 0.81739259
0.036985431 -0.44760939 0.87475753
0.058750272 -0.47225231 0.84909761
0.053796738 -0.21887439 0.83301759
0.083598323 -0.47172341 0.83673382
0.08939454 -0.21998569 0.75231951
0.09727031 -0.28520891 0.82440072
0.060572062 -0.37859809 0.85127908
0.1164253 -0.34213659 0.8066799
0.02449563 -0.28714791 0.86616719
0.1632947 -0.41884041 0.77956301
0.096247077 -0.38590559 0.82893878
0.123794 -0.3804886 0.81641698
0.083926231 -0.2141809 0.66821498
0.1589248 -0.29748181 0.7807703
0.1360528 -0.4575831 0.80407172
0.02960119 -0.216819 0.86257708
0.1737946 -0.27308011 0.76173878
0.063599437 -0.40419149 0.84496951
0.048689749 -0.29044661 0.85869032
0.13814279 -0.45615989 0.80605048
0.15374111 -0.25385749 0.78551757
0.091399521 -0.21379121 0.71943122
0.57445818 -0.51121181 0.63266277
0.38459009 -0.51911539 0.77832967
0.2002261 -0.30319259 0.75966263
0.14112049 -0.36829019 0.79608268
0.044146448 -0.2158608 0.81808829
0.049478378 -0.2040794 0.71920443
0.13279711 -0.2134615 0.7546764
0.073895387 -0.21646909 0.77709752
0.0051958258 -0.2118361 0.72562158
0.0065380628 -0.21198501 0.83221871
0.17478479 -0.2279575 0.73082948
0.076624133 -0.214127 0.76490712
0.37491649 -0.51952291 0.78523219
0.39907789 -0.51497519 0.79807651
0.088159017 -0.4120073 0.83825791
0.059558719 -0.44097659 0.84885478
0.2103782 -0.30174649 0.7481553
0.1097769 -0.38774699 0.80807221
0.41079211 -0.51761383 0.78745532
0.30876851 -0.52028632 0.67361671
0.44591931 -0.51782131 0.8067742
0.141386 -0.22881611 0.7896601
0.1106366 -0.40001899 0.80933899
0.14899459 -0.44436011 0.79418969
0.1175256 -0.46125939 0.81804842
0.034778088 -0.2155793 0.71540731
0.19678269 -0.44604549 0.76100212
0.074577093 -0.4099195 0.83944321
0.2046534 -0.38430661 0.74263197
0.36851221 -0.52148747 0.81104988
0.14226399 -0.33250511 0.80105197
0.4619374 -0.51976693 0.70151681
0.1119426 -0.47973251 0.82157779
0.44074571 -0.51963031 0.81474078
0.045638502 -0.25311849 0.8551774
0.47033489 -0.51894581 0.80225521
0.1532298 -0.3147701 0.78715712
0.091744103 -0.2497444 0.82809901
-0.02008578 -0.22316431 0.79023951
-0.01420304 -0.2438924 0.70482087
0.044374969 -0.2153006 0.62470877
0.095098443 -0.2122972 0.69535881
-0.02845278 -0.2140318 0.72626728
-0.03674731 -0.2237829 0.76057577
0.16232499 -0.44131711 0.78265178
0.05728111 -0.3256827 0.84836417
0.1141957 -0.40546149 0.81178743
0.082773358 -0.41927519 0.83215159
0.2124844 -0.51019663 0.74363548
0.01795638 -0.21071839 0.65029728
0.071578093 -0.50158811 0.84002942
-0.035204861 -0.2134147 0.76847202
0.1208616 -0.2115178 0.75958979
0.2010586 -0.3931444 0.75481588
0.0137141 -0.3730796 0.86109382
0.34044281 -0.51388031 0.78063512
0.041331079 -0.2327203 0.85157102
0.094192363 -0.2100838 0.80994499
0.02672622 -0.29984209 0.86687398
0.17446581 -0.30476689 0.76888913
0.064693987 -0.37619221 0.84342831
0.091050893 -0.27865821 0.82289279
0.1964217 -0.41487411 0.75382727
0.16729429 -0.2091244 0.70865011
0.1360036 -0.2109924 0.78227079
0.1514826 -0.29583639 0.78398901
0.1880326 -0.4624584 0.77784508
0.1140974 -0.2076994 0.70967472
0.24454729 -0.5155555 0.79278958
0.1047648 -0.2165775 0.81700152
0.046631038 -0.2122429 0.62321383
0.1647542 -0.3856943 0.79421008
0.0256899 -0.2077654 0.6193046
0.063678287 -0.36128819 0.84558058
0.0246627 -0.36216831 0.86452758
-0.02581973 -0.2101388 0.64725608
-0.072078437 -0.2097974 0.69376493
0.01943386 -0.2078044 0.84752971
0.058417048 -0.2064568 0.6327101
0.06181651 -0.2122153 0.83873647
0.002665102 -0.46413651 0.84870219
0.089823604 -0.2132528 0.57374543
-0.037047889 -0.2097037 0.77011102
0.02228665 -0.37035379 0.86869031
0.025035679 -0.24315511 0.86894393
6.0290098e-05 -0.32261369 0.84153563
0.09410128 -0.2113364 0.56753248
0.1045812 -0.2115545 0.73376012
0.1498415 -0.35381261 0.79823118
-0.002474159 -0.43680701 0.84452689
0.016446371 -0.2078073 0.78491199
-0.017788321 -0.25415671 0.82090139
0.006591775 -0.2210703 0.84767509
0.05834065 -0.20666219 0.59770948
0.073918603 -0.2093704 0.64756501
-0.01359203 -0.20432851 0.80326068
-0.042411208 -0.2170724 0.77520388
-0.0205808 -0.2075641 0.65100342
-0.017084841 -0.2182353 0.81509107
-0.061872091 -0.25549859 0.73673922
-0.087838471 -0.2693685 0.70252681
-0.068808652 -0.21097291 0.7222119
-0.062622577 -0.44970649 0.75100362
0.005087554 -0.3345376 0.84384072
0.037135299 -0.44881549 0.86966228
-0.072811693 -0.30891159 0.72983873
-0.031209379 -0.26321959 0.78862101
-0.093442619 -0.31165299 0.69549811
0.01190931 -0.31024501 0.85289812
0.01407877 -0.2033875 0.76934367
-0.092323333 -0.26538661 0.69382298
-0.073048592 -0.2931349 0.72340751
-0.00071024889 -0.380155 0.83932507
0.041000891 -0.21079729 0.8156991
-0.050962139 -0.25216621 0.75678068
-0.06435734 -0.29323661 0.74089777
-0.083126627 -0.2206759 0.70002347
-0.0080183744 -0.23819239 0.82502389
0.075226396 -0.2095221 0.56436682
-0.0177038 -0.2047338 0.6305995
-0.072527498 -0.25775841 0.72385281
-0.02276185 -0.2373262 0.81059062
-0.0054876581 -0.23900101 0.82679683
-0.01487857 -0.30552241 0.81872767
-0.023124009 -0.29779649 0.80620241
-0.03511497 -0.47719601 0.79677588
-0.0068763788 -0.2856802 0.82747573
0.0080932966 -0.266426 0.86337882
0.01141411 -0.37600651 0.85342753
0.085822307 -0.2055814 0.69161272
0.01398388 -0.2756201 0.85858887
-0.064368643 -0.2727423 0.74055839
-0.094094314 -0.29565379 0.69340831
-0.03203157 -0.35588101 0.79252112
-0.082148314 -0.2894499 0.71540219
-0.02359882 -0.22633269 0.80141228
-0.039906111 -0.3030583 0.78266799
0.0001101196 -0.4123117 0.84650868
-0.01812139 -0.45195621 0.82596588
0.1325687 -0.20991281 0.73318428
0.098057598 -0.20522641 0.72290719
0.19431791 -0.27740261 0.76442212
-0.022653939 -0.28111789 0.80351698
-0.009737581 -0.3481265 0.83055919
0.01200554 -0.28672701 0.86217397
-0.003402293 -0.208976 0.81606752
0.1029767 -0.20757701 0.75876361
0.1399595 -0.2031467 0.66945249
-0.051417708 -0.2163076 0.75551653
-0.04411843 -0.24455319 0.76879042
0.081556171 -0.20356441 0.67674649
-0.067713827 -0.2063362 0.70508868
0.0063632731 -0.2958971 0.85225838
0.060076389 -0.212777 0.7699759
0.032081239 -0.2092194 0.76901221
-0.044440418 -0.2113599 0.72238648
0.1205947 -0.2109569 0.74584168
-0.034160081 -0.44835421 0.79574692
0.1066491 -0.20680819 0.6676507
-0.048329681 -0.49841091 0.77887392
0.002132565 -0.50328481 0.86650759
-0.058941361 -0.484956 0.75034392
0.051181819 -0.2065511 0.7285952
-0.05772331 -0.2072753 0.70513147
-0.094611444 -0.23135599 0.69232488
0.0032448471 -0.20898549 0.79023087
-0.083892852 -0.30873361 0.7125051
-0.063888282 -0.2968998 0.74849647
0.1275311 -0.2122398 0.80584443
-0.043669939 -0.37228441 0.78082973
-0.089352578 -0.343182 0.70598859
-0.096049339 -0.50973719 0.69624162
-0.01073733 -0.2078384 0.66097462
-0.004232585 -0.2094557 0.74404722
-0.001592219 -0.207927 0.75092071
-0.043449908 -0.202613 0.71043187
0.019643661 -0.2156297 0.61670798
-0.01824397 -0.2068332 0.75276458
-0.068377152 -0.24366739 0.72390521
0.058207009 -0.2096239 0.64611351
-0.084766299 -0.2212393 0.7043733
-0.0547028 -0.2083708 0.72525328
0.02470112 -0.2138969 0.6761269
0.032035861 -0.2092085 0.66202289
0.03004667 -0.2083797 0.65037239
-0.02925426 -0.21027941 0.7766
-0.079873502 -0.32238469 0.7153129
-0.044537451 -0.26977611 0.77656209
-0.06057534 -0.39118531 0.7526024
0.0054485202 -0.43581751 0.85557598
-0.0076986249 -0.42351389 0.84355181
-0.03789911 -0.49302801 0.79029351
-0.020947959 -0.4378837 0.81396592
-0.04066211 -0.4590959 0.79131728
-0.068450928 -0.48981181 0.74364072
-0.02064335 -0.41013911 0.81698781
-0.036411639 -0.40725189 0.7939598
-0.01349285 -0.25832281 0.82012558
-0.026049821 -0.30715251 0.79892957
-0.043537591 -0.28197989 0.77062488
-0.094501346 -0.35491481 0.69690043
0.1071226 -0.210206 0.77433962
0.1264869 -0.20623849 0.67158139
0.1069389 -0.2048324 0.63639718
0.13243011 -0.2043405 0.65485883
0.1163972 -0.20649999 0.79891199
0.1200711 -0.2030962 0.64767331
0.091517478 -0.21303581 0.72846109
0.083194658 -0.2117321 0.76633579
0.0049653351 -0.48925331 0.86713368
0.0079644918 -0.26926711 0.8480112
0.01365599 -0.25652301 0.86165452
0.01773411 -0.45272741 0.87332428
0.01010013 -0.2131741 0.83344012
-0.01739445 -0.22058991 0.81340432
0.081587173 -0.20738859 0.59335941
0.0047365129 -0.21361241 0.63574952
-0.0050495858 -0.28354701 0.82890218
-0.01129082 -0.29172689 0.818344
-0.015910739 -0.42966601 0.83123863
-0.0350824 -0.2966657 0.78835452
0.1202026 -0.2092865 0.77029169
0.071082257 -0.4203538 0.84490311
0.082508117 -0.20759951 0.80560172
-0.01062885 -0.2067655 0.76966381
-0.076442689 -0.48055959 0.73573703
0.01251954 -0.2271861 0.85770428
-0.02649832 -0.26579201 0.79956669
0.076784603 -0.2100731 0.6856491
0.065550178 -0.2145329 0.79083318
0.02237278 -0.22654951 0.86189133
-0.01553109 -0.2717081 0.81667411
-0.03740114 -0.50043547 0.8014158
-0.063189954 -0.3153376 0.74678272
-0.02387142 -0.2115819 0.79958338
0.094058357 -0.52147859 1.034569
0.005402863 -0.200644 0.78856838
0.02143231 -0.2093325 0.78904933
-0.072753593 -0.2801826 0.72298962
-0.07571277 -0.276402 0.71978772
-0.087650418 -0.45616359 0.71210831
-0.044842031 -0.44022599 0.77836508
-0.0099917352 -0.4074361 0.83117199
0.1715309 -0.28506899 0.78050518
-0.03530642 -0.2056499 0.73640788
-0.026294019 -0.2521736 0.78614938
-0.042742942 -0.44418639 0.77802771
0.04015613 -0.2063297 0.85615802
0.01630732 -0.26330689 0.86705452
-0.0124155 -0.2108085 0.82518589
0.098145567 -0.19737589 0.58331192
0.20028231 -0.51223332 0.78352928
0.04317528 -0.2135312 0.72759718
-0.080023713 -0.50020808 0.73706162
-0.090132922 -0.48431039 0.7052331
-0.090043813 -0.49721289 0.70339543
-0.038281951 -0.28770411 0.78098011
0.01416147 -0.2103537 0.6724928
0.01228423 -0.2043507 0.73378849
0.059419129 -0.2073299 0.76595902
-0.045959141 -0.2071012 0.67822409
-0.081867188 -0.30217829 0.71767598
0.042681132 -0.20717029 0.82485431
0.01151171 -0.4788866 0.87454492
0.03146312 -0.4512715 0.85922492
0.067457147 -0.2127436 0.78953511
-0.037343591 -0.2132629 0.67719299
0.12728129 -0.21783879 0.67574501
-0.092448093 -0.2113972 0.68529212
-0.024390221 -0.20543469 0.71044087
-0.057589348 -0.2828365 0.74666828
0.2288174 -0.51056921 0.75324517
-0.093624741 -0.36877689 0.69658607
0.0046153371 -0.27851811 0.8525486
0.05392113 -0.51473111 1.02632
0.093316473 -0.2058004 0.72722632
0.057854891 -0.2106781 0.61959708
0.1041245 -0.21616919 0.82076442
0.1639031 -0.3865253 0.78629768
0.110535 -0.2123138 0.72651517
0.1787447 -0.2059083 0.74351811
0.1647796 -0.38315621 0.78650367
0.13165151 -0.3081224 0.80656612
0.1528782 -0.29162851 0.78921831
0.1920422 -0.32135481 0.76156121
0.1764742 -0.3808791 0.77497709
0.18887781 -0.2104736 0.75012863
0.1980367 -0.2665256 0.75787961
0.1956909 -0.30329561 0.76160312
0.1868318 -0.4620088 0.7737869
0.1704655 -0.31495219 0.77598572
0.1673817 -0.26326081 0.7794413
0.1962274 -0.38803691 0.76362979
0.1956384 -0.4347277 0.76595771
0.1247981 -0.2156198 0.80376673
0.1810468 -0.39074779 0.77188551
0.208553 -0.22385649 0.75050187
0.056953311 -0.2118012 0.75081402
0.1385048 -0.36346811 0.80020553
0.1349505 -0.2667599 0.79530078
0.17382009 -0.26437989 0.7730031
0.2049897 -0.28138259 0.75616902
0.1845094 -0.40825221 0.76132041
0.087335467 -0.2135596 0.82546449
0.1344095 -0.4551819 0.80762023
0.1491176 -0.2103752 0.76061749
0.1601232 -0.43469 0.78930843
0.1685036 -0.3118889 0.77661622
0.1615283 -0.26279709 0.78111148
0.2077698 -0.30013239 0.74715608
0.19365729 -0.43882909 0.76678377
0.096243232 -0.2099781 0.67278099
0.1565956 -0.29057601 0.78756338
0.19580489 -0.4056057 0.76414478
0.1328209 -0.40320411 0.80484611
0.1274768 -0.2630991 0.80034691
0.1162651 -0.2441714 0.80578363
0.1378444 -0.2303423 0.79780871
0.030646149 -0.21260691 0.71426398
0.062627792 -0.3971968 0.85042322
0.09419021 -0.3619034 0.8249718
0.05553532 -0.3203688 0.85204852
0.084880948 -0.41066191 0.83889461
0.065330803 -0.3994996 0.84790152
0.1631152 -0.41247019 0.78597581
0.13514221 -0.42744949 0.80627447
0.13959759 -0.3316811 0.80134273
0.36674029 -0.51733238 0.76609021
0.37419739 -0.51726288 0.71788722
0.28783381 -0.52088863 0.68234903
0.39954391 -0.51318842 0.77296811
0.2248442 -0.51757121 0.56898189
0.22600099 -0.51859778 0.52897823
0.35105711 -0.52142179 0.814731
0.3066158 -0.51669598 0.67856687
0.18789449 -0.24352761 0.76425898
0.1297483 -0.49563369 0.81776088
0.1714146 -0.49479449 0.78475189
0.1730139 -0.29843521 0.77579153
0.26764411 -0.52040559 0.64099079
0.21194629 -0.50428462 0.75196737
0.059931699 -0.37410319 0.85412192
0.1807816 -0.20782641 0.76568723
0.1008867 -0.45091501 0.82916981
0.36032319 -0.51554912 0.84778678
0.1163924 -0.345101 0.81182909
0.13855921 -0.29145229 0.79692489
0.38838649 -0.51444417 0.54094827
0.1873651 -0.38348231 0.7685073
0.171692 -0.40803939 0.78163618
0.1001293 -0.2425843 0.82011509
0.090263776 -0.2728413 0.82878047
0.2481083 -0.51822132 0.60199171
0.173143 -0.37953761 0.77925998
0.30493021 -0.51175958 0.63845438
0.1475061 -0.4354119 0.80052859
0.077937476 -0.2094129 0.81710643
0.140608 -0.22415251 0.79412049
0.1678756 -0.29169321 0.77842379
0.1147996 -0.45723909 0.82115769
0.15615641 -0.30371299 0.78772128
0.173233 -0.204989 0.77435482
0.333011 -0.5158332 0.71700412
0.42768699 -0.51488441 0.55064332
0.42294189 -0.5046075 0.44715831
-0.0015721919 -0.2073594 0.74279529
0.080811262 -0.20934691 0.67325377
0.01505756 -0.20938089 0.78205729
0.04858863 -0.2070473 0.64111549
0.065486431 -0.35252199 0.85410851
0.44544449 -0.51961988 0.34192559
0.2347693 -0.51717007 0.53912008
0.3277036 -0.51274681 0.73535788
0.47334051 -0.51236433 0.68411982
0.45481509 -0.51207989 0.67840332
0.1873 -0.28089091 0.77136219
0.2274746 -0.51436609 0.57015759
0.29044849 -0.50364548 0.43630719
0.1119351 -0.32949021 0.82105941
0.1137668 -0.3862429 0.8227874
0.4205015 -0.50932068 0.82416773
0.50936788 -0.51445341 0.75151563
0.50400108 -0.50586838 0.46905351
0.1007569 -0.2757723 0.83420533
0.2375387 -0.51706219 0.49441949
0.20341019 -0.44735169 0.74600881
0.1993957 -0.50427419 0.77035522
0.15324371 -0.30857211 0.79354292
0.115393 -0.25561371 0.81727242
0.114391 -0.27398771 0.82096958
0.1805782 -0.4149172 0.77803707
0.15160739 -0.49633881 0.63172293
0.1306188 -0.25083151 0.79968768
0.1951073 -0.4678202 0.7710973
0.1362087 -0.4106476 0.81382328
0.073787391 -0.40277329 0.8445788
0.3391864 -0.51233518 0.41121781
0.1677739 -0.28100151 0.7817443
0.068854332 -0.37532341 0.84855813
0.092230201 -0.45439249 0.83426559
0.15488181 -0.27854499 0.78804868
0.1358733 -0.32230061 0.80528343
0.52459741 -0.5087778 0.60781658
0.29094699 -0.51127023 0.69295269
0.37300831 -0.51241517 0.79266417
0.149692 -0.52044731 0.3091332
0.20381869 -0.50068158 0.71863508
0.1480087 -0.51724333 0.3770369
0.3724688 -0.51214099 0.80687082
0.51731437 -0.51098078 0.76845157
0.36267531 -0.51556891 0.78923023
0.30083081 -0.51725531 0.75012177
0.1245813 -0.3265129 0.80796432
0.1078815 -0.35054559 0.82139069
0.11071 -0.2070969 0.77775139
0.1201621 -0.2047053 0.6082443
0.058861371 -0.31827289 0.85417682
0.04568046 -0.20982739 0.82123399
0.094372153 -0.2140158 0.60326493
0.1705967 -0.4795444 0.62275171
0.1471578 -0.52137619 0.51377702
0.2170265 -0.51372367 0.57103199
0.25804621 -0.51911741 0.36500609
0.1378334 -0.2088044 0.64992827
0.52241778 -0.51410848 0.6123153
0.51692832 -0.50837898 0.72281039
0.41213119 -0.50882238 0.42041051
0.3664802 -0.5160808 0.81699717
0.3270587 -0.50348318 0.77325112
0.1040417 -0.41245669 0.83207041
0.45962009 -0.51831061 0.68345052
0.1138744 -0.3240248 0.81214499
0.364115 -0.51241833 0.53579593
0.36856681 -0.52181071 0.62942928
0.13263801 -0.2039822 0.7518416
0.1156305 -0.4001615 0.58340311
0.09309727 -0.34008169 0.57742882
0.096867353 -0.28278059 0.56085467
0.1275913 -0.2044633 0.78178602
0.1247208 -0.24519721 0.59793347
0.1890507 -0.39331701 0.70594388
0.086681798 -0.2072534 0.68931073
-0.001694784 -0.2078952 0.73798442
0.18159311 -0.50662547 0.68915212
0.032496382 -0.2089992 0.6091128
-0.016118141 -0.2067419 0.69874078
0.2032506 -0.50495851 0.71210712
0.058160279 -0.2099659 0.60263139
0.1362351 -0.38219139 0.61591518
-0.041574899 -0.2025169 0.72097522
0.16817939 -0.20813 0.71716571
0.079127207 -0.2060855 0.68528599
0.1177774 -0.266839 0.58942342
0.1367463 -0.2057976 0.7830416
-0.001300082 -0.2100033 0.75191921
0.1056921 -0.2122882 0.77858508
0.045453381 -0.2085517 0.62702221
0.105654 -0.2319546 0.57106352
0.042049039 -0.20928369 0.64397627
0.099964783 -0.20623191 0.67323428
0.05862163 -0.2072414 0.63196212
0.17395531 -0.2256279 0.67754787
0.1635695 -0.36390689 0.66218221
0.1943868 -0.2065074 0.72556323
0.1573844 -0.36651579 0.65290451
0.097440027 -0.41365099 0.56511909
0.1151886 -0.32125559 0.58103943
-0.06254895 -0.2083921 0.6982348
0.089654863 -0.2320127 0.56513143
0.04532586 -0.2055251 0.66221452
-0.022577001 -0.2078913 0.64446121
0.1243613 -0.2124811 0.60589647
-0.021200269 -0.2077637 0.64727157
-0.0088904426 -0.2084823 0.62779748
0.095050722 -0.2059994 0.5699544
-0.030722391 -0.3059113 0.64406103
-0.0090915784 -0.39520189 0.62583882
0.087876163 -0.29947951 0.56879473
0.2135811 -0.49412379 0.71690571
0.05775642 -0.2102122 0.65154278
0.062215261 -0.2089107 0.59349138
-0.02391289 -0.2104755 0.67836553
0.098533504 -0.2123419 0.5556463
0.1086038 -0.34307989 0.5716821
0.100795 -0.45096359 0.56616008
0.01643493 -0.2247484 0.60621673
0.026978239 -0.20905749 0.61618072
0.0023047631 -0.29649979 0.61481237
0.02442361 -0.30105439 0.60259831
0.050244901 -0.25312799 0.58464408
-0.0084818602 -0.26348519 0.62427598
0.054906528 -0.25751951 0.58108509
0.05181032 -0.3551169 0.58190238
-0.04521789 -0.38206339 0.64476871
0.078082189 -0.28755099 0.57053453
0.04952246 -0.40503219 0.57860339
0.1275658 -0.379691 0.58945447
0.01142755 -0.29794151 0.61025798
0.087109223 -0.46940941 0.56404918
0.058654811 -0.51521832 0.53338802
0.1001482 -0.2072521 0.66023791
0.1010592 -0.20832869 0.56466562
0.091366693 -0.2090807 0.55816078
-0.0059262072 -0.34562999 0.62078601
0.079137489 -0.27445549 0.5691331
-0.080755338 -0.44479311 0.67668003
0.01163808 -0.34678909 0.6158483
0.096390963 -0.26192909 0.55915427
-0.024558621 -0.4080272 0.63294858
-0.0129161 -0.31551209 0.62478882
0.075536951 -0.43972659 0.56888771
-0.075400427 -0.33356881 0.66664481
0.058716182 -0.2448162 0.58359432
0.064496092 -0.2256607 0.5786854
-0.01089458 -0.26144761 0.63045651
0.0785622 -0.3400014 0.5682863
-0.021947561 -0.2071252 0.76071841
0.0782841 -0.21176291 0.56783432
0.061768841 -0.2063738 0.6249283
-0.01644337 -0.2119067 0.62816978
0.026426289 -0.21348511 0.60402381
0.072723113 -0.2322266 0.57082617
0.0058830529 -0.37643909 0.61036438
0.0572218 -0.25900531 0.58023542
0.068199977 -0.3271029 0.57672322
0.086898006 -0.3478522 0.56157899
0.02815428 -0.30684271 0.59820902
0.027578561 -0.3393544 0.59880757
0.0031528471 -0.28461489 0.6164555
-0.006444097 -0.3018294 0.62341899
0.01342039 -0.3193264 0.60971832
-0.04066496 -0.22952031 0.64240003
-0.086226121 -0.50480199 0.67836457
0.1083828 -0.288434 0.56620061
0.0049611032 -0.2141708 0.61642522
0.0090185832 -0.4953725 0.61249101
-0.097295903 -0.50092769 0.67698878
0.00045334551 -0.26247251 0.61992031
0.01234451 -0.23612671 0.60836637
0.1118048 -0.51463979 0.50024372
0.076129504 -0.3727062 0.57273263
-0.02596637 -0.28447881 0.63878232
0.1670925 -0.2093879 0.67901212
0.1223638 -0.2020686 0.63996989
0.12672 -0.2063842 0.63012832
0.1550418 -0.3104299 0.65081578
0.16528261 -0.40859291 0.66469139
0.1526403 -0.3506299 0.6439606
0.1580456 -0.2765705 0.65972352
0.1735604 -0.2715016 0.67837888
0.16635489 -0.4183076 0.66637838
0.18790279 -0.3367584 0.70730609
0.1499339 -0.4056069 0.63224852
-0.049521461 -0.2057759 0.69429922
-0.03174198 -0.206976 0.64840609
0.084439158 -0.2100507 0.57772148
0.078921728 -0.25383011 0.5692569
-0.02835815 -0.3202543 0.63494217
0.055997372 -0.29100269 0.58167219
-0.089977004 -0.37484831 0.67750019
-0.088857241 -0.3452512 0.67441201
0.1038724 -0.3687655 0.56927693
0.01027635 -0.3445408 0.61393702
0.0056139082 -0.45858929 0.61590332
0.081338778 -0.29374921 0.57015008
-0.018748689 -0.45247731 0.62681669
0.093414173 -0.26092359 0.56215417
-0.0038059731 -0.47871 0.620107
-0.002045251 -0.3710781 0.61792958
0.0090232044 -0.43335581 0.61920029
0.051486839 -0.20685419 0.59804618
-0.070768297 -0.31318909 0.66294271
-0.038048781 -0.26456711 0.64276779
-0.069487147 -0.2424501 0.65965283
0.02610926 -0.41858301 0.60469061
-0.029830851 -0.3680056 0.63482791
0.1920485 -0.4848935 0.70812231
-0.090420417 -0.2928431 0.67945719
0.083856493 -0.27917969 0.56989622
0.01307854 -0.40779439 0.60564113
0.0203845 -0.26622829 0.60721368
0.028081249 -0.3265962 0.60169327
0.1093014 -0.45328999 0.56901842
0.1436739 -0.52037549 0.54896611
0.053563841 -0.3673282 0.58327711
0.1611139 -0.52318639 0.57857472
0.1915568 -0.51828879 0.62557727
0.1326315 -0.33499089 0.61141688
0.1289151 -0.2016851 0.66667461
0.1306639 -0.2009628 0.66478378
0.159604 -0.20987619 0.666906
0.1077448 -0.2068878 0.72457772
0.033173509 -0.2097995 0.85300362
0.087926321 -0.2056198 0.64348012
0.15262941 -0.20725089 0.65727061
0.093559638 -0.2069701 0.63597709
0.1527015 -0.2656872 0.64566982
0.1494737 -0.2673957 0.64077002
0.209242 -0.43798849 0.73395193
0.18523151 -0.37824619 0.69690579
0.1235102 -0.37777531 0.59385169
0.144417 -0.2791687 0.63469511
0.1162174 -0.32960099 0.58478183
0.054827452 -0.2006823 0.71461278
-0.0084491372 -0.210623 0.73874199
0.02115044 -0.20836321 0.78037328
0.080230132 -0.204478 0.63988721
-0.071713127 -0.26670349 0.65906352
-0.083591238 -0.2887775 0.67573011
-0.065784447 -0.25396729 0.65924829
-0.089650743 -0.45359859 0.68639141
0.085191786 -0.34906739 0.56514961
0.037937071 -0.3058936 0.6019817
0.090243429 -0.2331713 0.56417131
-0.0016096981 -0.32673851 0.61863852
0.048432689 -0.47919229 0.58111602
0.099272937 -0.3408753 0.56362259
0.072265968 -0.48797411 0.57144833
-0.01629252 -0.48752099 0.62459558
0.067362227 -0.27575609 0.57320547
0.02861095 -0.31517091 0.59875929
-0.077451423 -0.50249898 0.66990459
0.07616131 -0.30494431 0.5741204
-0.05153688 -0.31009951 0.64730328
0.089365616 -0.42992041 0.56529403
-0.097465239 -0.3643527 0.68271959
0.1488259 -0.2087204 0.67479682
0.093025751 -0.2016525 0.57235563
0.021975961 -0.49254549 0.60720712
-0.05594461 -0.28774211 0.65328592
0.021847909 -0.40091461 0.6050061
-0.051578742 -0.48101509 0.65033841
-0.0064391121 -0.20230541 0.75292307
0.092122041 -0.4468599 0.56513888
-0.01156313 -0.3759563 0.62532961
0.1383125 -0.20793369 0.62896842
0.09864518 -0.32000071 0.56303012
0.085686058 -0.2482785 0.56870508
0.028310571 -0.42961901 0.60247922
-0.082910784 -0.36275241 0.67405331
0.091666549 -0.29422829 0.5622561
0.02758139 -0.272293 0.60352808
0.049559001 -0.21608859 0.7254523
-0.0043965578 -0.43987519 0.61976647
0.2137904 -0.48716909 0.7366448
-0.02088448 -0.27109259 0.63468242
0.099282756 -0.46799451 0.56291813
0.1056649 -0.40900579 0.57312119
0.099353828 -0.41364819 0.5779587
0.1234612 -0.4845852 0.59655452
0.1632522 -0.52368921 0.56386697
0.088570163 -0.2114626 0.82454789
-0.02166657 -0.20511539 0.7572583
0.0087631941 -0.20641419 0.73640418
-0.01543498 -0.47928831 0.6176666
0.1235358 -0.20560101 0.64454621
0.027997291 -0.2152729 0.73849702
0.1458437 -0.21116699 0.74589783
0.1913572 -0.2051381 0.72715878
-0.1246652 -0.51455259 0.34736091
0.021603329 -0.20888551 0.78234601
0.1085228 -0.2120764 0.77458322
0.1069824 -0.211325 0.73485261
0.02981263 -0.20147491 0.7003541
0.1285928 -0.2057967 0.67115319
0.088964567 -0.2109824 0.6893124
0.1684082 -0.20299891 0.70673472
0.085511833 -0.21054889 0.75388229
0.1191734 -0.210399 0.80092847
0.167299 -0.20842101 0.71675289
0.1660302 -0.2099911 0.6776464
0.1365214 -0.20621 0.78753698
0.1016176 -0.20584171 0.56200403
0.106461 -0.2275797 0.56833458
0.1592951 -0.30580691 0.64350438
0.13139769 -0.30591419 0.61020672
0.1641909 -0.38149539 0.65618259
0.1477522 -0.50430739 0.63047862
0.1159235 -0.39900589 0.58195633
0.19609889 -0.51647258 0.7076599
0.078081489 -0.3774845 0.57206488
0.1203401 -0.37646511 0.5934121
0.1224165 -0.2264865 0.6002816
0.1041309 -0.40615699 0.57251561
0.15301161 -0.2065838 0.65405089
0.079588123 -0.204427 0.68467242
0.13142569 -0.215073 0.59950799
0.13889299 -0.21160831 0.63055062
0.14619429 -0.2659474 0.64448082
0.2139129 -0.52148283 0.73382843
0.1465103 -0.28385609 0.6303913
0.05386132 -0.2157722 0.63475692
0.062683113 -0.2060121 0.64346218
0.097323723 -0.206444 0.57060152
-0.01589483 -0.21963 0.64818031
0.03659153 -0.2069822 0.64919221
0.05016071 -0.20762829 0.65862203
0.027490079 -0.1968236 0.6047641
-0.071993858 -0.32913131 0.66279697
-0.074243218 -0.43208909 0.6653263
-0.01145938 -0.3519246 0.62367141
-0.036270171 -0.2627812 0.63803208
-0.1017802 -0.51657021 0.68279099
0.099083424 -0.34191969 0.57701451
-0.087602533 -0.25931329 0.67023629
0.030610081 -0.2084053 0.71006978
0.063861251 -0.21017089 0.59313941
-0.001682609 -0.29755199 0.62130588
0.0061667259 -0.38185969 0.61232078
0.15897191 -0.27486801 0.65719211
0.1165589 -0.27817309 0.5800423
-0.058997061 -0.21724831 0.65666407
0.055437271 -0.28882599 0.57975727
0.087958433 -0.34840989 0.56325889
0.088012159 -0.2090617 0.69083601
-0.02343997 -0.20739619 0.69293481
0.045219362 -0.21036141 0.62396938
-0.093630463 -0.51726627 0.66373843
0.064171143 -0.41100639 0.57802862
0.1257979 -0.43767211 0.59826028
0.1336814 -0.38388601 0.61649603
0.1814951 -0.50609159 0.68708378
0.054926898 -0.26181999 0.58045018
0.1431607 -0.4438343 0.61456269
0.1488875 -0.4067831 0.62946761
-0.03403008 -0.40310869 0.64670843
0.055317879 -0.2078708 0.72631192
-0.0075108111 -0.2109517 0.78475422
0.21212029 -0.34225991 0.73557287
0.088167787 -0.2090544 0.67207003
0.1588539 -0.2105253 0.66173232
-0.113138 -0.50006539 0.69905752
-0.047326531 -0.4774304 0.6464842
0.1756537 -0.2157997 0.7411266
0.17475 -0.21876191 0.68581611
0.13810261 -0.38307479 0.61813438
0.1866792 -0.33998179 0.7062425
0.1740364 -0.2713764 0.67961001
0.15357719 -0.3510052 0.6428746
0.19357461 -0.38221821 0.69874161
0.1677853 -0.41795191 0.66499048
0.190218 -0.39527169 0.70459348
-0.035354551 -0.31338751 0.64727032
0.1153918 -0.22403421 0.58287078
0.002938479 -0.30315441 0.6265561
0.17948911 -0.4545919 0.68390012
0.188895 -0.25439411 0.70876127
0.1960704 -0.32187459 0.72763169
0.1242957 -0.2478182 0.59984571
0.1223836 -0.2363127 0.59106308
0.2189765 -0.3273406 0.76315212
0.1690788 -0.313481 0.68553072
0.1614778 -0.2074378 0.71876037
-0.04087159 -0.21555869 0.77275193
0.0522618 -0.2082455 0.64831781
0.14773551 -0.2040842 0.67031229
0.1471169 -0.27070439 0.64006162
0.15525649 -0.34066531 0.65718973
-0.040005449 -0.20924111 0.66979778
-0.025924681 -0.2140075 0.65347868
-0.3795062 -0.51639771 0.47937191
-0.1048944 -0.41823119 0.6882242
-0.089659013 -0.2311054 0.67902058
-0.082669817 -0.50390488 0.67503607
-0.01207298 -0.2280388 0.63109481
0.1489819 -0.50010228 0.63565582
0.1391613 -0.4515247 0.61368817
0.066754907 -0.33505869 0.57702363
0.0129233 -0.33855161 0.61498952
0.1644084 -0.3666417 0.66364771
0.024726089 -0.34473759 0.60591388
0.1203677 -0.26719299 0.59319693
0.17170949 -0.39789981 0.67527997
0.1701746 -0.4542979 0.66834521
0.1120112 -0.40079531 0.58263582
0.2016135 -0.40586489 0.72279221
0.1062619 -0.2146136 0.78406912
0.018389249 -0.2132847 0.79053521
0.18045039 -0.2103212 0.72766268
0.076302141 -0.2090864 0.65213609
0.1128986 -0.208857 0.62971121
-0.0078588128 -0.2197368 0.73481911
0.082660973 -0.2150905 0.77877569
0.1959215 -0.21324199 0.72817367
0.087372631 -0.2139736 0.79660892
0.02343953 -0.21049771 0.82419032
0.062060591 -0.2121731 0.58624572
0.076913327 -0.21310531 0.57504177
0.1296936 -0.1938637 0.60160261
0.20453671 -0.4566485 0.744133
0.16344801 -0.41330689 0.66712463
0.1334939 -0.2944569 0.62110889
0.1699708 -0.2472848 0.67587233
0.1770571 -0.25934991 0.69818562
0.04763722 -0.35850021 0.59102899
-0.016377719 -0.26179609 0.63827038
-0.078213356 -0.2264934 0.73334152
-0.051878929 -0.2112022 0.72326869
-0.093576342 -0.41655949 0.68858743
-0.05428547 -0.247095 0.65637618
-0.059056971 -0.2931881 0.65834492
-0.033491459 -0.34812039 0.64672917
-0.1057958 -0.35164189 0.68679702
-0.09777692 -0.3539066 0.70127273
-0.056103501 -0.48559719 0.65720779
0.0046871901 -0.2102101 0.63710648
-0.036192659 -0.2178093 0.74944741
0.084882773 -0.21178719 0.59380507
0.01388282 -0.30004171 0.61688441
0.1184705 -0.27342111 0.59559709
0.18805701 -0.3524816 0.70793712
0.1562532 -0.37125859 0.6568476
0.0030691619 -0.2132597 0.67120612
-0.01312673 -0.26690999 0.6308744
0.1072795 -0.34751651 0.57808429
0.1568445 -0.43872619 0.64621472
0.074304581 -0.3528761 0.58203268
0.023728941 -0.31435889 0.60886317
0.1206724 -0.30208239 0.59645152
-0.02030763 -0.32795039 0.63884997
0.1617775 -0.3524884 0.66087782
0.1678721 -0.291067 0.66416538
0.060859472 -0.41951799 0.58759081
0.074739493 -0.29910851 0.58206499
0.0671736 -0.27873591 0.57657248
0.20704859 -0.28019741 0.73641258
0.1172556 -0.44411239 0.5834071
0.1083108 -0.26273239 0.57554221
0.1246152 -0.45520481 0.59656602
0.100861 -0.3503924 0.56727362
0.173342 -0.39532289 0.6807403
0.0100801 -0.31693229 0.619883
0.1132811 -0.32209331 0.58125287
-0.046194881 -0.51987678 0.55844718
-0.02689874 -0.4108454 0.63478571
0.092356622 -0.4229117 0.57453197
0.1150376 -0.3329668 0.58867002
0.17439841 -0.26579359 0.68705118
-0.04440954 -0.2349806 0.65357989
-0.43612099 -0.4816097 0.80074918
-0.46884561 -0.51112878 0.83312458
0.2106068 -0.22353999 0.7471258
0.1247652 -0.2085534 0.64142168
0.1754526 -0.21632241 0.69766623
0.1954758 -0.21261039 0.7499094
-0.01334086 -0.2107832 0.70627618
0.15992659 -0.2231117 0.6594491
0.1419816 -0.32517469 0.63723719
0.1118671 -0.35797489 0.58020091
-0.01389632 -0.2163914 0.67091358
-0.083438188 -0.21591111 0.69690102
-0.043343689 -0.44797099 0.65281028
0.0095651746 -0.23220789 0.61835289
0.0066530108 -0.24685369 0.62239009
-0.0071400399 -0.27412209 0.6391561
-0.093237251 -0.27649361 0.67272818
-0.078026682 -0.23585451 0.67350972
0.1760862 -0.2260986 0.68882132
0.1211051 -0.48140061 0.59451222
0.03539243 -0.2171597 0.72930962
0.2095378 -0.27122581 0.75745821
0.1727653 -0.4816767 0.67087388
-0.1218663 -0.51154041 0.65331483
-0.090167612 -0.24955089 0.67877853
0.164077 -0.2668111 0.67000687
-0.0072290902 -0.37726951 0.6212616
0.1551379 -0.48202029 0.65775812
0.032883611 -0.37583041 0.59961039
0.1465342 -0.46902281 0.63765103
0.1325504 -0.2120554 0.76289201
0.14449731 -0.2130888 0.7904433
0.1055569 -0.21069039 0.69247502
0.072116487 -0.2212185 0.74655098
0.063297033 -0.2019821 0.82509297
-0.01102379 -0.20706891 0.77449322
0.093350172 -0.2150858 0.65027249
0.20810311 -0.30461341 0.74914187
0.20703121 -0.38049021 0.73574191
0.13057341 -0.2480157 0.6234346
0.20354719 -0.30652601 0.73560178
-0.05363306 -0.33289719 0.66078699
0.2026846 -0.24220701 0.74299282
0.17044359 -0.2214831 0.68091542
-0.4510262 -0.50694102 0.8357209
0.1415187 -0.30145511 0.62623239
0.18478329 -0.37110251 0.70702589
0.1797118 -0.38516149 0.69498742
0.1621011 -0.505458 0.66427368
0.17456929 -0.37132731 0.68435079
0.1965563 -0.39297989 0.71853828
0.2035466 -0.2934458 0.73732787
0.21479841 -0.52267438 0.74561882
0.2191086 -0.4601922 0.7669934
0.1882783 -0.44291249 0.70281208
0.1319458 -0.49673441 0.61592692
0.1171334 -0.50299162 0.58597219
0.16650119 -0.32145631 0.67453969
0.054163899 -0.24702939 0.58897531
0.2101974 -0.29674289 0.7525112
0.1032643 -0.486572 0.56872529
0.1071499 -0.39041391 0.57755941
0.1998568 -0.42509651 0.71108532
0.2094716 -0.52018797 0.7336306
0.1119546 -0.20774341 0.60519058
0.20225661 -0.50208658 0.71017343
0.03059453 -0.20968971 0.71171391
0.018601781 -0.2111195 0.7755698
0.002312779 -0.2094724 0.75042868
0.1611789 -0.27156451 0.65408307
0.20746049 -0.20993701 0.73710668
0.1112909 -0.20513161 0.60512692
0.030700739 -0.2094167 0.71155763
0.2076015 -0.2096975 0.73699671
0.1414565 -0.20982499 0.63063788
0.097829998 -0.2179341 0.78301471
0.1256385 -0.20707379 0.67420578
0.1316177 -0.207799 0.64391881
0.163321 -0.207476 0.66150987
0.1643367 -0.20118511 0.72538912
0.094006658 -0.20496809 0.66535431
0.1878223 -0.2130878 0.75642997
0.1663401 -0.2062939 0.67633837
0.1049622 -0.2075745 0.71572572
0.1689717 -0.2059586 0.70995092
0.1365265 -0.20566151 0.65507448
0.1697564 -0.20747539 0.67594987
0.1523875 -0.20603371 0.65841609
0.1209219 -0.2097739 0.74727041
0.2155616 -0.2203133 0.74102992
0.1161771 -0.28128871 0.58554769
0.1393657 -0.38753751 0.62036681
0.1536984 -0.50101388 0.63508672
0.1133822 -0.36223409 0.58267659
0.1130017 -0.38896999 0.57676089
0.1241588 -0.29712409 0.59931958
0.1507895 -0.4142265 0.63028872
0.098226354 -0.33392161 0.58355868
0.1351746 -0.29543731 0.62191713
0.00072997808 -0.19089679 0.66171253
-0.01991025 -0.2065213 0.65682119
0.16925 -0.2096449 0.67990208
0.1228074 -0.2140822 0.61095852
0.1815673 -0.2105372 0.73374492
0.035524961 -0.218255 0.7743662
0.032892078 -0.2094463 0.61282963
0.1129645 -0.2124896 0.80863512
0.094548821 -0.2103314 0.56357652
0.1896482 -0.33790299 0.70990252
0.01364524 -0.2048182 0.62743121
0.091584951 -0.20852999 0.71972209
-0.01944628 -0.2094707 0.64635217
0.02066581 -0.2105995 0.72416538
0.089258261 -0.20946731 0.67279512
0.07697925 -0.2070246 0.65104121
0.1112134 -0.2049156 0.67546189
0.065631062 -0.20563 0.68072373
0.1711342 -0.20668811 0.71222752
0.096473083 -0.208599 0.57350981
0.061749291 -0.2100921 0.59763187
0.052851971 -0.20650931 0.66241878
0.112239 -0.40097561 0.58714122
0.1148248 -0.22917899 0.59001249
-0.025122421 -0.21085291 0.69926322
0.067048334 -0.20904469 0.590792
-0.016559791 -0.2139319 0.62759221
-0.004666619 -0.4506056 0.63584381
-0.0040661772 -0.3742668 0.61934012
-0.096719407 -0.50958282 0.68193883
0.1755068 -0.27364159 0.6802569
0.029892471 -0.2106993 0.71322519
0.021102561 -0.2094221 0.78284103
0.1767177 -0.2271463 0.68804687
0.1065555 -0.2292385 0.57223988
0.030803841 -0.1978327 0.60289347
-0.0025183561 -0.34287381 0.61950243
0.091252647 -0.2331897 0.56902629
0.094953299 -0.4170486 0.57148612
0.058086131 -0.2610608 0.58037978
0.064082444 -0.40775791 0.58200419
0.04966801 -0.48164779 0.58095068
0.050192811 -0.25405091 0.58426839
0.2063382 -0.2789571 0.74224597
0.140788 -0.45564291 0.62613422
0.20347591 -0.50760651 0.7149455
0.1825154 -0.50586051 0.68956357
0.1193741 -0.27376881 0.60380101
0.126617 -0.43195841 0.60089493
0.1216878 -0.23777109 0.59564692
0.1208388 -0.38528189 0.59860802
0.1811209 -0.45042381 0.68265522
0.1004385 -0.214321 0.559003
0.1102722 -0.3455123 0.57700437
0.2001825 -0.27030259 0.72366673
0.2147685 -0.51906759 0.74243581
0.0022112729 -0.30374709 0.61262548
0.048177838 -0.2237163 0.58587509
0.01402211 -0.23016851 0.61521691
0.05398494 -0.2110952 0.73501217
0.147036 -0.2093378 0.78376102
0.039205421 -0.209648 0.64603931
0.1243226 -0.2094751 0.78109151
0.1244464 -0.2080472 0.81713033
0.14878529 -0.20712049 0.66950262
0.1568218 -0.3088887 0.65268523
0.059721939 -0.21188571 0.63622898
0.1784467 -0.20971119 0.69233638
0.081297457 -0.216865 0.56893468
0.1549606 -0.3494727 0.64268899
0.1675736 -0.41990021 0.66938651
0.15373901 -0.26459491 0.63574642
0.1575806 -0.33508509 0.65320981
-0.007504106 -0.26774359 0.62636971
-0.005726397 -0.3021633 0.620498
0.078756511 -0.36889711 0.56795138
-0.01221473 -0.26369011 0.63510782
0.01035732 -0.3404986 0.60871089
-0.045379572 -0.38320869 0.6494714
0.077068754 -0.44030201 0.56811857
0.0067856312 -0.26439911 0.61205792
0.090514749 -0.43087891 0.56644177
0.1721554 -0.29449949 0.6672492
0.1029696 -0.34860209 0.56756002
0.063651107 -0.51891822 0.5204404
0.1957223 -0.51662928 0.70946002
0.02178726 -0.2113653 0.83875132
0.060994599 -0.2091345 0.83582681
0.1009091 -0.2067178 0.56376928
-0.042574029 -0.2368097 0.65783131
-0.080808781 -0.3441759 0.68224138
-0.019214511 -0.3519963 0.63474858
0.01113924 -0.37453991 0.60673088
-0.05381852 -0.28955731 0.65560508
0.030800691 -0.30540121 0.59744579
0.0081080422 -0.4595575 0.61852288
-0.021952029 -0.2815643 0.63353902
0.02754144 -0.3389965 0.60084093
-0.0091605783 -0.2278222 0.63291693
-0.023254391 -0.4090752 0.63198131
-0.051607229 -0.48502871 0.65545702
0.009830229 -0.50092131 0.62043017
-0.04678474 -0.45123461 0.64614183
0.132585 -0.40342161 0.6148982
0.1475262 -0.28024831 0.63358808
0.080870263 -0.28841221 0.57474291
0.087560043 -0.34967589 0.56625408
0.1017244 -0.49273571 0.5632906
0.1105205 -0.26793531 0.57693148
0.020820171 -0.21292681 0.85846943
0.06004649 -0.2956827 0.58388442
0.2176145 -0.29059401 0.71445417
-0.084755182 -0.43873471 0.67202342
-0.086096577 -0.34870631 0.67879021
0.02408905 -0.36200121 0.6108256
0.03604532 -0.37457311 0.60140622
-0.0031651631 -0.48127109 0.62182897
-0.094147198 -0.4595367 0.67935789
0.01437212 -0.2366769 0.60694599
0.038043771 -0.39294019 0.59440613
0.01317115 -0.40916601 0.606722
0.19845989 -0.3633368 0.72018617
-0.1116941 -0.52275032 0.64858621
0.079835087 -0.3434743 0.57258213
0.1803114 -0.2460331 0.69479442
0.049114369 -0.51705182 0.52130568
0.1172306 -0.3281903 0.58418798
0.1221629 -0.2238003 0.59597909
0.1678361 -0.28537431 0.66687697
0.095738508 -0.26268789 0.56841922
0.18131959 -0.20947599 0.70421779
0.2112627 -0.44064921 0.73703837
0.1237356 -0.2039237 0.61946642
-0.003122821 -0.2130428 0.75319469
0.06854479 -0.32821509 0.57470608
0.0163697 -0.32127109 0.61075097
-0.017831409 -0.4546628 0.62740397
-0.076877117 -0.50239432 0.67386341
0.079924174 -0.30633971 0.57567769
0.027667159 -0.4182789 0.60617989
0.029944889 -0.4294531 0.60400158
0.26030949 -0.51956528 0.70320833
-0.071613722 -0.3852995 0.67136848
0.1404292 -0.2077834 0.62570947
0.1073447 -0.37103111 0.57062459
0.1925202 -0.48081759 0.70443219
0.1344666 -0.33229259 0.61237937
0.1007098 -0.31945679 0.56383139
0.1087482 -0.40427059 0.56990659
0.110604 -0.29373479 0.5746296
0.2106127 -0.49018961 0.73756373
0.104326 -0.5143612 0.57132977
0.2387244 -0.52064753 0.6869995
-0.024162371 -0.21573441 0.68344492
0.13444971 -0.30711699 0.6134547
0.1764821 -0.2495023 0.68011558
0.21006291 -0.3682467 0.7382341
-0.038406748 -0.21625639 0.70278031
-0.089147583 -0.4535093 0.6928196
-0.088385753 -0.37538421 0.67949581
-0.05720285 -0.35734469 0.65485787
0.00030101839 -0.32877311 0.62025338
0.24740849 -0.4723722 0.78406429
0.0097780824 -0.4272593 0.61351532
0.053155322 -0.406526 0.58227777
0.068211377 -0.35217571 0.57094288
0.1645129 -0.50715661 0.65501708
-0.095770128 -0.404232 0.68091983
0.067737982 -0.27756581 0.57574159
-0.007486939 -0.29083931 0.62413371
0.16207629 -0.5234971 0.56525391
0.2264608 -0.51181662 0.74700302
0.02261021 -0.4012177 0.60718471
0.1928173 -0.51985753 0.6147033
0.2245937 -0.52073169 0.67011088
0.001731157 -0.2676948 0.6300658
-0.0078240559 -0.4504343 0.6275571
-0.02762446 -0.3628163 0.62610811
0.14593691 -0.5202561 0.55624938
0.1927629 -0.52352369 0.63290989
0.2421706 -0.51829797 0.71396399
0.074506663 -0.506989 0.57398909
0.2385186 -0.51716882 0.67868108
0.1506127 -0.51707131 0.53799897
0.2423718 -0.51854211 0.79284132
0.25822559 -0.51789588 0.75512522
0.1123672 -0.51976693 0.50412571
0.088256903 -0.4707889 0.58132398
0.25436071 -0.51888961 0.7188338
0.057639912 -0.5049333 0.58534533
0.1207601 -0.51080263 0.49936491
-0.05553757 -0.218668 0.65877032
0.21226551 -0.2187518 0.73948252
0.1316897 -0.2353278 0.6087755
-0.035975479 -0.2034259 0.70850539
-0.040148851 -0.22376101 0.77662271
0.02855185 -0.2163683 0.60644561
-0.05022959 -0.2123147 0.68365508
0.05473756 -0.2062183 0.74303019
0.01738783 -0.2113159 0.75073862
-0.025840349 -0.32053301 0.63551712
0.05484302 -0.368808 0.58501709
0.074422717 -0.48730069 0.5715093
0.051636979 -0.35578269 0.58455479
0.0521148 -0.2983245 0.59214759
0.02115785 -0.36981291 0.59913337
-0.090257168 -0.5105049 0.68920797
0.084261946 -0.3757914 0.56986308
0.142005 -0.51960433 0.5830031
-0.029143071 -0.3056899 0.63957977
-0.033868048 -0.21061461 0.76453298
-0.049833059 -0.314634 0.65074718
0.46361929 -0.52161509 1.058616
0.094683297 -0.44506979 0.56572658
0.1427546 -0.52032763 0.56110352
0.1083228 -0.32840499 0.57127541
0.1243192 -0.25596979 0.59358311
-0.0098743737 -0.37629879 0.6265496
-0.00051171333 -0.31853241 0.63250571
0.1253498 -0.3923026 0.59243143
0.14354309 -0.51993972 0.61839771
-0.054689299 -0.44763899 0.65647238
0.09453842 -0.29887491 0.56967407
0.0076399972 -0.51924402 0.61730307
-0.02601009 -0.4234001 0.63597161
0.043376531 -0.4627049 0.5956791
0.088933453 -0.46083841 0.55598509
0.2152236 -0.51735848 0.45369169
0.065094173 -0.4358367 0.57678521
0.08737243 -0.3849372 0.5647012
0.15320189 -0.51339298 0.43049729
0.006264023 -0.51590258 0.56298232
-0.074101202 -0.40756461 0.66527867
-0.078725323 -0.51734239 0.401362
-0.1649913 -0.52190828 0.4795422
-0.065373458 -0.52322638 0.60005891
0.085856423 -0.51848012 0.51635218
-0.007326826 -0.2091663 0.63333023
0.34901339 -0.51866478 0.49035659
0.1646117 -0.2293603 0.66396397
0.1985188 -0.2105878 0.72447902
0.09746135 -0.2105417 0.64962119
0.13613591 -0.21487319 0.80471992
0.09334106 -0.2083308 0.78002357
0.1072051 -0.28616759 0.58100098
0.2299441 -0.32195789 0.72731459
0.1953062 -0.31681371 0.72865158
0.17921241 -0.4702816 0.68247497
-0.041321091 -0.2134009 0.70884579
-0.049155138 -0.2494906 0.6517908
0.075743161 -0.2147823 0.7296347
-0.0357369 -0.2285262 0.64192438
-0.070809983 -0.31500319 0.66572762
0.041701142 -0.30040139 0.59553272
-0.037480999 -0.4943631 0.64310813
-0.02739384 -0.45784619 0.638183
-0.0285857 -0.35616031 0.63838607
0.030548099 -0.31734771 0.59817618
0.096837297 -0.41440651 0.56910717
-0.023971129 -0.48789009 0.62797463
-0.1072497 -0.47109079 0.67011279
0.032625388 -0.2068823 0.80301321
0.026026441 -0.2925666 0.58810759
-0.042284451 -0.3510454 0.64600271
0.2076211 -0.50938779 0.63219368
-0.072493561 -0.36869439 0.66789532
0.0073427712 -0.27283639 0.6148358
-0.050378431 -0.4294118 0.65659797
0.1371741 -0.35915101 0.61870992
0.099695183 -0.49109289 0.59144843
0.087318532 -0.28107151 0.5754981
0.091495357 -0.52142042 0.50504857
0.04827112 -0.20836119 0.81248337
0.0051237489 -0.21331599 0.61502087
0.022955939 -0.39525571 0.6012646
0.080172837 -0.20321541 0.68143612
0.16020299 -0.2070421 0.6607312
-0.0084491074 -0.2238937 0.62550467
-0.05519617 -0.35136291 0.6481871
-0.02546775 -0.31651461 0.63031667
0.1671388 -0.2087497 0.67970651
0.062892757 -0.209457 0.59304428
0.02731237 -0.20919269 0.71498209
0.062701337 -0.21023481 0.58522958
0.063209154 -0.2050184 0.64229202
0.09467265 -0.20718829 0.56744963
0.1705087 -0.2029299 0.70499462
0.051312391 -0.2082302 0.61402297
0.176201 -0.25683019 0.69488162
0.086047858 -0.21256299 0.56928122
0.147489 -0.20610701 0.77999091
0.050217722 -0.20678809 0.64831603
0.058055159 -0.25697961 0.57583928
0.1022434 -0.2334459 0.56470221
0.096711934 -0.2141169 0.56096607
0.17806029 -0.2060577 0.72176361
0.090646178 -0.2300898 0.5636788
0.21178821 -0.25913101 0.74569821
0.1004135 -0.20699421 0.56403017
0.1145806 -0.2787241 0.58358783
0.2135039 -0.33901 0.73983699
0.1697274 -0.45074531 0.66700393
0.16669901 -0.4194814 0.66899168
0.20537449 -0.45639509 0.74628001
0.1879371 -0.33491981 0.70653182
0.2064856 -0.36993739 0.73821849
0.1644379 -0.36287969 0.66161698
0.1117819 -0.35399461 0.57890803
0.13599619 -0.44936541 0.60109133
0.1925489 -0.39048651 0.70430768
0.085946381 -0.34781799 0.56438768
0.1733781 -0.48301771 0.67148781
0.1872571 -0.35010481 0.71049231
0.175348 -0.4194763 0.67683321
0.1204218 -0.439569 0.58121979
0.1511952 -0.49760169 0.63504517
0.1086224 -0.34257859 0.57245278
0.17978001 -0.35097381 0.68229139
0.1486607 -0.50356138 0.63179559
0.076121867 -0.4395918 0.56909609
0.1578313 -0.42952159 0.63868642
0.1208178 -0.3955723 0.57869142
0.1131586 -0.39701101 0.58136648
0.1591409 -0.4637832 0.64175922
0.1030152 -0.34541771 0.56376737
0.19526739 -0.51581538 0.71098882
0.088382334 -0.4299677 0.56552458
0.11552 -0.31806821 0.58219248
0.094173878 -0.41426319 0.56691229
-0.0122866 -0.206532 0.63863438
-0.02067432 -0.2069457 0.64075208
-0.006162852 -0.2070659 0.65662801
-0.00052049762 -0.3015309 0.62755603
-0.0099048316 -0.26191309 0.62535
0.03116229 -0.2075523 0.60896122
-0.03222451 -0.30692199 0.64011627
-0.0054785609 -0.29895779 0.62527388
-0.0084188282 -0.208996 0.62991941
-0.0369238 -0.2049489 0.66348243
-0.031313509 -0.203647 0.65112913
0.1835549 -0.206855 0.72147608
0.19874071 -0.2982766 0.76633942
0.2015896 -0.49040699 0.76484442
0.2025031 -0.50836962 0.71483737
0.2125733 -0.37522301 0.74495143
0.1134084 -0.20539831 0.70722097
0.1737888 -0.216748 0.68711013
0.20942301 -0.50648469 0.75349933
0.1055669 -0.2113288 0.72334307
0.1776417 -0.21024451 0.73859602
0.01803505 -0.2138835 0.70136952
0.16211531 -0.2109872 0.75793147
0.057621781 -0.2133763 0.82540512
-0.69423091 -0.36547741 0.48146769
0.20352019 -0.22689889 0.74463809
0.1256085 -0.2151062 0.809084
0.2081783 -0.3292796 0.75376678
0.18239979 -0.28825241 0.76746029
0.14822979 -0.21417481 0.68643242
0.1649237 -0.210007 0.67521107
0.078019559 -0.28778401 0.83002782
0.058090929 -0.27445021 0.84689093
0.06228983 -0.3072204 0.83908188
0.04509807 -0.24648669 0.85576469
0.092309833 -0.36634451 0.82593668
0.117127 -0.39752409 0.81546521
0.1671001 -0.2120505 0.78095257
0.1792651 -0.2229705 0.76261121
0.1219923 -0.3400912 0.81267142
0.1824546 -0.35494199 0.76575208
0.2046393 -0.2867119 0.75094271
0.1240853 -0.2404653 0.79791421
0.042929292 -0.294595 0.8556304
0.1611644 -0.2220628 0.68228918
0.1997408 -0.45282611 0.74231857
0.1979868 -0.31990141 0.76426059
-0.65705132 -0.44804379 0.31493789
-0.66127968 -0.4388153 0.3301132
-0.68078989 -0.44481799 0.219604
-0.68565941 -0.42291269 0.2150384
-0.72023809 -0.36914921 0.2195197
0.1388616 -0.4525899 0.80716592
0.1969945 -0.4382939 0.76475233
-0.68913817 -0.41420889 0.2351408
0.15194669 -0.2186477 0.7866084
0.36801901 -0.51905239 0.4200637
0.1116391 -0.21143609 0.8069492
0.1346131 -0.2295354 0.79821122
0.038128968 -0.2298661 0.85441607
0.1771874 -0.41354331 0.78285331
0.081797957 -0.41554451 0.83529317
0.2018072 -0.26486871 0.76189142
0.1489823 -0.25426629 0.78296798
0.1643136 -0.41137591 0.79011661
0.1150351 -0.46139821 0.82031977
0.1888665 -0.4044669 0.76688081
0.060470279 -0.40319109 0.84887183
0.059302509 -0.36143589 0.84854728
0.083684087 -0.2097833 0.67933458
0.0515058 -0.2296278 0.84827453
0.1622601 -0.4378176 0.78776163
0.1953554 -0.2104236 0.73130018
0.189588 -0.46043429 0.7760002
0.19379359 -0.3816348 0.76840842
0.1282371 -0.24300531 0.60538191
0.1493196 -0.31693181 0.79152399
0.19976 -0.39385459 0.75681919
0.15225831 -0.2794933 0.78925419
0.024679011 -0.21867619 0.86332542
0.12808961 -0.31251889 0.80223972
0.1660575 -0.2683005 0.77447218
0.2062733 -0.28548831 0.75183588
0.054024462 -0.2162184 0.83939058
0.1361213 -0.43063429 0.80602789
0.1017607 -0.24516471 0.8219381
0.08055497 -0.2360761 0.83612901
0.2013205 -0.50707579 0.76785731
0.098874032 -0.4831644 0.83025461
0.1189254 -0.2464225 0.81139612
0.1129046 -0.48669019 0.82341528
0.1746279 -0.2396794 0.77144587
0.1982585 -0.37634471 0.75419593
0.109911 -0.26330009 0.81225848
0.112207 -0.27956671 0.81519341
0.20783991 -0.32960859 0.75531977
0.1163285 -0.3508341 0.81143242
