# .PCD v0.7 - Point Cloud Data file format
VERSION 0.7
FIELDS x y z normal_x normal_y normal_z curvature
SIZE 4 4 4 4 4 4 4
TYPE F F F F F F F
COUNT 1 1 1 1 1 1 1
WIDTH 585
HEIGHT 1
VIEWPOINT 0 0 0 1 0 0 0
POINTS 585
DATA ascii
0.10426427 -0.52450216 0.58634031 0.060525864 -0.97644657 -0.20709568 0.17570366
0.11235591 -0.52295023 0.58551806 0.038141862 -0.97417116 -0.22256611 0.20995815
0.12209442 -0.52195472 0.586317 0.049745485 -0.98766863 -0.14844514 0.21965778
0.13060187 -0.52197903 0.5803684 -0.17907554 -0.98002291 0.086527161 0.20841445
0.14225033 -0.52301723 0.58297241 -0.27894312 -0.9442575 0.17483819 0.17488398
0.17875919 -0.52501768 0.58547527 -0.22478279 -0.95851797 0.17525977 0.087373003
-0.061621536 -0.52235997 0.59414893 0.26948196 -0.78448743 0.55853289 0.1042961
0.0083708568 -0.52869833 0.59030837 -0.26395467 -0.81073123 -0.52253497 0.12363835
0.011812953 -0.52754563 0.591968 -0.290371 -0.77116817 -0.56655473 0.12804355
0.026451863 -0.52724725 0.59762615 -0.35458681 -0.78225112 -0.5122025 0.11331304
0.033045609 -0.52818614 0.59558326 -0.3138729 -0.82725447 -0.46597639 0.10254394
0.042472877 -0.52772951 0.59367216 -0.17739049 -0.88122749 -0.43814471 0.099249639
0.053311143 -0.5275557 0.59676051 -0.066181421 -0.92175239 -0.38208976 0.097020485
0.064198025 -0.52771556 0.59490687 0.037764899 -0.92495894 -0.37818605 0.10307032
0.075948186 -0.52774292 0.59514177 0.049106199 -0.93298608 -0.3565467 0.11519661
0.08286076 -0.52805674 0.59483433 0.070311345 -0.94787645 -0.31078389 0.12013575
0.09851747 -0.52632064 0.59503627 0.090125762 -0.95392162 -0.28620097 0.15479743
0.10208751 -0.52590406 0.59493566 0.064314879 -0.95301223 -0.29602584 0.15597749
0.1140807 -0.52496594 0.59517962 0.066193603 -0.96819174 -0.2412947 0.17163262
0.11982474 -0.52307105 0.59757113 0.1214681 -0.96460873 -0.23404166 0.18246301
0.13143386 -0.52101064 0.59794056 0.13757186 -0.96995103 -0.2006714 0.19545318
-0.065033972 -0.52228898 0.60396004 -0.35798851 0.62886316 -0.69019955 0.12223543
-0.055229846 -0.52309179 0.60626292 -0.41114864 0.26348427 -0.87265843 0.14656922
-0.028091503 -0.52476859 0.60578847 -0.43249077 -0.38080004 -0.81727785 0.16032568
-0.013375405 -0.52680582 0.60073912 -0.40464956 -0.51283479 -0.75713879 0.13937575
-0.0037615248 -0.52519733 0.60804027 -0.33632565 -0.65699953 -0.6747123 0.1436933
0.0056191464 -0.52642578 0.60577875 -0.28681043 -0.77486122 -0.5633204 0.13740933
0.01307695 -0.52592337 0.6064806 -0.20298482 -0.87156576 -0.44628495 0.1134261
0.02611376 -0.52659112 0.60466063 -0.33359322 -0.80730921 -0.4867931 0.11195262
0.033607606 -0.52761549 0.60477537 -0.26466736 -0.86911583 -0.41783831 0.099424563
0.045023132 -0.52800429 0.60123426 -0.14016213 -0.92108548 -0.36325756 0.083644092
0.057223052 -0.52837074 0.60512871 -0.014639535 -0.93801385 -0.34628826 0.078723021
0.064145148 -0.52814883 0.60369903 0.044306353 -0.93775916 -0.34444851 0.086917624
0.07209006 -0.52861267 0.60547936 0.050186653 -0.93786198 -0.34336016 0.089401215
0.096580535 -0.52826476 0.60570264 0.10569928 -0.96023327 -0.25841784 0.11045565
0.10676774 -0.52660453 0.60234016 0.090915665 -0.96541512 -0.24435228 0.13717008
0.11186619 -0.52582127 0.60480857 0.12149134 -0.9649201 -0.23274249 0.13546649
0.12129447 -0.52480102 0.60642278 0.14706592 -0.97077513 -0.18965043 0.14585625
0.12825172 -0.52103841 0.60768229 0.18362854 -0.95875543 -0.21695289 0.17972222
0.18600242 -0.52488661 0.60822684 -0.25202265 -0.96145523 0.10994741 0.097342111
0.18626453 -0.52354258 0.60712558 -0.25017774 -0.96143544 0.11424977 0.098256454
-0.020423383 -0.52632833 0.61543727 -0.34033179 -0.7279588 -0.59518939 0.15583546
-0.015252819 -0.52619618 0.61748099 -0.31301379 -0.76058871 -0.56879449 0.14701882
-0.004432667 -0.52565938 0.61698174 -0.33292454 -0.73433095 -0.59153974 0.14098379
0.0057140649 -0.52599615 0.61480623 -0.30222306 -0.73931175 -0.60173035 0.13907613
0.013683972 -0.5262531 0.61463261 -0.25275365 -0.84058899 -0.47908854 0.12714246
0.025392076 -0.52663499 0.61511821 -0.26728654 -0.86155283 -0.43160695 0.10500237
0.035890557 -0.52858233 0.61601382 -0.19351825 -0.91493928 -0.3541705 0.094094381
0.045107428 -0.52915913 0.61457217 -0.13453257 -0.9495002 -0.28346124 0.072069131
0.054441642 -0.52882123 0.61486244 -0.077816904 -0.95346075 -0.29130235 0.068791114
0.06036311 -0.52931571 0.61789203 -0.0035714931 -0.96712232 -0.25428683 0.057181198
0.11737166 -0.52643633 0.61582017 0.16571756 -0.96448457 -0.20568715 0.11801048
0.12340716 -0.52428144 0.61566979 0.18710881 -0.9611125 -0.20310886 0.1303325
0.1301387 -0.52260512 0.61651129 0.24393117 -0.94695556 -0.20921947 0.15027556
0.13382891 -0.5221318 0.61927933 0.23524939 -0.95249283 -0.19342971 0.15069067
0.19181995 -0.523049 0.61691695 -0.24958345 -0.95966625 0.12941687 0.1063228
-0.057905201 -0.52319247 0.62468886 -0.2309279 -0.89085591 -0.39121354 0.14076635
-0.039634772 -0.5232259 0.62989807 -0.22570716 -0.84846288 -0.47871387 0.12975162
-0.025325352 -0.52456057 0.62709749 -0.29714957 -0.78797269 -0.53925979 0.14729337
-0.014923886 -0.52565759 0.62602168 -0.31767872 -0.79130387 -0.52241594 0.14393079
-0.0069395634 -0.52586925 0.62482888 -0.30660331 -0.78621978 -0.53651929 0.14108352
0.0046771024 -0.52649289 0.62361354 -0.25440773 -0.83767265 -0.48330235 0.13052213
0.013426444 -0.52742243 0.62406099 -0.23736224 -0.86268646 -0.44657731 0.11269495
0.022580907 -0.5276565 0.62858945 -0.18778007 -0.92328387 -0.33509031 0.093300335
0.03423785 -0.52858162 0.62257695 -0.1709649 -0.92874306 -0.32894856 0.091752335
0.04440783 -0.52916455 0.62457001 -0.11650775 -0.96503925 -0.23478751 0.064739756
0.059235372 -0.52931571 0.62065828 -0.014922332 -0.96837825 -0.24903989 0.055603404
0.063213602 -0.52931571 0.62338579 0.015709605 -0.96943825 -0.24483199 0.053753257
0.087697878 -0.52931571 0.62638748 0.15828568 -0.95934463 -0.2336738 0.060264859
0.10528634 -0.52844954 0.62134904 0.20120186 -0.95638895 -0.21174982 0.074843779
0.11386215 -0.52758449 0.6272648 0.17340429 -0.96813196 -0.18069717 0.078952745
0.12391842 -0.52572 0.62600118 0.20860155 -0.96188879 -0.17679189 0.1156358
0.13204937 -0.52454245 0.62622845 0.21274573 -0.96183503 -0.17208284 0.13240215
0.13747418 -0.52326822 0.63032234 0.24515823 -0.95662713 -0.15735969 0.12771295
0.14510709 -0.52226502 0.63429999 0.2809442 -0.94391626 -0.17347167 0.14296284
0.1721807 -0.52108622 0.62218487 -0.25255242 -0.95827913 0.1338598 0.159119
0.19023776 -0.5233053 0.62548584 -0.1901935 -0.97707295 0.095681526 0.10370292
-0.066274725 -0.52341247 0.63723505 -0.25399366 -0.92896146 -0.26929128 0.15277126
-0.052264355 -0.52202302 0.63760304 -0.20987661 -0.92215216 -0.32494187 0.13120313
-0.04337671 -0.52266282 0.63814741 -0.21375257 -0.90851718 -0.35903528 0.12873547
-0.033705294 -0.52382922 0.63507348 -0.23105635 -0.86491174 -0.44557905 0.12156003
-0.024408089 -0.52352953 0.63583368 -0.30684438 -0.80296361 -0.51097554 0.13250555
-0.014430369 -0.52652669 0.63398165 -0.27778304 -0.85743284 -0.43318075 0.13262673
-0.005249124 -0.5270384 0.63534081 -0.24577053 -0.89976579 -0.36058074 0.13072979
0.0040273466 -0.52728945 0.63492012 -0.22585878 -0.91000241 -0.34768313 0.12082188
0.015425816 -0.52757585 0.63192618 -0.17249987 -0.93026274 -0.32381335 0.093118384
0.02201461 -0.52813071 0.63154018 -0.18122743 -0.92623538 -0.33052182 0.090065181
0.039538193 -0.52915078 0.63395774 -0.10318876 -0.97181112 -0.21197951 0.063115098
0.044862051 -0.52931571 0.63386637 -0.103487 -0.97495085 -0.19687906 0.060125858
0.05676331 -0.52931571 0.6342898 -0.034286723 -0.98286641 -0.18110213 0.040863764
0.062176291 -0.52931571 0.63388968 -0.012216823 -0.98314214 -0.18243408 0.03873381
0.070497379 -0.52931571 0.63501012 0.032813039 -0.98011261 -0.1957103 0.039674871
0.082387172 -0.52931571 0.63896233 0.12897928 -0.98025715 -0.1498675 0.034617126
0.095379032 -0.52931571 0.63550454 0.20476232 -0.96303833 -0.17501323 0.043882694
0.1069389 -0.52931571 0.63639718 0.23213013 -0.95678025 -0.17517751 0.050077967
0.11414095 -0.52814573 0.63085318 0.18222539 -0.9663679 -0.18145807 0.070443124
0.12394465 -0.5260371 0.63439882 0.2245653 -0.96235555 -0.15310849 0.092435747
0.13545649 -0.52377093 0.63398057 0.24937825 -0.95405388 -0.16610748 0.12164947
0.14105789 -0.52311629 0.6375556 0.26378348 -0.94883639 -0.17357358 0.12803322
0.14956687 -0.52027929 0.63960999 0.31373563 -0.92978489 -0.1925357 0.15026209
0.191247 -0.52312344 0.63286638 -0.1973075 -0.97468156 0.10519274 0.11491722
0.20706087 -0.52246916 0.63662672 -0.24710199 -0.96027291 0.12967873 0.10835437
-0.11015434 -0.52527833 0.64658999 0.091602147 -0.95797122 0.27184582 0.19836411
-0.10867433 -0.52483934 0.64434159 0.15085435 -0.94431043 0.29243952 0.20465462
-0.071788974 -0.52330875 0.64781034 -0.30097085 -0.93510163 -0.18708679 0.15946168
-0.065972447 -0.5210461 0.64805454 -0.29319647 -0.93640256 -0.19283678 0.14978799
-0.051614031 -0.52127934 0.65061092 -0.27385241 -0.91484559 -0.29675305 0.13975148
-0.04376132 -0.52232045 0.64702737 -0.19527397 -0.94026715 -0.27886501 0.12125593
-0.034648832 -0.52430731 0.64431059 -0.1866526 -0.93144941 -0.31235054 0.11133375
-0.022264905 -0.52589399 0.64424485 -0.21421638 -0.9012202 -0.37671414 0.11603972
-0.017172121 -0.52719313 0.6460349 -0.20914119 -0.91817659 -0.33646935 0.11735172
-0.0042835027 -0.5284375 0.64514077 -0.19973077 -0.94039017 -0.27527064 0.10876246
0.0010457751 -0.52807736 0.64210105 -0.21011676 -0.94168156 -0.2628437 0.10893521
0.018929934 -0.52832329 0.64260769 -0.13839243 -0.96459687 -0.22450015 0.076447092
0.023605704 -0.5290271 0.64906615 -0.11236006 -0.98503149 -0.1307219 0.045217026
0.037898473 -0.52931571 0.64761579 -0.087969251 -0.98796237 -0.12724732 0.045234215
0.044658989 -0.52931571 0.64308333 -0.096754976 -0.98367143 -0.15175289 0.048467238
0.052824337 -0.52931571 0.64624363 -0.037675686 -0.9940145 -0.1025461 0.024353981
0.063987747 -0.52931571 0.64484531 -0.020690238 -0.99494809 -0.098234944 0.020091126
0.076333687 -0.52931571 0.64741993 0.052987274 -0.99352962 -0.10045487 0.019187162
0.087926321 -0.52931571 0.64348012 0.17582257 -0.97481024 -0.13722725 0.031290874
0.093735516 -0.52931571 0.64957058 0.18948556 -0.97173744 -0.1407892 0.033305049
0.1087158 -0.52931571 0.645235 0.23034829 -0.95860749 -0.16736577 0.046179559
0.118516 -0.52871412 0.64184088 0.21837796 -0.96224236 -0.1624828 0.064747006
0.12289512 -0.52744812 0.64429784 0.22485659 -0.96086204 -0.16181387 0.068693511
0.13368349 -0.52636874 0.64622658 0.20361505 -0.964495 -0.16819745 0.084397011
0.14388311 -0.52390057 0.64460421 0.30324054 -0.93250078 -0.19618218 0.12565267
0.14920276 -0.5237847 0.64762425 0.27065426 -0.94187826 -0.19902666 0.11681867
0.16088973 -0.52057797 0.64928997 0.39230138 -0.88647234 -0.24549218 0.1280169
0.18201244 -0.52185661 0.64883828 0.025610648 -0.99965948 0.0050008572 0.14642842
-0.11724512 -0.52041799 0.65014952 0.082588382 -0.94158942 0.32647902 0.20023409
-0.11007097 -0.52557266 0.64884347 -0.055043016 -0.97913784 0.19560002 0.20211059
-0.097849421 -0.52620047 0.65239644 -0.31367514 -0.94936061 0.01795277 0.17640528
-0.082519174 -0.52347517 0.65425044 -0.3742888 -0.92560488 -0.056243476 0.15302406
-0.072004281 -0.5217557 0.65478837 -0.38793662 -0.90756983 -0.16069268 0.16665424
-0.064007036 -0.52172148 0.65832686 -0.34825751 -0.92348808 -0.16089228 0.15508261
-0.054104723 -0.52328092 0.65514213 -0.26515722 -0.94103426 -0.2101098 0.1295819
-0.045180514 -0.52344298 0.65481782 -0.20307042 -0.95188516 -0.22951497 0.11878935
-0.033086319 -0.52542084 0.65313655 -0.17633668 -0.9513734 -0.25257489 0.09873528
-0.023534212 -0.52671576 0.65336013 -0.18722896 -0.94879407 -0.25443116 0.084654465
-0.017844783 -0.52793425 0.65361178 -0.17943169 -0.95563829 -0.2335802 0.084467426
-0.0065572034 -0.52899206 0.65554082 -0.17094158 -0.96417695 -0.20283422 0.073488392
0.0052830428 -0.52902794 0.65890849 -0.14183359 -0.9776451 -0.15522034 0.056439321
0.017960874 -0.5290308 0.65030402 -0.12933218 -0.98117834 -0.14339504 0.055082586
0.035201799 -0.52931571 0.65406829 -0.088677444 -0.99010181 -0.1087871 0.041649293
0.044930946 -0.52931571 0.6576283 -0.047099575 -0.99656814 -0.068070807 0.018913737
0.053316563 -0.52931571 0.65565723 -0.02607424 -0.99794239 -0.058575675 0.012263518
0.077069283 -0.52931571 0.65144569 0.062195398 -0.99582613 -0.066798955 0.01086317
0.09451285 -0.52931571 0.65479141 0.17512143 -0.97658604 -0.12494861 0.030423487
0.1060774 -0.52931571 0.65298408 0.20584352 -0.96548069 -0.15961011 0.045005929
0.1338405 -0.52624989 0.65561336 0.22616202 -0.95876455 -0.17210826 0.079372764
0.14391917 -0.52667457 0.65502161 0.24325114 -0.95746374 -0.15521626 0.093159989
0.15311833 -0.52439564 0.65743196 0.29095438 -0.94511157 -0.14869319 0.10653756
0.16086993 -0.52213258 0.65883493 0.35601875 -0.9155857 -0.18695857 0.12522264
0.16880101 -0.52110338 0.65790236 0.25935969 -0.95309132 -0.15604308 0.13167642
-0.10016365 -0.52320564 0.66165328 -0.62256551 -0.78246272 -0.012819533 0.19946198
-0.091691174 -0.52117258 0.66292882 -0.61005121 -0.79228342 -0.011165689 0.19003278
-0.082360603 -0.52138162 0.66615647 -0.53047693 -0.84705323 -0.033090781 0.18457557
-0.072143964 -0.52088791 0.66597909 -0.46182385 -0.88010114 -0.11018536 0.17115265
-0.063831158 -0.52270985 0.66609746 -0.38494322 -0.91744709 -0.10054661 0.15989147
-0.052839309 -0.52429992 0.66146493 -0.25213027 -0.9528985 -0.16856676 0.12286244
-0.043673884 -0.52674234 0.66619575 -0.19151977 -0.97383487 -0.12233494 0.091742061
-0.036262911 -0.52707642 0.66413677 -0.16350116 -0.97007489 -0.17950533 0.091063522
-0.023488699 -0.52802414 0.6653986 -0.16992122 -0.96411479 -0.20398414 0.064871438
-0.013329637 -0.52867711 0.66317648 -0.16126986 -0.96506995 -0.20647512 0.068006538
-0.0075079738 -0.52882779 0.66113836 -0.16277091 -0.96821636 -0.18990171 0.066749699
0.00073388225 -0.52904516 0.66171658 -0.1400988 -0.97802818 -0.15438031 0.056204628
0.032679413 -0.52931571 0.66442972 -0.076440156 -0.99143815 -0.10586426 0.034457382
0.04532586 -0.52931571 0.66221452 -0.035871692 -0.99793559 -0.053270876 0.011916567
0.055219367 -0.52931571 0.6658268 -0.020838788 -0.99881452 -0.043991737 0.0077381367
0.061728299 -0.52931571 0.66308486 -0.0065994947 -0.99948001 -0.031560201 0.0038923051
0.087356478 -0.52931571 0.66501439 0.10372196 -0.99298662 -0.056740087 0.013325565
0.096190237 -0.52931571 0.66380209 0.14453328 -0.98374754 -0.10654065 0.022698417
0.10339865 -0.52931571 0.6639443 0.17523792 -0.97538078 -0.13388038 0.033507079
0.12677209 -0.52931571 0.66711897 0.23673856 -0.95436603 -0.18204494 0.054720115
0.13522503 -0.52806866 0.66710824 0.22371842 -0.96043104 -0.16589813 0.063752539
0.14746833 -0.52806753 0.66729259 0.24521206 -0.95911396 -0.14132021 0.080545388
0.15479004 -0.5257054 0.66366512 0.29433507 -0.93982697 -0.17347109 0.096799776
0.16074418 -0.52286536 0.66679865 0.29299435 -0.93991619 -0.17524813 0.1139801
0.16728295 -0.52202761 0.67031044 0.28529459 -0.94342482 -0.16898702 0.12403782
0.22283709 -0.52940547 0.66191947 -0.1501863 -0.98180693 0.11618622 0.078184351
-0.095711395 -0.51982886 0.66933274 -0.64903867 -0.76072317 -0.0070062946 0.19559859
-0.089919679 -0.51989156 0.67288321 -0.6137023 -0.7889896 0.029409975 0.18221661
-0.083781801 -0.52090311 0.67403233 -0.5525794 -0.83227867 0.044364706 0.16986614
-0.072777741 -0.52160323 0.67320859 -0.4714078 -0.88133848 -0.031891946 0.16555648
-0.061545976 -0.52386487 0.67446107 -0.3709614 -0.92634034 -0.0654312 0.14623547
-0.045919817 -0.52758241 0.67837536 -0.2194059 -0.97458434 -0.045236576 0.080451414
-0.035775635 -0.52805167 0.67681497 -0.20417637 -0.9730882 -0.10682409 0.065119922
-0.023555512 -0.52866441 0.67474443 -0.16795841 -0.97568744 -0.14079736 0.048377845
-0.016799837 -0.52885634 0.67646259 -0.14739664 -0.97934979 -0.13837741 0.04168915
-0.0038983384 -0.5290038 0.67011112 -0.12753162 -0.97783852 -0.1660347 0.051653594
0.0030737717 -0.52906603 0.67121345 -0.12474338 -0.97995394 -0.15533648 0.047754351
0.01416147 -0.52931571 0.6724928 -0.089766555 -0.98728597 -0.13118033 0.037267864
0.024609044 -0.52931571 0.6744644 -0.072814398 -0.99200326 -0.10309024 0.027010325
0.031775068 -0.52931571 0.67384303 -0.046810284 -0.99637544 -0.071026109 0.016657155
0.064885937 -0.52931571 0.67340469 -0.00042024112 -0.99993187 -0.011668344 0.00018059521
0.076379217 -0.52931571 0.67033488 0.02419072 -0.99951327 -0.019696208 0.00058215135
0.085935317 -0.52931571 0.6751979 0.045198288 -0.99854332 -0.029466998 0.0031587393
0.097034283 -0.52931571 0.67515999 0.10671389 -0.99169046 -0.071848311 0.01442202
0.1112134 -0.52931571 0.67546189 0.17358367 -0.97668415 -0.12631975 0.030256679
0.12699987 -0.52931571 0.67317134 0.23570134 -0.95515835 -0.17921317 0.050440062
0.14591357 -0.52747691 0.67430335 0.25375384 -0.95605928 -0.1468318 0.082002096
0.15670837 -0.52702063 0.67243278 0.28075445 -0.94812238 -0.14913397 0.095542677
0.16389956 -0.52542037 0.67667627 0.25520223 -0.9538933 -0.15798523 0.11138458
0.16856837 -0.52460545 0.67875665 0.23564532 -0.95872563 -0.15911171 0.11302081
0.17557937 -0.52088916 0.68198079 0.25045753 -0.95015687 -0.18566881 0.13832954
0.22369911 -0.52448511 0.67055833 -0.15255852 -0.98243433 0.10746495 0.080687925
0.2384606 -0.52389997 0.67873418 -0.21735211 -0.97049618 0.10438082 0.081185095
-0.091154315 -0.52534491 0.67918396 -0.54397559 -0.83817059 0.039505612 0.178683
-0.084733047 -0.52027565 0.68161404 -0.56847173 -0.82073319 0.056892958 0.17803854
-0.0802221 -0.52076906 0.68343621 -0.53680086 -0.84039754 0.074677393 0.17002624
-0.071635067 -0.52257407 0.68729305 -0.48668364 -0.87140578 0.061570991 0.15873106
-0.065424941 -0.5242303 0.69037598 -0.40561932 -0.91207266 0.059970111 0.13100721
-0.050043393 -0.52718419 0.68373156 -0.26517978 -0.96390045 -0.023994125 0.096919879
-0.042717744 -0.52830136 0.68730086 -0.23116943 -0.97221833 -0.036772043 0.072948039
-0.032988861 -0.52864653 0.68803304 -0.22211687 -0.97218573 -0.074289545 0.054808069
-0.025459092 -0.52874649 0.6846987 -0.18236846 -0.97932416 -0.087554999 0.045177806
-0.014334431 -0.52917218 0.6880461 -0.15545855 -0.98305887 -0.097097538 0.032001998
-0.0081213703 -0.52915579 0.68590969 -0.12332608 -0.98539364 -0.11743084 0.032089055
0.01136893 -0.52931571 0.68465918 -0.066131048 -0.99442238 -0.082163915 0.016713386
0.02203108 -0.52931571 0.68201667 -0.041557811 -0.99737245 -0.059339274 0.012112016
0.065631062 -0.52931571 0.68072373 0.0010480501 -0.99997342 -0.0072158882 0
0.07849998 -0.52931571 0.68520254 0.014871002 -0.99983126 -0.010781772 0.00015413213
0.083543278 -0.52931571 0.68474579 0.021287207 -0.99967617 -0.013942705 0.00031400259
0.096268117 -0.52931571 0.68464541 0.079298839 -0.99539548 -0.053846974 0.0090122707
0.1075474 -0.52931571 0.68371189 0.13394208 -0.98804039 -0.076392576 0.016627179
0.1103507 -0.52931571 0.683227 0.15140782 -0.98453933 -0.088079907 0.023509623
0.14800303 -0.52753305 0.68649602 0.2689065 -0.95152092 -0.1493227 0.070580117
0.15396385 -0.52822417 0.68471134 0.26334321 -0.95260012 -0.15232648 0.074109748
0.16555819 -0.52712214 0.68384022 0.22928984 -0.96166569 -0.15041739 0.097814761
0.17255442 -0.52422547 0.68675005 0.24326999 -0.95073903 -0.19213302 0.11885562
0.17620303 -0.52326882 0.69016892 0.23018196 -0.95653313 -0.17905466 0.12123437
0.23715457 -0.52408355 0.68551683 -0.19739348 -0.97786671 0.069371857 0.094564684
0.2401313 -0.52392489 0.68356401 -0.20184579 -0.97524816 0.090272844 0.086907387
0.28871727 -0.5293076 0.68326545 -0.00050232717 -0.9998377 0.018007087 0.0045081195
-0.091454796 -0.52461022 0.6925475 -0.58392102 -0.80506998 0.10439632 0.17379177
-0.084179953 -0.51931506 0.69434714 -0.5859223 -0.80381209 0.10286459 0.17130852
-0.080005877 -0.52067983 0.69556427 -0.58718556 -0.80330122 0.099600263 0.16855982
-0.072545521 -0.52221674 0.69426441 -0.50458705 -0.85889179 0.087731741 0.15347435
-0.062151741 -0.52542013 0.69852102 -0.380308 -0.92282552 0.061309315 0.11684981
-0.051292691 -0.52784783 0.69256032 -0.27913961 -0.9600901 0.017553145 0.089389607
-0.046417337 -0.52822733 0.69801348 -0.3104628 -0.95057923 -0.0034613346 0.073598944
-0.035465103 -0.52878511 0.69516599 -0.23884675 -0.97073704 -0.024934119 0.055075746
-0.024307072 -0.52902561 0.69468552 -0.19886243 -0.97923052 -0.039512869 0.03960336
-0.014115363 -0.52931571 0.69830811 -0.16899809 -0.98432124 -0.050510738 0.026814494
-0.007288754 -0.52931571 0.6959601 -0.10873535 -0.99224162 -0.06027614 0.01535571
0.077286482 -0.52931571 0.69123399 0.0064738416 -0.99996912 -0.004449015 0
0.086917236 -0.52931571 0.69122434 0.019270116 -0.99973828 -0.012328825 0.0004025542
0.095098443 -0.52931571 0.69535881 0.028586162 -0.9994489 -0.01687305 0.00095592148
0.1055569 -0.52931571 0.69247502 0.097899295 -0.99330586 -0.061313018 0.011094147
0.1101361 -0.52931571 0.69090921 0.12852035 -0.98854196 -0.079166383 0.016387062
0.16663519 -0.52898765 0.69499254 0.17841035 -0.97600055 -0.12486995 0.071456112
0.17426325 -0.52502936 0.69673622 0.21116491 -0.96461099 -0.15790778 0.10828841
0.17910886 -0.52380514 0.69869989 0.20421769 -0.96755201 -0.14878988 0.11963353
0.18412499 -0.52272606 0.70227712 0.16248925 -0.98002064 -0.1147033 0.1326407
0.2004326 -0.51628053 0.70104402 0.83893925 0.41845319 -0.34796247 0.23133424
0.26000947 -0.52370161 0.69791663 -0.25517949 -0.96579969 0.045982648 0.067400225
-0.082302682 -0.523013 0.69917715 -0.56075388 -0.82033944 0.11224204 0.16379902
-0.079277836 -0.5208751 0.70456475 -0.60586172 -0.77164519 0.19363675 0.15551221
-0.07424897 -0.52244645 0.70585251 -0.53836381 -0.82578635 0.16805139 0.14302967
-0.064589404 -0.52532786 0.70357257 -0.38741961 -0.91914982 0.071201436 0.11100264
-0.055659775 -0.52804476 0.70453089 -0.32905462 -0.94284374 0.052619211 0.083473504
-0.041306883 -0.52894706 0.70884925 -0.26954708 -0.96245325 0.032064643 0.053185772
-0.037382599 -0.52919012 0.70537096 -0.24263436 -0.9701162 0.0017661095 0.048262857
-0.015200363 -0.52931571 0.70442194 -0.17285468 -0.98491716 -0.0077141048 0.025151381
-0.0061869919 -0.52931571 0.70201164 -0.09779568 -0.99474227 -0.030395357 0.011294748
0.0013796689 -0.52931571 0.70436323 -0.054157108 -0.99848181 -0.010052758 0.0020724069
0.018089211 -0.52931571 0.70478868 -0.015091634 -0.99984074 -0.0095289061 0.00033476419
0.026942044 -0.52931571 0.70553046 -0.0086816214 -0.99993068 -0.0079551516 0.00016182142
0.03190114 -0.52931571 0.70872831 -0.0048758518 -0.99998045 -0.0039238441 9.9470257e-05
0.050166469 -0.52931571 0.70861697 -0.0012521446 -0.99999863 -0.0011220974 3.4326142e-05
0.067416728 -0.52931571 0.70382261 -0.00030494705 -0.99999958 -0.00086170837 0
0.084296107 -0.52931571 0.70889431 0.0051791994 -0.99998361 -0.0024406605 0
0.1072894 -0.52931571 0.70840162 0.06276907 -0.997742 -0.023894826 0.0043519689
0.1137984 -0.52931571 0.7067551 0.095604107 -0.99466646 -0.038710717 0.0083308127
0.124151 -0.52931571 0.70604038 0.15498976 -0.98512864 -0.074159779 0.022544932
0.16747069 -0.52771568 0.7085579 0.18718354 -0.97680867 -0.10395818 0.069607057
0.1717508 -0.52654797 0.70620787 0.18171676 -0.97699267 -0.11164412 0.087396778
0.18276122 -0.5227651 0.70833689 0.19275422 -0.97713524 -0.089736111 0.14383715
0.18677652 -0.52296853 0.70908844 0.18615307 -0.97919005 -0.080832325 0.16308841
0.19375251 -0.52043712 0.7138924 0.16789432 -0.9840709 -0.058445685 0.20417009
0.24387202 -0.52355027 0.70912528 -0.20130526 -0.97952855 -0.00010867372 0.11075004
0.24967845 -0.52390879 0.70747203 -0.22393367 -0.9744851 -0.015248894 0.099425063
0.26033297 -0.52396268 0.70344967 -0.24210788 -0.97016424 0.012850262 0.070715219
-0.076047897 -0.52177745 0.71209389 -0.56680864 -0.78470141 0.25094137 0.11917727
-0.073292114 -0.52183264 0.71344435 -0.56872225 -0.78194129 0.25519168 0.11451865
-0.065333411 -0.52490264 0.7137056 -0.49910885 -0.84875482 0.17465866 0.10002978
-0.054673769 -0.5282895 0.71150428 -0.3678689 -0.92697257 0.073445976 0.075438045
-0.042759102 -0.52866143 0.71205443 -0.28716761 -0.9565869 0.04976083 0.058484189
-0.037077118 -0.52931571 0.71195841 -0.2499783 -0.96799153 0.022431353 0.04177909
-0.024390221 -0.52931571 0.71044087 -0.20278381 -0.97914863 0.012110599 0.029767916
-0.018141691 -0.52931571 0.71616572 -0.18658137 -0.98103684 0.052480206 0.021239484
-0.001628608 -0.52931571 0.71891809 -0.10736431 -0.99312836 0.046571322 0.013413231
0.001612365 -0.52931571 0.71457589 -0.079799123 -0.99637794 0.029378558 0.008390341
0.018942909 -0.52931571 0.71005458 -0.016093805 -0.99986553 -0.0031486487 0.00036531326
0.028781958 -0.52931571 0.71369249 -0.0051933215 -0.99998456 -0.0019905791 0.00011327213
0.032094259 -0.52931571 0.71249503 -0.0041277092 -0.99998975 -0.0018680192 8.4272397e-05
0.049478378 -0.52931571 0.71920443 -0.0008538129 -0.99999952 -0.00046967188 8.4212452e-06
0.054276552 -0.52931571 0.71271139 -0.00077137502 -0.99999946 -0.00078553928 8.3132254e-06
0.082179144 -0.52931571 0.71662354 0.0028260988 -0.99999583 -0.00047515487 0
0.091806769 -0.52931571 0.71837312 0.0064789834 -0.99997807 -0.0013540665 0
0.10418005 -0.52931571 0.71664709 0.02684379 -0.99956405 -0.012289538 0.00062876893
0.11698174 -0.52931571 0.71196479 0.096889049 -0.99448884 -0.040055726 0.0082935067
0.15509211 -0.52860039 0.71683329 0.23314555 -0.96650672 -0.10727479 0.043441147
0.16605465 -0.52729642 0.71651381 0.20693803 -0.97524762 -0.077901274 0.071462058
0.17253532 -0.52732587 0.71197641 0.18014169 -0.9802717 -0.081340626 0.084515154
0.18447573 -0.52438384 0.71430016 0.19055755 -0.9797526 -0.061421804 0.15822549
0.19157217 -0.52308673 0.71869713 0.17185228 -0.98450267 -0.034945987 0.18258177
0.19925463 -0.51930821 0.71867007 0.027724886 -0.99961561 9.1644833e-05 0.23806866
0.21663383 -0.517847 0.71662486 -0.31853294 -0.94469488 0.07802742 0.21912807
0.23921277 -0.5223552 0.71265817 -0.1770459 -0.98416615 0.0084710689 0.11079574
0.24238244 -0.52290469 0.71359032 -0.19352823 -0.98100322 -0.013394787 0.1110734
0.25436336 -0.52376968 0.71834546 -0.24547824 -0.96917742 -0.020870479 0.073931195
-0.075503588 -0.52045649 0.72162414 -0.65458244 -0.68675601 0.31605035 0.096055068
-0.070220679 -0.52145743 0.72232085 -0.61676103 -0.73022741 0.29389426 0.088723905
-0.066094793 -0.52338952 0.72429192 -0.58534151 -0.75217295 0.3026731 0.082498021
-0.053179555 -0.52694231 0.72434258 -0.42296144 -0.88725615 0.18406564 0.065252364
-0.044178836 -0.52907932 0.72306079 -0.30651525 -0.94487977 0.11511138 0.044637471
-0.03884938 -0.52931571 0.72080439 -0.28325391 -0.95360571 0.10199589 0.040227164
-0.026372205 -0.52931571 0.72653925 -0.23623873 -0.96684849 0.096929133 0.031301647
0.0063400064 -0.52931571 0.72471553 -0.069131754 -0.99682784 0.039435349 0.0080170883
0.021574715 -0.52931571 0.72666723 -0.020643972 -0.99973756 0.0099346386 0.00061078789
0.0361121 -0.52931571 0.72624922 -0.0042912113 -0.9999904 0.00091460062 5.9632152e-05
0.046367139 -0.52931571 0.72652471 -0.0014136902 -0.99999899 0.00025013255 7.8379817e-06
0.053893965 -0.52931571 0.72578162 -6.9712602e-05 -0.99999982 0.00057434395 0
0.075743161 -0.52931571 0.7296347 0.00094102905 -0.99999785 0.0018368659 0
0.094048098 -0.52931571 0.72618711 0.0060152537 -0.99998194 4.579973e-05 0
0.1070546 -0.52931571 0.72350359 0.02328874 -0.99970376 -0.0070705437 0.00041823633
0.11375675 -0.52931571 0.72338426 0.063192949 -0.99771088 -0.024077682 0.0041340361
0.12609179 -0.52931571 0.72219032 0.12233654 -0.99153334 -0.043537099 0.010096014
0.1403283 -0.52931571 0.72801387 0.203825 -0.9771077 -0.060957249 0.030575663
0.15391885 -0.52884185 0.72422773 0.22734678 -0.96886712 -0.098030798 0.045496002
0.16674048 -0.52787584 0.72534108 0.2278696 -0.971717 -0.061980393 0.072521366
0.17682168 -0.52670789 0.72532189 0.20431902 -0.97875774 0.016939076 0.10905401
0.18374389 -0.52663583 0.72418267 0.1796543 -0.98369598 0.0081543922 0.12890907
0.1922791 -0.52355444 0.72732174 0.13846353 -0.98819047 0.065630682 0.19053777
0.20076074 -0.52023029 0.72861129 0.024328806 -0.99805504 0.057395574 0.22705743
0.2189609 -0.51825202 0.73074925 -0.29426372 -0.94435239 0.14699458 0.22207235
0.23195809 -0.52122462 0.72750419 -0.20072943 -0.97849935 0.047399674 0.17745811
0.23926316 -0.5217337 0.72746503 -0.25620455 -0.96574581 0.041160982 0.15171088
-0.081044145 -0.52108383 0.72319925 -0.6771884 -0.65188026 0.34127414 0.093220413
-0.069975503 -0.52055824 0.72904915 -0.60341185 -0.72806323 0.32529691 0.079875141
-0.071054995 -0.51998389 0.73006415 -0.62333441 -0.69997287 0.34855729 0.080751605
-0.061555527 -0.52245939 0.73362321 -0.57983965 -0.74974388 0.31885764 0.071943253
-0.053981617 -0.52494901 0.73483199 -0.5221613 -0.79987079 0.29589581 0.069330305
-0.042677756 -0.5290606 0.73056549 -0.32957861 -0.9307549 0.15834548 0.046460878
-0.03537114 -0.52931571 0.73579502 -0.30632424 -0.93779844 0.16339983 0.046651188
-0.005281989 -0.52931571 0.73502916 -0.14182965 -0.98577994 0.090124182 0.023093587
0.0064930655 -0.52931571 0.73504823 -0.10911423 -0.99125165 0.074258387 0.017182576
0.013162941 -0.52931571 0.73688853 -0.068432473 -0.99629152 0.052155551 0.0092607606
0.027997291 -0.52931571 0.73849702 -0.020092677 -0.99970454 0.013677952 0.00078642333
0.03435877 -0.52931571 0.73184961 -0.0071566948 -0.9999662 0.0040590996 0.00013073758
0.05398494 -0.52931571 0.73501217 0.0006220896 -0.99999827 0.0017868569 0
0.06272611 -0.52931571 0.73031318 0.00081935275 -0.99999809 0.0017552676 0
0.096033446 -0.52931571 0.73269057 0.006770222 -0.99997288 0.0029021641 2.9546502e-05
0.10598526 -0.52931571 0.73389632 0.014784468 -0.9998734 0.0058861948 0.00030044565
0.1325687 -0.52931571 0.73318428 0.14839442 -0.98846716 -0.03019573 0.015488394
0.16271512 -0.52866518 0.73625356 0.27034023 -0.96275091 -0.0051822355 0.087652646
0.17620517 -0.52725279 0.73532927 0.26060659 -0.96501678 0.028755769 0.13202907
0.18352172 -0.52657038 0.73702639 0.22401325 -0.97363639 0.043015312 0.15845977
0.19389431 -0.52338648 0.73330218 0.095695689 -0.99249238 0.076165698 0.18070574
0.20251676 -0.52009833 0.7370128 0.10028891 -0.9847123 0.14242139 0.21751045
0.21067919 -0.51820105 0.73818171 -0.023118827 -0.99058384 0.13494135 0.22920398
0.22741002 -0.52027237 0.73590064 -0.36980888 -0.92159855 0.11788732 0.20251288
-0.059815358 -0.52189243 0.73941833 -0.61916935 -0.69250882 0.37021732 0.071972474
-0.053404003 -0.52282727 0.74299371 -0.56727588 -0.73996514 0.36145505 0.072311223
-0.034604613 -0.52796954 0.74661082 -0.36717564 -0.89655334 0.24773835 0.064472504
-0.01076102 -0.52931571 0.74064642 -0.17792544 -0.97779965 0.1106813 0.032861307
-0.003975776 -0.52931571 0.74225587 -0.16338286 -0.9800747 0.11295831 0.032311641
0.0052439268 -0.52931571 0.74192709 -0.12273058 -0.98973256 0.073258013 0.020025812
0.010450675 -0.52931571 0.74047387 -0.095021427 -0.99333519 0.065238506 0.015153619
0.023688501 -0.52931571 0.74459088 -0.054626796 -0.9977836 0.037997719 0.0069441209
0.053635448 -0.52931571 0.74427724 0.00026570039 -0.99999243 0.0038796824 0
0.065658778 -0.52931571 0.74750876 0.0039657122 -0.99995148 0.0090203835 7.2765347e-06
0.071147487 -0.52931571 0.7476685 0.0059601194 -0.9998849 0.013950833 0.00016314842
0.090552129 -0.52931571 0.74550283 0.0072487383 -0.99975741 0.020797294 0.00093420659
0.1003637 -0.52931571 0.74230897 0.01260745 -0.99977702 0.016937442 0.00090144639
0.112191 -0.52931571 0.74992949 0.036008786 -0.99833703 0.045017637 0.0075457785
0.12368515 -0.52931571 0.74464005 0.074468032 -0.99685431 0.027129807 0.0077541634
0.13431577 -0.52931571 0.74571085 0.15494655 -0.98784506 0.012398417 0.017714364
0.142781 -0.52931571 0.74400258 0.18133634 -0.98342019 -0.0013731227 0.027031086
0.16078891 -0.52901912 0.74212003 0.27312323 -0.9616968 0.02330175 0.084883966
0.17703369 -0.52778924 0.74239284 0.27407181 -0.96157479 0.016081737 0.13565779
0.18614198 -0.52534443 0.74458975 0.245616 -0.9689036 0.02997761 0.17817652
0.19255534 -0.52389115 0.74627274 0.24358937 -0.96735775 0.069879949 0.19415802
0.2034948 -0.52089477 0.74590909 0.13319685 -0.98212546 0.13299699 0.21668252
0.2086089 -0.5189696 0.74595201 0.074247725 -0.98620248 0.14795965 0.23203361
0.22397332 -0.51929814 0.7452296 -0.29362592 -0.95085484 0.098280735 0.22128294
-0.05525073 -0.52198231 0.74611449 -0.59913945 -0.69981891 0.3889544 0.075206071
-0.049529072 -0.52237612 0.74923146 -0.55382752 -0.74791467 0.36592177 0.075515263
-0.044976708 -0.52408129 0.75559586 -0.53119719 -0.77647883 0.33898383 0.075029738
-0.03578715 -0.52584583 0.75648063 -0.44979072 -0.84052587 0.30200091 0.077355877
-0.025504146 -0.52816176 0.75377876 -0.35350886 -0.90389532 0.24084173 0.072999477
-0.017856617 -0.52875662 0.75391322 -0.27920517 -0.93963259 0.19782566 0.061282769
-0.0028074032 -0.52931571 0.75331211 -0.18447965 -0.97630662 0.11310407 0.035975058
0.002312779 -0.52931571 0.75042868 -0.16751274 -0.98049325 0.10282204 0.032082181
0.01738783 -0.52931571 0.75073862 -0.089829534 -0.99442703 0.055186652 0.014498671
0.021313701 -0.52931571 0.75421339 -0.074735798 -0.99608856 0.047138289 0.011321682
0.056953311 -0.52931571 0.75081402 0.0026729777 -0.99995774 0.0087976847 0
0.063178547 -0.52931571 0.75303245 0.0069453293 -0.99987543 0.014175804 0.00030186382
0.087453187 -0.52931571 0.75310087 0.014451235 -0.99914306 0.038785629 0.0038557043
0.091861665 -0.52931571 0.75838524 0.017835381 -0.99813402 0.058398295 0.0090238517
0.1029767 -0.52931571 0.75876361 0.018759392 -0.99721652 0.07216122 0.013609554
0.11207325 -0.52931571 0.75898159 0.049526751 -0.99477249 0.089301571 0.021619648
0.1208616 -0.52931571 0.75958979 0.072257511 -0.99229795 0.10061627 0.025378281
0.13398004 -0.52931571 0.75434357 0.12248616 -0.99018908 0.067251809 0.019308131
0.14638928 -0.52931571 0.75783288 0.21482362 -0.97209656 0.094228715 0.053029209
0.16210677 -0.52905262 0.75793034 0.26885056 -0.95913702 0.088179596 0.087410718
0.17630261 -0.52763599 0.75549901 0.26072487 -0.96538025 0.0079700714 0.1277568
0.1846192 -0.52517247 0.75477254 0.25641531 -0.96656656 0.00044529643 0.16245361
0.19510403 -0.5224005 0.75550145 0.27702928 -0.96071523 0.016761947 0.20721693
0.20197201 -0.52205962 0.75355047 0.17108971 -0.98296893 0.06708499 0.21311258
0.20900059 -0.52026612 0.7521565 0.096223772 -0.99049026 0.098336317 0.22123046
0.22443666 -0.51930898 0.75408816 -0.33779329 -0.93844283 0.072255135 0.23801219
0.25804779 -0.52256221 0.7549265 -0.27856317 -0.95837355 -0.062632337 0.081471302
-0.042019859 -0.52357996 0.7647959 -0.54627502 -0.7654531 0.34009576 0.081063956
-0.034946065 -0.52542353 0.76553506 -0.49575865 -0.81367403 0.30357519 0.080992743
-0.02252271 -0.52815002 0.76078749 -0.36113086 -0.90520507 0.22402735 0.07355307
-0.012925369 -0.52871156 0.76908582 -0.29873964 -0.93709302 0.18058577 0.068315998
-0.0089706481 -0.52931571 0.76620054 -0.25669536 -0.95416945 0.15384495 0.055920124
0.016718285 -0.52931571 0.76635289 -0.12674963 -0.98945272 0.070127763 0.024769248
0.02266115 -0.52931571 0.76734591 -0.10764024 -0.99272031 0.054036438 0.018694133
0.035834029 -0.52931571 0.76467252 -0.03048788 -0.99914706 0.027852828 0.0028051364
0.046168059 -0.52931571 0.76550657 -0.0075159888 -0.99976552 0.020307027 0.00059456972
0.059419129 -0.52931571 0.76595902 0.016853668 -0.99904048 0.040424753 0.0025203403
0.061021179 -0.52931571 0.76737231 0.016159484 -0.99877751 0.046715159 0.0034152856
0.074574776 -0.52931571 0.76635152 0.022972906 -0.99713588 0.07205718 0.01063885
0.085547745 -0.52931571 0.76687378 0.023784412 -0.99538672 0.092950262 0.017456366
0.1160309 -0.52931571 0.76808977 0.056831013 -0.99106789 0.12064238 0.026488163
0.1325144 -0.52931571 0.7620703 0.11268827 -0.98706621 0.11402494 0.026484188
0.14727899 -0.52931571 0.76098323 0.23179257 -0.96449155 0.12660293 0.059185762
0.15433681 -0.52931571 0.76874924 0.26045874 -0.95017314 0.17126703 0.070544757
0.16292103 -0.5278582 0.76676798 0.26031485 -0.95489657 0.1428594 0.085317232
0.17576352 -0.52681023 0.76471782 0.24715914 -0.96637082 0.07099136 0.11420819
0.18431871 -0.52483702 0.76575112 0.26912379 -0.96018666 0.074925393 0.1636568
0.192863 -0.5227536 0.76232052 0.28753668 -0.95611262 0.056315295 0.19718836
0.20006837 -0.52099174 0.76207578 0.3174428 -0.94366413 0.093424074 0.22337708
0.21515523 -0.52081835 0.76521522 0.27642247 -0.93922937 0.20356511 0.26385897
-0.037275393 -0.52225548 0.77151012 -0.57947904 -0.73173314 0.35884613 0.086711325
-0.032435488 -0.52332658 0.77288282 -0.52671486 -0.78314185 0.33054543 0.085198268
-0.025813859 -0.52517611 0.77636564 -0.51149559 -0.80630767 0.29705247 0.084785335
-0.01474494 -0.52827084 0.77706993 -0.35457352 -0.91371429 0.19850424 0.069972582
-0.0043699443 -0.52931571 0.77542454 -0.27286091 -0.95009971 0.15118703 0.057889152
0.017639905 -0.52931571 0.77736294 -0.15049338 -0.98441041 0.091038182 0.031633291
0.02021578 -0.52931571 0.77992243 -0.15521519 -0.98438358 0.083049558 0.03148691
0.034220416 -0.52931571 0.77504992 -0.058858164 -0.99683386 0.053459242 0.011076339
0.073895387 -0.52931571 0.77709752 0.043894429 -0.99304885 0.10921232 0.024063742
0.082660973 -0.52931571 0.77877569 0.048848402 -0.99061763 0.12763451 0.031622913
0.10764364 -0.52903152 0.77474242 0.056849662 -0.98288232 0.17524368 0.040246334
0.11070962 -0.52906162 0.77774638 0.075863555 -0.97250366 0.22018492 0.056890003
0.12426207 -0.52916259 0.77267587 0.089652114 -0.98120868 0.17085677 0.04254901
0.1446984 -0.52931571 0.77782637 0.23884796 -0.92252046 0.30316272 0.074836813
0.15063781 -0.52931577 0.77507693 0.24450338 -0.9311291 0.27058569 0.068603076
0.16589785 -0.52623791 0.77697325 0.25060537 -0.95215577 0.17491829 0.097708397
0.1734331 -0.5251472 0.77457798 0.2477235 -0.96044552 0.12719087 0.10538027
0.18318605 -0.52327633 0.77271706 0.31066748 -0.93550903 0.16825135 0.14909866
0.19171292 -0.52326864 0.77141041 0.35027182 -0.91977936 0.17696206 0.19326407
0.20763479 -0.52196759 0.77351022 0.41556984 -0.84276521 0.3421236 0.23544765
0.22387388 -0.52091676 0.77206701 -0.51655704 -0.82290852 -0.23662262 0.25758451
-0.035590097 -0.51998299 0.77758968 -0.62792116 -0.67940742 0.37963229 0.089183085
-0.029566182 -0.52172351 0.78418583 -0.58058435 -0.74228483 0.33456689 0.085722908
-0.024036471 -0.52487636 0.78554934 -0.50810015 -0.81258982 0.28553823 0.080482796
-0.003832683 -0.52931571 0.78395653 -0.29061055 -0.94414443 0.1553604 0.062160689
0.0038496256 -0.52931571 0.78562623 -0.24181871 -0.96187788 0.12772916 0.055012956
0.017574808 -0.52931571 0.78311557 -0.16705102 -0.98173207 0.091082729 0.034234058
0.022856107 -0.52931571 0.78398484 -0.13174336 -0.98675621 0.094635487 0.029742293
0.05415773 -0.52931571 0.78013593 0.022230305 -0.99780053 0.062448967 0.007579363
0.067457147 -0.52931571 0.78953511 0.064265199 -0.99015623 0.12434117 0.030998392
0.07828486 -0.52931571 0.7827487 0.054556012 -0.98849726 0.14105618 0.036663391
0.095147297 -0.529028 0.78331029 0.078120902 -0.97784126 0.19422565 0.055284649
0.10720369 -0.52880585 0.78391641 0.096439123 -0.97085816 0.21939461 0.062851474
0.12524173 -0.52869326 0.78312677 0.1593059 -0.92791218 0.33704683 0.087192804
0.13676734 -0.52899045 0.78444988 0.21142119 -0.88572192 0.413277 0.086998507
0.14455003 -0.52931577 0.78541732 0.28971183 -0.84798843 0.4438273 0.089364514
0.15475559 -0.52824932 0.78632724 0.31278428 -0.81373084 0.48990631 0.091442913
0.16353247 -0.52552736 0.7857424 0.31730661 -0.81186491 0.49009377 0.10192425
0.17200871 -0.52392024 0.78108221 0.27570397 -0.93524915 0.22202797 0.11837622
0.17863096 -0.52238572 0.78115886 0.29033288 -0.93985379 0.17994921 0.12467755
0.1993217 -0.52288538 0.78326952 0.3183496 -0.92789 0.19409706 0.19536488
0.21855094 -0.52238131 0.78120595 0.094956823 -0.98520571 0.14266388 0.24045776
0.2335919 -0.52170521 0.78299481 -0.49126667 -0.85652542 -0.15818118 0.20327863
0.24170931 -0.52218086 0.78441429 -0.42442527 -0.88272268 -0.20165278 0.17501111
-0.031138081 -0.51978326 0.78689051 -0.62316352 -0.69835842 0.35208344 0.085511014
-0.028421296 -0.52065402 0.79100102 -0.61873543 -0.70858634 0.33922258 0.091304064
-0.021849971 -0.52458197 0.79488534 -0.56621152 -0.77205694 0.28867388 0.080232948
-0.011929778 -0.52807158 0.79209465 -0.36720774 -0.90684569 0.20685631 0.064735137
-0.0047767526 -0.52881783 0.79242557 -0.33015519 -0.92799765 0.17267843 0.063343175
0.0025413781 -0.52931571 0.7924794 -0.28986847 -0.94774806 0.13322818 0.059316192
0.018389249 -0.52931571 0.79053521 -0.16298366 -0.98054945 0.10935777 0.03650967
0.033129271 -0.52931571 0.79292887 -0.076521024 -0.99216217 0.098786436 0.025133573
0.043009192 -0.52931571 0.79021537 -0.016921472 -0.99713898 0.073671684 0.010962926
0.059797939 -0.52931571 0.799757 0.078202337 -0.98487723 0.15460029 0.040474385
0.065550178 -0.52931571 0.79083318 0.067930818 -0.9902119 0.12192515 0.030911999
0.087344863 -0.5285567 0.79657269 0.1394987 -0.95252264 0.27063006 0.078539789
0.092634872 -0.5283426 0.79670322 0.14839271 -0.93361926 0.32608995 0.090038128
0.10604147 -0.52827358 0.79316217 0.20161127 -0.9047035 0.37531921 0.10324787
0.11641096 -0.5280757 0.79880935 0.2796143 -0.82243878 0.4953891 0.11084964
0.12360043 -0.52809548 0.7967369 0.23893757 -0.85582972 0.4587639 0.10429735
0.13507521 -0.52840471 0.79657817 0.26026779 -0.80273122 0.53654754 0.095385306
0.14444119 -0.52846241 0.79474932 0.31244767 -0.75306195 0.57902861 0.094653666
0.15376207 -0.52805263 0.79283375 0.35055357 -0.73931503 0.57491338 0.09187144
0.16359463 -0.52509707 0.79164594 0.37398583 -0.69833386 0.61029863 0.10174333
0.16876851 -0.52265567 0.7927655 0.3580699 -0.70011562 0.61775726 0.11324465
0.24377139 -0.52938485 0.79246956 -0.13803375 -0.98587483 -0.094854876 0.093025915
-0.027318278 -0.5214054 0.79622912 -0.61225271 -0.71635962 0.33462748 0.080374591
-0.019820206 -0.52423513 0.80308342 -0.55735821 -0.77419102 0.29996693 0.080074735
-0.016848225 -0.52617276 0.80525184 -0.52355218 -0.80013388 0.29270938 0.074373625
-0.0042514759 -0.52875113 0.80677289 -0.40774286 -0.88261235 0.23396851 0.06925416
0.02264416 -0.52931571 0.80224001 -0.15405054 -0.97961819 0.12890556 0.039659616
0.032625388 -0.52931571 0.80301321 -0.089027777 -0.9863742 0.13834712 0.039169297
0.055652007 -0.52902859 0.80563134 0.077694207 -0.98253733 0.1690678 0.043449257
0.065548994 -0.52931571 0.80416048 0.097508296 -0.97858018 0.18130937 0.048370749
0.075678296 -0.5284757 0.80918962 0.17225966 -0.94035864 0.29334655 0.083023533
0.08336059 -0.5284704 0.80602968 0.19332711 -0.91823548 0.34564176 0.093317844
0.096854798 -0.52780628 0.80890244 0.24508689 -0.83898604 0.48583412 0.11444884
0.10848469 -0.52777958 0.80519521 0.28437498 -0.79394144 0.53738981 0.11501951
0.11388808 -0.52687979 0.80521399 0.30525124 -0.7610544 0.57237917 0.11572199
0.1259391 -0.52656251 0.80343801 0.29563567 -0.74810994 0.59408009 0.10448531
0.13596851 -0.5267579 0.80416077 0.31225798 -0.71268845 0.62814814 0.097255737
0.14481992 -0.52830541 0.80060929 0.29946122 -0.72339582 0.62211055 0.093333215
0.15503851 -0.52931577 0.80675882 0.39736968 -0.54356909 0.73934424 0.085386567
0.18242487 -0.52544397 0.80819076 0.38336253 -0.59615761 0.70542836 0.12598753
-0.019646462 -0.52370238 0.81386179 -0.59830886 -0.72434962 0.3425552 0.071377903
-0.013530753 -0.52643001 0.81629568 -0.5223341 -0.7883603 0.32504627 0.070786431
-0.0050349077 -0.52747065 0.81580561 -0.46471977 -0.83266848 0.30116236 0.071957074
0.00096113945 -0.52799493 0.81603271 -0.35653251 -0.89234346 0.27678117 0.06853018
0.012340752 -0.52892148 0.81202298 -0.22240439 -0.94931287 0.22212926 0.058365673
0.046130784 -0.52895439 0.81355113 0.041238748 -0.97678095 0.21023376 0.05255555
0.065507829 -0.52893817 0.81117874 0.11054131 -0.96827483 0.22410828 0.055434041
0.078088805 -0.52748185 0.81473881 0.22880293 -0.90118802 0.3681159 0.096925743
0.08453171 -0.5276168 0.81258696 0.26288265 -0.85449857 0.44802341 0.10905541
0.097968973 -0.52708328 0.81468278 0.29059374 -0.79048765 0.53915173 0.11775081
0.10587665 -0.52571368 0.81532943 0.34502286 -0.70174867 0.62330407 0.12051439
0.11472116 -0.52539325 0.81440711 0.38606909 -0.62941247 0.67438167 0.11167978
0.12402574 -0.52480751 0.81396496 0.38849112 -0.58154052 0.71476233 0.10189202
0.13554707 -0.52521676 0.81153649 0.36236611 -0.62107545 0.69495052 0.097580329
0.13946706 -0.5220961 0.81655633 0.39874756 -0.52505201 0.75187826 0.086766154
-0.012607262 -0.52381504 0.82184654 -0.56374049 -0.73106438 0.38437137 0.074856997
-0.0044678878 -0.5252232 0.82522535 -0.46434256 -0.79870176 0.38270295 0.081232227
0.0031061217 -0.52783352 0.82921636 -0.37678668 -0.84998065 0.36819109 0.083477326
0.015495497 -0.52839136 0.82814437 -0.21836415 -0.92245996 0.31840947 0.0765111
0.022674337 -0.52861369 0.82512188 -0.15822124 -0.93567616 0.31539842 0.074251518
0.044584166 -0.52856725 0.82417166 0.037470184 -0.93686318 0.34768295 0.074095756
0.057559483 -0.52793175 0.82527709 0.096296966 -0.93680209 0.33634603 0.069912665
0.06449987 -0.52760118 0.82482195 0.1535916 -0.92622906 0.34425184 0.078437604
0.078417763 -0.52666867 0.82148391 0.27674085 -0.86542863 0.41766962 0.10311969
0.086792834 -0.52519935 0.82338178 0.32659131 -0.80855978 0.48945799 0.11340324
0.094295286 -0.5243113 0.82349485 0.35264215 -0.72923076 0.58640093 0.11610644
0.10250369 -0.52477002 0.8224647 0.40756819 -0.61123443 0.67843992 0.11255497
0.11288891 -0.52386785 0.82017452 0.39630646 -0.60438138 0.69113272 0.11094176
0.12067429 -0.52047974 0.82053006 0.42099321 -0.51957202 0.74351168 0.095721088
-0.011669037 -0.52101153 0.8278361 -0.5848344 -0.69359559 0.42058769 0.073268987
-0.0042626555 -0.52682471 0.83305073 -0.4581992 -0.78413254 0.41855672 0.082377948
0.0081494711 -0.52803493 0.83128333 -0.31788689 -0.85610914 0.4074617 0.093621187
0.011378948 -0.52758121 0.83612299 -0.28740755 -0.85763568 0.42644808 0.097420193
0.021834908 -0.52839226 0.83869743 -0.18623199 -0.87389207 0.4490326 0.10267907
0.03821132 -0.52837318 0.83485311 -0.018065367 -0.91230279 0.40911764 0.086003602
0.048319027 -0.52794194 0.8318156 0.055824745 -0.90378946 0.42432088 0.081619456
0.053667463 -0.52718925 0.83597231 0.096667506 -0.87114948 0.48140833 0.089690961
0.062402725 -0.52677369 0.83697873 0.16409013 -0.84340459 0.51160836 0.089691013
0.073780306 -0.52361625 0.83570546 0.32792267 -0.71615249 0.61611062 0.099059239
0.083518922 -0.52305198 0.83362663 0.37959653 -0.68315011 0.62386894 0.10776257
0.093987904 -0.52235621 0.82950515 0.42046443 -0.61126161 0.67049897 0.10578804
0.10119976 -0.52210432 0.83079588 0.44073796 -0.54800391 0.71094435 0.10905243
-0.0024215777 -0.52303553 0.84048939 -0.49294132 -0.71358418 0.49780166 0.09468364
0.0054336237 -0.52497685 0.84417015 -0.40003058 -0.75306553 0.52236742 0.10704043
0.016015889 -0.52662426 0.8452453 -0.26945752 -0.79898387 0.53760344 0.1154342
0.033526868 -0.52829528 0.84268707 -0.073841825 -0.84456456 0.53033769 0.11391639
0.048782013 -0.52717739 0.8468315 0.11718562 -0.75239933 0.64819968 0.10177639
0.05634696 -0.52590591 0.84707165 0.15822183 -0.74907458 0.64331412 0.099994689
0.064412072 -0.52421546 0.8437497 0.21987458 -0.73773319 0.63828278 0.0971146
0.071784668 -0.52272463 0.84147185 0.31385806 -0.67316812 0.66958034 0.093499601
0.082306392 -0.51873749 0.83825499 0.41320947 -0.56303054 0.71571964 0.095174298
0.0097870883 -0.52271003 0.8506645 -0.37527245 -0.68328804 0.626329 0.12186341
0.015856283 -0.52478099 0.85333115 -0.28264529 -0.71602708 0.63829219 0.12927566
0.027298095 -0.5253318 0.85632718 -0.13909832 -0.7534045 0.64267665 0.1281116
0.035879519 -0.52779984 0.85629237 -0.0026353663 -0.76341444 0.64590365 0.11739903
0.046066165 -0.52738649 0.85535455 0.13300936 -0.68662781 0.71473825 0.11377617
0.056337327 -0.52525461 0.85224456 0.19666386 -0.66813099 0.71758229 0.095800936
0.060269766 -0.52306712 0.84946918 0.23245111 -0.63841069 0.7337563 0.098605692
0.012699161 -0.51926756 0.8608644 -0.34415862 -0.61156738 0.71241862 0.13530116
0.017335001 -0.52236998 0.8614735 -0.27747914 -0.65124935 0.70631403 0.13649867
0.026499679 -0.52416193 0.8636831 -0.090210348 -0.65192789 0.75289583 0.13270622
0.034565117 -0.52745008 0.86492294 0.013532824 -0.63601446 0.77155852 0.12382492
0.045339037 -0.52699643 0.86627376 0.13765135 -0.60623431 0.78328288 0.10940778
