# .PCD v0.7 - Point Cloud Data file format
VERSION 0.7
FIELDS x y z
SIZE 4 4 4
TYPE F F F
COUNT 1 1 1
WIDTH 488
HEIGHT 1
VIEWPOINT 0 0 0 1 0 0 0
POINTS 488
DATA ascii
0.022356071 -0.072137162 0.14899001
0.02785792 -0.067811787 0.1617268
0.021007899 -0.05006196 0.1547215
0.026502609 -0.057175372 0.1549183
0.01464561 -0.054439109 0.149959
0.003304519 -0.054061592 0.14792959
-0.0049358611 -0.06827198 0.14452229
-0.0030284671 -0.067927413 0.1433007
-0.01163904 -0.067887053 0.14501759
0.0054307878 -0.063540317 0.1420372
-0.0034457301 -0.0581 0.1454519
0.027005021 -0.040574361 0.2167927
-0.01159833 -0.06156319 0.1458104
0.00074950611 -0.06398163 0.1427753
0.01175011 -0.048002429 0.2271816
0.01275552 -0.066381551 0.1439963
0.00021733341 -0.061305869 0.1429642
-0.00044835359 -0.047050811 0.14914089
0.0066606589 -0.062632777 0.1525992
-0.018490029 -0.068386249 0.14748339
0.000242915 -0.036378231 0.22570349
-0.0070881429 -0.065925881 0.15040191
-0.01708696 -0.067760691 0.1503209
-0.01327697 -0.05977232 0.1528589
-0.002433799 -0.060499959 0.1527452
-0.01070284 -0.074475251 0.1484661
-0.0051401439 -0.071783312 0.1498149
-0.0066586551 -0.060830079 0.1520346
0.020151719 -0.063404597 0.158911
0.008683674 -0.06054838 0.1538232
-0.007798031 -0.082482107 0.14790431
0.022251399 -0.061997809 0.16137999
0.02417716 -0.067329213 0.16071519
-0.00052834302 -0.070810758 0.15029649
0.0067957011 -0.073333293 0.15009861
0.01209898 -0.072168417 0.1509231
7.9315163e-05 -0.0602054 0.15312301
0.071214162 -0.092119537 0.4460434
0.017085539 -0.078358129 0.1524926
0.028600991 -0.076005086 0.161792
0.027030621 -0.065905526 0.1631012
-0.0092366412 -0.065188468 0.149818
0.028693911 -0.064819783 0.1658279
0.01534139 -0.079440907 0.1515961
0.01271125 -0.05390285 0.15861361
0.0095977336 -0.075372137 0.14899351
-0.01111646 -0.07349389 0.1478425
-0.04122239 -0.03769882 0.19673739
-0.028496711 -0.059639148 0.1591818
-0.04030503 -0.038433131 0.2035965
0.04031479 -0.073941492 0.1800994
0.03497152 -0.076885067 0.16888011
0.026244231 -0.078597873 0.15846559
-0.041244771 -0.03601256 0.1956456
0.035633679 -0.068452507 0.1709291
-0.028150911 -0.075097203 0.15149011
-0.0019908401 -0.059133071 0.14699779
-0.01697427 -0.066682577 0.1488314
-0.01517616 -0.057244349 0.1509759
-0.0030450081 -0.065987162 0.14610229
-0.0061645661 -0.063028149 0.1468696
0.025705149 -0.064131297 0.15730169
0.024815099 -0.066421933 0.1557575
0.0069930851 -0.05996548 0.14925499
-0.01878177 -0.038169671 0.2255885
-0.0092495084 -0.063553192 0.1471505
-0.0049270908 -0.063197836 0.14705209
0.01266076 -0.060448531 0.1514075
-0.00092542171 -0.058685329 0.222296
0.0051914901 -0.060644079 0.2245108
-0.0089130849 -0.070605569 0.14509989
-0.006846651 -0.080921307 0.14710949
-0.01022257 -0.070600532 0.1448881
0.08972235 -0.094018593 0.40592891
0.094726332 -0.094243862 0.38458171
-0.01570761 -0.065216161 0.1474594
-0.0050649121 -0.057677802 0.1486453
-0.02866511 -0.037723221 0.21793801
-0.030501779 -0.05614946 0.1582727
-0.01187928 -0.05823439 0.19872829
-0.01450674 -0.04037923 0.22624861
0.029346541 -0.06449797 0.1596114
0.02958115 -0.072368696 0.1576312
-0.02470897 -0.061397988 0.2086907
0.01329493 -0.068464354 0.1472847
-0.025061529 -0.067709163 0.1506277
-0.04055113 -0.0348837 0.19394889
-0.01718102 -0.070846103 0.1473472
0.022877941 -0.058381941 0.15708619
-0.03873207 -0.036847051 0.1994949
0.021450959 -0.060477469 0.15510321
0.02836509 -0.06715136 0.1636363
0.099902608 -0.0026956131 0.3520613
-0.005738948 -0.058179151 0.14953659
-0.01002913 -0.072387733 0.1469394
-0.016493529 -0.067693457 0.14980499
0.097690552 -0.001607351 0.35415801
0.085982427 -0.093726464 0.40697911
0.069550559 -0.1016374 0.45332459
0.06829755 -0.1029107 0.45549989
0.007826373 -0.058289781 0.151103
0.02127577 -0.058366779 0.1572983
0.01048616 -0.07413283 0.1477644
0.024301659 -0.063299797 0.157011
-0.035411891 -0.061819579 0.15872671
-0.01832919 -0.065404423 0.1480861
-0.007143423 -0.064750582 0.14866281
-0.0091618001 -0.05892029 0.15119299
-0.019705709 -0.071418323 0.1475637
-0.01319635 -0.071150839 0.1458306
-0.026276231 -0.071324468 0.1495478
-0.0085933506 -0.080519177 0.14471871
-0.02712634 -0.068345428 0.1514262
-0.01963116 -0.064609513 0.15135939
0.065670803 -0.088465028 0.4378216
0.075884953 -0.099915832 0.42469651
-0.03803876 -0.062229969 0.2218875
0.033311989 -0.04205364 0.1980854
-0.01677659 -0.077085853 0.1500107
-0.048709869 -0.072322354 0.21001001
-0.03821731 -0.05586474 0.1713361
-0.051075559 -0.07468731 0.1833964
-0.03448439 -0.065474957 0.1632057
-0.02301586 -0.07017003 0.1517397
-0.041514572 -0.070759714 0.2220249
-0.03705357 -0.069709703 0.2280007
-0.035874099 -0.055907309 0.22076041
-0.04760623 -0.06999895 0.2104713
0.017718719 -0.041441161 0.2160136
-0.033633761 -0.053676412 0.2226638
-0.006207895 -0.037800271 0.1578172
-0.02703834 -0.037009612 0.1651973
-0.01206765 -0.05166449 0.23346961
-0.0058315168 -0.0546562 0.23553041
-0.01315458 -0.054595441 0.2340989
0.01155029 -0.074837036 0.2381829
-0.02830472 -0.070038959 0.2334909
-0.00019130109 -0.063159443 0.2389738
-0.029585671 -0.064997211 0.23171949
-0.01022216 -0.05632646 0.2355849
-0.038330492 -0.073715061 0.2274351
-0.0085565373 -0.078643441 0.2416212
-0.006559581 -0.054139201 0.2358436
-0.036894169 -0.067079112 0.227513
-0.0061203688 -0.066878363 0.2425314
0.003012121 -0.056066349 0.2352156
-0.0089204013 -0.1194602 0.2458812
-0.042934239 -0.070554078 0.22122011
-0.03624234 -0.058030769 0.22310279
-0.0378705 -0.069468647 0.2265262
-0.03170744 -0.047684249 0.2236993
-0.02196637 -0.072364092 0.2331003
0.029651551 -0.044250399 0.1812624
0.01371756 -0.040274501 0.16027801
-0.046914589 -0.054342549 0.1979589
-0.051437851 -0.073385634 0.1913169
-0.037350509 -0.069062047 0.2166314
-0.04394659 -0.06167632 0.2156793
-0.047116611 -0.054023091 0.193452
-0.05098768 -0.07228525 0.20288029
-0.051090691 -0.066360854 0.1965988
0.032539219 -0.047407672 0.1889514
-0.038835641 -0.06200337 0.22182921
-0.05103505 -0.061463241 0.1912318
-0.045426071 -0.058815662 0.18438999
-0.054234982 -0.079613023 0.1998312
-0.053088959 -0.078451127 0.1996395
-0.05012602 -0.079364017 0.2094593
-0.05186376 -0.085541457 0.1930694
-0.053717729 -0.072634101 0.1842421
-0.053006999 -0.069435991 0.1857684
-0.015767161 -0.052749071 0.2309719
0.019221781 -0.04490383 0.166594
-0.04457647 -0.063700967 0.1723112
-0.044026401 -0.1000021 0.17904291
-0.050336778 -0.089008309 0.1872537
-0.037269201 -0.04769345 0.2152127
-0.044856459 -0.084683247 0.21911471
-0.043890089 -0.055430289 0.1790732
-0.0072347219 -0.066066943 0.150529
-0.038205381 -0.064523883 0.1645108
-0.022837879 -0.073887333 0.151437
-0.0073000491 -0.066198967 0.148826
0.083206698 -0.094285347 0.41835779
-0.037367031 -0.05835896 0.1666059
0.006169043 -0.06123535 0.22697531
-0.027133111 -0.05887875 0.15790761
-0.017977839 -0.065864362 0.1519839
-0.03270264 -0.070150383 0.1580963
-0.034391768 -0.072469443 0.15775169
0.092461117 -0.096581742 0.41338959
-0.03723599 -0.056096341 0.1689802
-0.03145998 -0.058493081 0.1602475
0.02247832 -0.047184668 0.2203106
-0.01097438 -0.073951609 0.1468516
-0.026778771 -0.064928919 0.15471341
-0.047098272 -0.07224898 0.17172199
-0.047116838 -0.068541557 0.1768256
-0.001075208 -0.059195869 0.1507071
-0.016187429 -0.067332789 0.1494161
-0.01231572 -0.05892247 0.1514858
-0.0047732289 -0.050881371 0.15491471
-0.01728205 -0.072535589 0.14818589
-0.018228769 -0.039153971 0.22751661
-0.038488969 -0.06963522 0.1633084
-0.042226661 -0.048246879 0.1815525
-0.0334654 -0.063902743 0.1602834
-0.020093 -0.075775862 0.14919931
-0.01229756 -0.065834247 0.1502783
-0.02160815 -0.068735451 0.1506826
0.0093456134 -0.0599663 0.2251385
-0.045133431 -0.05931874 0.18155161
0.0095662922 -0.060333431 0.1543446
-0.023917999 -0.056723859 0.15866479
-0.00564605 -0.05982722 0.1504516
-0.0067017558 -0.080714993 0.1454736
-0.0047712359 -0.053077228 0.1531827
-0.028895009 -0.069018602 0.1545348
-0.0086896867 -0.064482778 0.1496865
0.085098483 -0.088440448 0.44026619
-0.040593099 -0.056617528 0.17429911
-0.031852461 -0.059643921 0.16263101
-0.046106029 -0.070912637 0.1697492
0.078518562 -0.1039341 0.44494429
0.078457847 -0.1063724 0.4224537
-0.019698741 -0.073179863 0.1485392
-0.01941875 -0.066387877 0.1514827
-0.035085261 -0.063600853 0.15973771
-0.01293275 -0.06045546 0.15130059
-0.0376921 -0.059317529 0.16648629
-0.044370711 -0.065327503 0.17409121
-0.040314019 -0.073339812 0.1627644
-0.036213402 -0.066381842 0.1639411
-0.041965749 -0.072997607 0.1633483
-0.052992851 -0.075535677 0.1849585
-0.050978091 -0.069093034 0.1846123
-0.022490591 -0.074999727 0.14791711
-0.023974931 -0.058928821 0.15433
-0.044881448 -0.056257378 0.17976031
-0.044285059 -0.05855852 0.17558821
-0.03507572 -0.05497798 0.16333219
-0.02908084 -0.059041541 0.1571085
-0.034156919 -0.069592312 0.15678871
-0.047967341 -0.05911934 0.18495791
-0.050144341 -0.073110439 0.1816999
-0.04725039 -0.056166489 0.1988415
0.080955774 -0.096439011 0.42689469
0.079698533 -0.1012973 0.4275578
0.083207011 -0.095309563 0.41771311
0.082410783 -0.1134211 0.41870391
0.088754088 -0.103985 0.4211787
0.0747329 -0.1148507 0.4351193
-0.024576221 -0.074413501 0.1509134
-0.052588489 -0.073290966 0.2046883
-0.038213249 -0.071930923 0.22859059
-0.043809518 -0.063622102 0.2170461
-0.052132498 -0.06789536 0.1982355
-0.048569161 -0.063826524 0.1803388
0.01282033 -0.041378491 0.1613434
-0.04749918 -0.1017014 0.1927401
-0.050295979 -0.073306657 0.2112074
-0.034700539 -0.054435998 0.22373059
-0.051120341 -0.069023289 0.1850578
-0.034819249 -0.054488271 0.2238943
-0.05033192 -0.069596373 0.1850621
-0.041109949 -0.1045822 0.1913778
-0.049021959 -0.091677383 0.1877306
-0.037148539 -0.065727897 0.16483641
0.0041998918 -0.04074635 0.2303701
0.025492821 -0.045507539 0.2111402
-0.046478748 -0.056471851 0.1997605
0.0085411668 -0.04191342 0.16216411
-0.046234399 -0.065511353 0.1743352
-0.042909682 -0.053734899 0.2411337
-0.040166911 -0.079979777 0.2145576
-0.032136891 -0.065652996 0.23230091
-0.079013258 -0.1144277 0.1879553
-0.02751261 -0.0095067024 0.22858579
-0.0213576 -0.036533829 0.1803968
-0.01117128 -0.1081809 0.25405261
-0.00094854832 -0.1107562 0.25058821
0.0040317769 -0.107759 0.23401999
0.091952682 -0.069191128 0.34042391
0.099819362 -0.087687999 0.37337849
-0.061438859 -0.082848102 0.24126901
0.091006041 0.001983285 0.35655361
0.051532749 0.0096439123 0.3594099
-0.03161025 -0.02953464 0.1919248
0.041548848 0.00048863888 0.3729724
-0.046159331 -0.05838174 0.1877179
0.074143387 -0.01362848 0.3759979
0.0025512499 -0.052637991 0.1932577
0.074722208 -0.082782358 0.4089579
0.077897973 -0.085284382 0.40336579
0.01260219 -0.1125494 0.2277483
-0.00514042 -0.067896433 0.2363231
0.07846389 -0.091455907 0.46010831
-0.050786711 -0.060490768 0.1944316
-0.04536267 -0.054046061 0.1842254
-0.041612431 -0.1184048 0.19871239
0.096297912 -0.087372273 0.3626675
0.02085226 -0.075397037 0.229543
0.073498093 -0.094195507 0.40771469
0.01613326 -0.04296419 0.1877429
-0.0086709186 -0.064772934 0.23483381
0.059630278 -0.1185626 0.44880971
-0.090909183 -0.1181783 0.1760058
-0.039090469 -0.053771 0.22304609
-0.045295529 -0.066559263 0.2205736
0.0099827163 -0.039628241 0.15381411
0.0084108561 -0.068223692 0.230611
-0.0067527848 -0.1034451 0.2224879
-0.0057040299 -0.06901741 0.2341425
-0.02712688 -0.061112419 0.2261883
0.01775109 -0.092309333 0.2292608
0.01300344 -0.08785741 0.2304063
-0.04311271 -0.037621532 0.1827426
0.030936729 -0.052397698 0.2010483
0.01370947 -0.059544161 0.2169096
-0.039495509 -0.036405209 0.16839591
-0.030092159 -0.049366649 0.2194052
0.01278172 -0.065959617 0.22943
0.0203014 -0.095941737 0.2285434
-0.019637359 -0.064343847 0.167118
0.006802869 -0.05427146 0.2260665
0.0073265452 -0.077042967 0.232784
-0.04484332 -0.03645264 0.188694
-0.0022623821 -0.064926952 0.2307466
0.004430668 -0.055389229 0.23050091
0.00093308458 -0.036641762 0.2271287
0.0080743246 -0.07108885 0.22939999
0.01471009 -0.036373138 0.1529295
0.0092643406 -0.068479508 0.2301292
0.01540277 -0.076482274 0.22782999
-0.0085619837 -0.054578628 0.2283099
-0.02844095 -0.040199731 0.1574368
0.004795759 -0.040126439 0.2224655
-0.0096312026 -0.071094632 0.2292361
-0.0044648051 -0.037430111 0.2276424
-0.033929601 -0.036682349 0.1588636
0.0045072269 -0.062111691 0.18135969
0.019053269 -0.071946099 0.2244229
-0.0036601049 -0.059970129 0.1884335
0.01273903 -0.05638263 0.19543649
0.02165179 -0.1106828 0.2244024
0.006426292 -0.065625302 0.1999954
-0.029788369 -0.03549118 0.15838049
0.016133251 -0.03270416 0.2140801
-0.001913672 -0.034720842 0.2242627
0.00016528741 -0.0377817 0.1468033
-0.0089002028 -0.0520689 0.2307469
-0.003904453 -0.062604576 0.1840979
-0.00082338601 -0.062981918 0.1741145
-0.02897851 -0.047405589 0.22359329
-0.03066631 -0.074399158 0.2235319
-0.045389719 -0.03412712 0.17909171
0.01485278 -0.036813911 0.1525103
0.01029712 -0.03718828 0.1568405
-0.01019483 -0.04014498 0.1483157
0.006080687 -0.08317557 0.2284959
-0.02524009 -0.072458029 0.22827791
-0.01572226 -0.067047827 0.233844
-0.0023514519 -0.06766355 0.2290114
0.0097433738 -0.0617056 0.1759785
-0.027800361 -0.064341433 0.22446349
-0.02143858 -0.064446263 0.22686671
-0.03726301 -0.064157657 0.2187984
0.028268149 -0.057115749 0.20284981
0.003040344 -0.049503449 0.22986069
0.0079270815 -0.082280166 0.2299621
-0.00232126 -0.03708129 0.22379629
0.0077522402 -0.04648824 0.1518748
0.0022740921 -0.055307511 0.2274981
0.0086624119 -0.04431583 0.2232042
-0.039729249 -0.062717989 0.2165961
-0.040539011 -0.075378247 0.2204996
-0.033120479 -0.069831297 0.2253971
-0.01179843 -0.063477717 0.22697911
0.0078734234 -0.075928017 0.2291947
-0.0059495871 -0.074468732 0.23319571
0.0063877329 -0.058791518 0.2255438
-0.01678063 -0.075851463 0.23151989
-0.0074765831 -0.064981364 0.2319048
-0.02466771 -0.07393916 0.23116601
-0.0215063 -0.066815048 0.2283376
-0.0019601639 -0.068935737 0.2315667
-0.01203557 -0.070037201 0.23269591
0.01581941 -0.066816077 0.22383299
-0.0096858423 -0.069697388 0.2334574
-0.016230671 -0.066471443 0.23001879
-0.01174493 -0.077860624 0.2363511
-0.027161781 -0.090590522 0.2263369
0.0060682148 -0.084455252 0.2314208
-0.041191351 -0.041647319 0.19592071
0.035823029 -0.065146178 0.1860473
-0.038526129 -0.044514719 0.1961015
0.0084686894 -0.07083264 0.2300224
-0.041028321 -0.045268372 0.18232951
-0.04541805 -0.039532781 0.1899157
-0.034831818 -0.039359659 0.158959
-0.0022513419 -0.069239423 0.23031899
-0.042181302 -0.041807681 0.1834802
-0.018760759 -0.063744247 0.1920798
0.029971629 -0.05684923 0.1995839
0.0090147546 -0.065675572 0.225621
0.01479232 -0.082445711 0.2261322
-0.00037844479 -0.064944953 0.1750513
0.0062992871 -0.062988877 0.1806971
0.0043608551 -0.05983251 0.1938177
-0.005036131 -0.040776551 0.22622751
-0.0035362691 -0.07156837 0.23034979
-0.0070595741 -0.071664073 0.23222239
-0.018298831 -0.067663342 0.190001
0.016403761 -0.047058549 0.2016573
0.042233702 -0.115604 0.2016952
-0.001124099 -0.056696441 0.22776841
-0.0025003699 -0.05528456 0.20029309
-0.04436392 -0.1125685 0.1895083
-0.016565621 -0.1186762 0.2199876
0.01410437 -0.067394972 0.1874675
-0.04020888 -0.066601157 0.1779886
0.0039454401 -0.0469555 0.1613186
-0.062764883 -0.058975231 0.18473279
-0.04939872 -0.1019729 0.1739925
-0.0442282 -0.1143398 0.1865387
0.0121817 -0.046302911 0.2061477
-0.03742981 -0.06081045 0.1614355
-0.02909404 -0.1194453 0.2125182
0.017752349 -0.1169459 0.22476929
0.090743721 -0.119556 0.37547249
-0.03993893 -0.1133861 0.2138118
0.066710621 -0.083747342 0.39739281
0.01063937 -0.04505476 0.1932576
-0.03045884 -0.1152125 0.2210611
-0.033533931 -0.059773982 0.1494725
0.071361631 -0.089633621 0.43685871
-0.051809281 -0.1007164 0.1872716
0.081582554 -0.092133597 0.39755949
0.063725173 -0.095987439 0.40718949
0.070935488 -0.1050446 0.43922219
0.076122463 -0.08972232 0.42867899
0.073133111 -0.1037321 0.44863939
0.099087551 -0.083504736 0.33693579
-0.02038661 -0.037899271 0.22293539
0.01002683 -0.045725171 0.2212835
-0.035386909 -0.06803295 0.1535659
-0.034132991 -0.063316628 0.15215801
0.096946843 -0.076071776 0.4993645
0.02080531 -0.046905331 0.2177529
0.078257114 -0.078444727 0.42332429
-0.029413151 -0.058559719 0.15532669
-0.0091772294 -0.064559393 0.1455023
-0.018884741 -0.066448517 0.14618181
-0.0084622977 -0.059070811 0.1474845
-0.01322188 -0.072103202 0.143787
-0.008114717 -0.050150629 0.15067171
-0.02540331 -0.073918842 0.151453
-0.040487979 -0.05773842 0.1632828
-0.0337932 -0.05724616 0.1567318
-0.0027328019 -0.060687859 0.1456639
-0.017753471 -0.05072302 0.1520903
-0.02232595 -0.065376699 0.14935631
-0.016625879 -0.064452231 0.14578091
-0.032018159 -0.071808822 0.1494076
-0.0282882 -0.068977557 0.14911591
-0.03965655 -0.063388564 0.1580694
-0.047663301 -0.05945434 0.1800586
-0.01362552 -0.078305647 0.1423419
-0.003814369 -0.044003859 0.22543541
-0.01091318 -0.05928982 0.1507722
0.09608984 -0.094452411 0.38670659
0.083014853 -0.095033497 0.41136411
0.081115589 -0.093563408 0.44261539
0.094629481 -0.1071924 0.37489659
0.008420106 -0.060772721 0.1540003
0.022933289 -0.060379591 0.1597521
0.0096452404 -0.076325908 0.1489978
-0.0082264841 -0.065397114 0.15096959
-0.041811161 -0.037301779 0.198663
-0.01735739 -0.068973653 0.1509731
0.0092055164 -0.067869633 0.15148389
-0.01151725 -0.074141741 0.1490532
0.028851051 -0.075967818 0.1612093
0.0053529548 -0.063845128 0.1522848
0.022280101 -0.054131091 0.1650385
0.01302651 -0.071039893 0.1489578
0.01249299 -0.062389638 0.151683
-0.004289892 -0.069515876 0.1471307
