# .PCD v0.7 - Point Cloud Data file format
VERSION 0.7
FIELDS x y z normal_x normal_y normal_z curvature
SIZE 4 4 4 4 4 4 4
TYPE F F F F F F F
COUNT 1 1 1 1 1 1 1
WIDTH 262
HEIGHT 1
VIEWPOINT 0 0 0 1 0 0 0
POINTS 262
DATA ascii
-0.032776043 -0.1255572 0.14944005 -0.4820275 -0.3867633 -0.78617024 0.10225474
-0.023894794 -0.1255572 0.14902729 -0.31615981 -0.48116028 -0.81763554 0.11761601
-0.014653138 -0.1255572 0.14713435 -0.22197357 -0.50426531 -0.83453244 0.11231054
-0.0060048206 -0.1255572 0.14717947 -0.11896796 -0.54255015 -0.83155632 0.11719211
0.0044955602 -0.1255572 0.14618757 0.038228277 -0.5263347 -0.84941769 0.11882578
0.012841746 -0.1255572 0.14759244 0.11026126 -0.51959115 -0.84727061 0.11934157
0.022356071 -0.1255572 0.14899001 0.35565934 -0.4194929 -0.83518398 0.10998449
-0.0073944903 -0.081204236 0.14759327 -0.49502197 -0.13805874 -0.85784203 0.20795196
-0.012742531 -0.074408919 0.14857718 -0.68516946 0.13219854 -0.71628648 0.22047834
-0.0067558503 -0.071518891 0.1490777 -0.54080683 0.52285105 -0.65890425 0.25180507
-0.010848247 -0.068836085 0.14947236 -0.59327149 0.60678035 -0.52900535 0.23335619
-0.0049753333 -0.067879327 0.14968811 -0.37384236 0.80065709 -0.46817741 0.24309087
-0.034498107 -0.12548561 0.15730917 -0.4486289 -0.50707281 -0.73594111 0.1222387
-0.026316669 -0.1255572 0.15429747 -0.36591387 -0.54683936 -0.753043 0.1254428
-0.015463091 -0.1255572 0.1512433 -0.2029607 -0.56148142 -0.80221301 0.11844838
-0.005307816 -0.1255572 0.15207876 -0.13421926 -0.58402711 -0.80056077 0.12284771
0.0073245005 -0.1255572 0.15247938 0.040540617 -0.57986718 -0.81370181 0.12330937
0.013583434 -0.1255572 0.15322179 0.086558782 -0.58662766 -0.8052178 0.12926245
0.02427463 -0.1255572 0.15721501 0.35762534 -0.53629643 -0.76451969 0.13541676
-0.032644466 -0.071171038 0.15903671 -0.72861111 0.62475002 -0.2807371 0.20978032
-0.024582608 -0.073454171 0.15300432 -0.75862402 0.4327009 -0.48709291 0.21643458
-0.018561188 -0.073349781 0.15026794 -0.73140776 0.25603122 -0.63205278 0.21874958
0.0085354727 -0.075094119 0.15102245 0.59737217 0.73624063 -0.31795621 0.28363743
0.014681582 -0.075065896 0.15306601 0.69798392 0.62932032 -0.34172261 0.26178855
0.025085708 -0.078720912 0.15989092 0.84541494 0.44941324 -0.28861982 0.22020079
-0.030994555 -0.067546964 0.15855159 -0.66006559 0.70402759 -0.26202789 0.20400104
-0.024803031 -0.066529386 0.15521792 -0.63892823 0.70926666 -0.29784489 0.20961708
-0.015986541 -0.066462763 0.15144902 -0.57725662 0.7174654 -0.38989508 0.22085811
-0.0058717201 -0.063541777 0.15053627 -0.3218044 0.8636685 -0.38796723 0.22765651
0.0068097054 -0.063605599 0.15259045 0.27108699 0.91061842 -0.3119069 0.22801454
0.013303325 -0.063859515 0.15508856 0.57678115 0.78422922 -0.22870958 0.2178642
0.021709733 -0.064808428 0.15923528 0.67845577 0.7045722 -0.20802835 0.19307804
-0.026760783 -0.058697399 0.15850553 -0.52299088 0.81736588 -0.24164747 0.18895468
-0.013510053 -0.057613023 0.15307441 -0.35936254 0.88911742 -0.28342327 0.19379601
-0.0055405758 -0.056810576 0.15163204 -0.262954 0.91032851 -0.31962034 0.19613476
0.0033303387 -0.057942182 0.15259631 0.041537445 0.94971275 -0.31035528 0.21167515
0.015864681 -0.054983165 0.15804985 0.41564137 0.88755077 -0.19873576 0.17520887
-0.0045167455 -0.04378745 0.15413655 -0.11661705 0.9774943 -0.17579906 0.099897392
0.0069667581 -0.044550661 0.15594375 -0.022651035 0.98553753 -0.16793664 0.097683422
0.01203702 -0.041043982 0.15879497 0.013805697 0.99019301 -0.13902265 0.077231184
-0.0023440057 -0.037072886 0.15311201 -0.097373217 0.97258359 -0.21118653 0.07561212
0.0096297581 -0.037861519 0.15801835 0.00022173666 0.98621595 -0.16546312 0.074774884
0.010422182 -0.037672158 0.15833099 0.0070578596 0.98568642 -0.16844139 0.074609101
-0.042214651 -0.12522286 0.16477709 -0.6208809 -0.48960131 -0.61220711 0.13444327
-0.036111735 -0.12530144 0.16415216 -0.5485698 -0.54287755 -0.63588923 0.13912266
-0.027037637 -0.1254783 0.16519676 -0.45333683 -0.58341712 -0.67387706 0.14541626
-0.019637397 -0.1255596 0.16711801 -0.34471759 -0.64678383 -0.6803239 0.16235898
0.0062433034 -0.1255572 0.16174135 0.0065730554 -0.64916939 -0.76061553 0.14667243
0.015253223 -0.1255572 0.16273847 0.20014599 -0.64242762 -0.73974884 0.15055317
0.02645647 -0.1255572 0.16271414 0.49182606 -0.55727053 -0.66899687 0.14671855
0.034970868 -0.12558873 0.16888085 0.81729865 -0.34927416 -0.45829082 0.1368904
-0.038906213 -0.073807329 0.16485977 -0.74744391 0.63030618 -0.20986103 0.20637232
0.027437298 -0.074934281 0.16188033 0.83089292 0.50625563 -0.23091596 0.19107239
0.033550773 -0.07709948 0.16980407 0.91494143 0.3516143 -0.19811532 0.16513951
-0.035040166 -0.064735025 0.16377515 -0.65383035 0.72990936 -0.19934443 0.1980052
0.025119934 -0.064683311 0.16217148 0.70522487 0.68472964 -0.18385629 0.18206988
-0.033768419 -0.058038533 0.16453876 -0.54728615 0.81636322 -0.18446933 0.1781387
0.021556232 -0.056749836 0.16258201 0.57920516 0.80153799 -0.1485201 0.16915014
-0.026810918 -0.040545616 0.16039172 -0.169502 0.97917908 -0.11170268 0.088349245
0.016786244 -0.042444147 0.16319984 0.035049621 0.99425095 -0.10117561 0.08141169
-0.030697327 -0.038412586 0.16212162 -0.185463 0.97501773 -0.12224542 0.089558378
-0.028563194 -0.037382878 0.16357949 -0.16580224 0.98009634 -0.10918188 0.088448882
-0.090072438 -0.12487439 0.17482108 -0.98657715 -0.097685784 -0.13085474 0.13408287
-0.045591298 -0.12407076 0.17507078 -0.76833838 -0.47529474 -0.42866197 0.1545997
-0.038186878 -0.12434066 0.17113227 -0.64521992 -0.54740429 -0.53295398 0.1533619
-0.0006009154 -0.1255572 0.1745829 -0.13760458 -0.82133925 -0.55359453 0.21007437
0.0097433738 -0.1255572 0.1759785 0.38553014 -0.75390613 -0.53196996 0.19678169
0.035633754 -0.12555365 0.17092901 0.86961931 -0.32139429 -0.37479067 0.13643345
-0.091712885 -0.11883415 0.17714374 -0.98455143 -0.046890665 -0.16870011 0.1143907
-0.048114002 -0.10136966 0.17666155 -0.94752389 -0.14522402 -0.2847954 0.19523083
-0.043363534 -0.072484918 0.1726117 -0.74824178 0.64788467 -0.1427571 0.20165727
-0.043512784 -0.066185899 0.17562547 -0.68682563 0.72076428 -0.093644507 0.19078946
-0.00070455787 -0.063495435 0.17428549 0.8350265 0.54855341 0.0426603 0.25322738
8.2930506e-05 -0.06336277 0.17515014 0.83503813 0.5485357 0.042661577 0.25322622
0.032587677 -0.069523208 0.17249642 0.83154124 0.53843272 -0.13648999 0.1672935
-0.041758452 -0.057244655 0.17691344 -0.58930486 0.80321658 -0.086965606 0.17134862
-0.038301397 -0.055809893 0.171303 -0.54540813 0.82851076 -0.12688534 0.17271149
0.0092075747 -0.059905592 0.17590839 0.65264368 0.75763261 0.0070082606 0.22013845
-0.033253714 -0.038012285 0.1714194 -0.18309245 0.97963977 -0.082359113 0.095516108
-0.076594777 -0.12168103 0.18271893 -0.97946298 -0.12377019 -0.1591641 0.11347894
-0.062225174 -0.12157817 0.18457057 -0.93588722 -0.26758271 -0.22916062 0.13947195
-0.052069016 -0.12315778 0.18451217 -0.90807527 -0.36809534 -0.19976281 0.1548155
-0.046454117 -0.12116522 0.18434563 -0.85470557 -0.44897494 -0.26057631 0.16852587
-0.021353679 -0.12539871 0.18039553 -0.50267965 -0.75778776 -0.41601789 0.21911888
-0.0037822789 -0.1255572 0.18626571 -0.37732887 -0.84203714 -0.38548213 0.23768683
0.005403257 -0.1255572 0.1810284 0.22265132 -0.87798238 -0.42376098 0.23140338
0.015114903 -0.12538046 0.18760332 0.84818989 -0.51022035 -0.1422994 0.18765016
0.0296463 -0.12524574 0.18125121 0.86331266 -0.44409388 -0.23973286 0.15559036
0.033970807 -0.12429512 0.18739706 0.94115901 -0.33774522 -0.012163774 0.13592927
0.040315226 -0.12527145 0.18008667 0.94794643 -0.2794677 -0.1526286 0.12807783
-0.079465449 -0.11502087 0.18840781 -0.999277 -0.028321965 -0.025363581 0.10791893
-0.0461189 -0.11351319 0.18829161 -0.92658412 -0.35640618 -0.12006871 0.19059506
-0.04809203 -0.095547967 0.18733416 -0.99855232 0.053494181 0.0056248149 0.20765349
-0.048650518 -0.088786721 0.18736374 -0.9795391 0.19882403 0.031179294 0.21243459
-0.04802455 -0.072914779 0.18511467 -0.76844984 0.63878745 -0.037889481 0.19501878
0.038699038 -0.074640714 0.18062717 0.92423356 0.36069077 -0.12527744 0.15028803
-0.046579264 -0.065698959 0.18446323 -0.69660807 0.71624875 -0.041530915 0.18331409
-0.01876081 -0.066694736 0.18945219 -0.99091107 0.11986229 -0.061059512 0.24938346
-0.0036496478 -0.062445562 0.18656459 0.91198117 0.39714533 0.10279086 0.24941248
0.0052695107 -0.062218018 0.18093148 0.80286902 0.59277213 0.063424096 0.2405605
0.03480823 -0.065550186 0.18609662 0.75505859 0.65561396 -0.0075464989 0.15883946
-0.044719342 -0.057980537 0.18412693 -0.60635042 0.79393411 -0.044807382 0.16973038
0.01635303 -0.055261388 0.18689306 0.55943418 0.82731813 0.050775714 0.18820204
0.028006658 -0.052285694 0.18915841 0.47364065 0.87976539 0.04095633 0.1623251
-0.040662359 -0.045108374 0.18473285 -0.29642889 0.95363891 -0.051987465 0.12477306
-0.039963163 -0.042492114 0.18372035 -0.195476 0.97971487 -0.044135235 0.11065594
0.024324739 -0.047852643 0.18253137 0.31615499 0.94870257 0.0030726015 0.14242801
-0.038402494 -0.038924795 0.18366821 -0.16373971 0.98508692 -0.052849557 0.097785294
-0.021354955 -0.03631511 0.18039219 -0.10632224 0.99346966 -0.04139746 0.094784968
-0.052299216 -0.12485023 0.19577686 -0.93600106 -0.3509191 0.027528452 0.15885827
-0.046456318 -0.1220417 0.19715215 -0.92167461 -0.38248095 0.064993992 0.18174298
-0.016301809 -0.12520565 0.19358984 -0.69803631 -0.67993301 -0.2245805 0.24439563
0.0044461321 -0.1255572 0.19569027 0.93769282 -0.34623033 0.029270437 0.24813725
0.011682133 -0.12532191 0.19434531 0.86193097 -0.50657201 -0.021444285 0.21929353
0.029688206 -0.12351593 0.19945717 0.8933844 -0.39412975 0.21569899 0.143159
0.032849405 -0.12345897 0.1978112 0.92222065 -0.33294329 0.19661596 0.13087568
-0.043043025 -0.11786048 0.199233 -0.93161619 -0.34376866 0.11795954 0.195189
-0.039546195 -0.11885368 0.19904511 -0.92668098 -0.36453015 0.09154316 0.2009747
-0.046299081 -0.10364567 0.19225499 -0.99196738 -0.12628552 0.0072515444 0.20692335
-0.048965782 -0.085365608 0.19307439 -0.95510006 0.27927828 0.098932147 0.20162335
-0.048481923 -0.077176966 0.19661118 -0.8936525 0.43977001 0.089372389 0.19511391
-0.047406651 -0.06499169 0.1950936 -0.71659052 0.69646066 0.037954334 0.17513895
-0.014667788 -0.062933981 0.19610122 -0.94612134 0.3223393 0.030851252 0.25123298
-0.044683523 -0.055943746 0.1973529 -0.62794387 0.77771461 0.029093657 0.16528988
0.0047627897 -0.056758001 0.19543923 0.58827907 0.79029274 0.17136255 0.22097696
0.013646507 -0.05382454 0.19516444 0.49256629 0.86396909 0.10457493 0.18984139
0.027463231 -0.050382461 0.19370514 0.42432308 0.90425044 0.047761068 0.15471368
-0.040701177 -0.042889137 0.19610408 -0.22288647 0.9744947 -0.026109762 0.11258794
0.027956367 -0.046950679 0.19890232 0.31259194 0.94926339 0.034429312 0.13394679
-0.03705186 -0.037371177 0.19574285 -0.17500333 0.98412311 -0.029588373 0.10239127
-0.050754733 -0.1267809 0.20561522 -0.86024171 -0.32375014 0.39391643 0.15814772
-0.040795993 -0.1222131 0.20410918 -0.9111836 -0.36277384 0.19529364 0.19368613
-0.024706073 -0.12301601 0.20856024 -0.84414142 -0.44565758 0.29801777 0.21538208
-0.0025003699 -0.1255572 0.20029309 -0.94781518 -0.28981838 -0.13285993 0.25859463
0.014268851 -0.12503369 0.20388487 0.82152259 -0.46629679 0.32812789 0.19412658
0.027969219 -0.12374974 0.20272678 0.87615728 -0.40856129 0.25578535 0.14663853
0.035181299 -0.12213425 0.20085144 0.92691612 -0.27850631 0.25151682 0.11935829
0.043957349 -0.11913466 0.20229116 0.95543551 -0.13600522 0.26200294 0.088333324
-0.046046752 -0.074073553 0.20649846 -0.87156928 0.45982456 0.17008367 0.19179089
-0.024658976 -0.060786262 0.20868029 -0.6825518 0.70969027 0.17453621 0.22034664
-0.0019827415 -0.056609664 0.20079173 0.48299706 0.8379066 0.25421736 0.23022164
0.016889097 -0.050223365 0.20269547 0.38237381 0.91780597 0.10687647 0.17023711
-0.036750153 -0.040215075 0.20202206 -0.19519198 0.98055792 -0.020156523 0.10894583
0.013047677 -0.049608063 0.20716766 0.32382444 0.93807578 0.12309213 0.16468009
0.023578262 -0.045525968 0.20931391 0.24873459 0.96686101 0.057540119 0.13186465
-0.046933062 -0.12656204 0.21260265 -0.75503325 -0.33671984 0.5626229 0.14844103
-0.034490544 -0.12369365 0.21567638 -0.68987203 -0.36501241 0.62517399 0.1714911
-0.029037133 -0.12252198 0.21407825 -0.72225791 -0.45393351 0.52181214 0.19736853
0.015594319 -0.12530184 0.21540008 0.64983141 -0.49324271 0.57829982 0.19177729
0.021817403 -0.12187207 0.21310951 0.78376657 -0.40484878 0.47096446 0.16374786
-0.040124975 -0.083916627 0.21528576 -0.92315722 0.28955108 0.25286555 0.19319357
-0.041983105 -0.079860933 0.21590936 -0.91042799 0.32520774 0.25565764 0.19136682
-0.03898624 -0.072493821 0.21857731 -0.8995499 0.35857746 0.24946377 0.19000731
-0.04018452 -0.065175176 0.21474001 -0.80680239 0.55409002 0.20507108 0.17931288
-0.037815798 -0.064419635 0.21758646 -0.80324692 0.55056244 0.22732224 0.18309323
-0.034479551 -0.056122612 0.21909757 -0.69552839 0.68169636 0.22700301 0.17164668
0.01449235 -0.05930008 0.21752544 0.48287621 0.84797072 0.21857783 0.19418573
-0.032109186 -0.049298078 0.21647438 -0.54110819 0.82695663 0.15278928 0.16476268
-0.029410802 -0.049037553 0.21974272 -0.5374077 0.82215732 0.18775102 0.16644792
0.015972117 -0.044516698 0.21469462 0.15120138 0.98554707 0.076387942 0.12907362
0.026912559 -0.041537423 0.21644841 0.27502257 0.9513765 0.13872768 0.10437226
-0.026466025 -0.039768405 0.21557112 -0.16463333 0.98601919 0.025730755 0.10961412
-0.042232916 -0.12634836 0.22075802 -0.65156847 -0.34114817 0.67755187 0.13612466
-0.035522252 -0.12475762 0.22442824 -0.56818807 -0.35164574 0.74398088 0.14236543
-0.025333265 -0.12409393 0.22640508 -0.53718436 -0.36557257 0.7601248 0.1466313
-0.016174052 -0.12325783 0.22358504 -0.45864114 -0.4928599 0.73941696 0.17457575
-0.0041840943 -0.12280899 0.22597349 -0.18521813 -0.49613482 0.84825975 0.19459583
0.0060311989 -0.12356172 0.22650981 0.1280334 -0.50682902 0.8524856 0.19012435
0.013776131 -0.12240365 0.22145675 0.4837158 -0.47117499 0.73757249 0.19571093
-0.016619984 -0.11893281 0.22013263 -0.56836909 -0.42291015 0.70576453 0.19476451
0.016149176 -0.11295884 0.22434755 0.58069897 -0.32755569 0.74531597 0.18358187
-0.0067527848 -0.1034451 0.2224879 -0.91144198 -0.34754205 0.22019999 0.27153966
-0.026668873 -0.090463728 0.2254416 -0.86148387 0.044593316 0.50582314 0.20615578
0.018384885 -0.094007052 0.22645919 0.74516654 -0.095317945 0.66003126 0.19836593
0.014079385 -0.085091218 0.2286616 0.6654014 0.18265612 0.72379398 0.23501131
-0.033451974 -0.072820842 0.22330245 -0.88419843 0.35914174 0.29868117 0.19015127
-0.023850035 -0.072783746 0.22783668 -0.86553657 0.29218972 0.40678206 0.20129898
0.0079452842 -0.073590763 0.22894555 0.46028739 0.70483887 0.53975713 0.24362653
0.01750838 -0.074989863 0.2251751 0.66474348 0.5672825 0.48611379 0.2165729
-0.033456568 -0.068976387 0.22303362 -0.85199893 0.43141013 0.29661945 0.18854153
-0.025489703 -0.064857014 0.2259587 -0.79434305 0.53030789 0.29629809 0.1957168
-0.014021358 -0.064870045 0.22968727 -0.47742257 0.7798295 0.40488705 0.2271612
-0.0023736414 -0.065023333 0.22994334 0.12685846 0.88959378 0.43878224 0.22539079
0.0075198235 -0.064925544 0.22736712 0.41249803 0.83104271 0.37311298 0.21474032
0.013654713 -0.066632152 0.22535127 0.50048536 0.78933591 0.35561666 0.20900303
-0.032727074 -0.05627067 0.22026633 -0.70033306 0.67388374 0.23540248 0.17398882
-0.01226832 -0.055057257 0.22781211 -0.28448617 0.90172088 0.32552591 0.19920596
-0.0067257532 -0.055055428 0.2283494 -0.10985982 0.9327184 0.34346369 0.19983084
0.0037651549 -0.056326654 0.22637293 0.2839857 0.90584469 0.31432083 0.19675177
-0.027494138 -0.048261408 0.22070144 -0.51616585 0.8352623 0.18949854 0.16723111
-0.01541728 -0.041560929 0.22305584 -0.10158407 0.99220395 0.072194733 0.11284423
-0.004456915 -0.042671494 0.22493176 -0.003118959 0.9922747 0.12402091 0.12386432
0.0062996992 -0.044763301 0.22152838 0.088568151 0.98811424 0.12564184 0.1331387
-0.018704718 -0.039406285 0.22120164 -0.11471705 0.99181277 0.056101855 0.10773607
-0.0024126747 -0.037113361 0.22311527 -0.020696433 0.99622983 0.084248267 0.10212906
1.5821866e-05 -0.038036045 0.22232509 -0.008635425 0.99748021 0.070417725 0.10157073
-0.032135587 -0.12510797 0.2323405 -0.50149596 -0.30767861 0.80860108 0.12188347
-0.026191762 -0.12464568 0.23248808 -0.44569516 -0.33706686 0.82930195 0.1306244
-0.013789478 -0.12348239 0.2331454 -0.36760807 -0.3864589 0.84588057 0.15136698
-0.0053745662 -0.12228122 0.23328866 -0.2235682 -0.39789969 0.8897714 0.15479362
0.00016174851 -0.11009151 0.23212837 -0.060146231 -0.2565552 0.96465635 0.1882475
0.0067762057 -0.083242245 0.23050101 0.47031805 0.39685369 0.78823102 0.25916228
-0.013228149 -0.074835002 0.23108286 -0.6802873 0.36001945 0.63843179 0.25708935
-0.0068975003 -0.073464975 0.23120208 -0.23299956 0.71431315 0.65989983 0.26654735
0.0064009055 -0.077567235 0.23000649 0.42656821 0.64142597 0.63766164 0.26361269
-0.014929446 -0.067497551 0.23017943 -0.63771391 0.61621904 0.46216354 0.2348896
-0.0057025161 -0.068050958 0.23057008 -0.014707914 0.89922982 0.43722939 0.22405815
-0.042910606 -0.12559105 0.24113053 -0.56994599 -0.26113504 0.77908289 0.10641833
-0.010025084 -0.12157025 0.24922825 -0.21511117 -0.29341447 0.93146938 0.11478594
-0.0098943552 -0.12151933 0.2419533 -0.27763659 -0.33216119 0.90143603 0.12572141
-0.0083989212 -0.11896635 0.24537112 -0.25032225 -0.27757546 0.92751855 0.12492792
-0.0057513742 -0.109986 0.24748287 -0.16193365 -0.16726677 0.97252214 0.13141644
-0.011238372 -0.12489896 0.25035876 -0.21083066 -0.28555739 0.93488365 0.10891758
-0.0098001529 -0.10865251 0.25541508 -0.20792419 -0.14559494 0.96724856 0.10547672
0.099087551 -0.1255572 0.33693579 0.92859626 -0.2195005 0.29921326 0.080723606
0.091952682 -0.1255572 0.34042391 0.95545959 -0.044895213 0.29168713 0.086745225
0.096199602 -0.12562948 0.35425723 0.96701342 0.13614894 0.21528716 0.068796054
0.098796576 -0.002151482 0.35310966 0.49216244 0.86756665 0.071443878 0
0.091006041 0.001983285 0.35655361 0.49216244 0.86756665 0.071443878 0
0.095912531 -0.12584572 0.36264265 0.96399432 0.16911758 0.20521756 0.057495162
0.094442986 -0.12320287 0.37603897 0.96363825 0.12178595 0.23784356 0.033445947
0.093226179 -0.10969168 0.37833408 0.96330673 0.10801096 0.24571079 0.043584213
0.095502846 -0.12453211 0.38517252 0.96339768 0.12096231 0.2392343 0.040200558
0.094431989 -0.094308242 0.384431 0.96542418 0.093082398 0.24349919 0.040253654
0.066714101 -0.12571578 0.39739987 0.96577311 0.11151102 0.2341958 0.039600048
0.081573069 -0.12514064 0.3975431 0.96577311 0.11151102 0.2341958 0.039600048
0.098044731 -0.12475659 0.39744306 0.96577311 0.11151102 0.2341958 0.039600048
0.082507074 -0.090412907 0.39783189 0.96577018 0.11149693 0.23421441 0.039596435
0.098492712 -0.099210583 0.39746132 0.96577018 0.11149693 0.23421441 0.039596435
0.063725173 -0.1255572 0.40718949 0.96577477 0.11152691 0.23418145 0.03960453
0.075430498 -0.12399063 0.40621588 0.96577477 0.11152691 0.23418145 0.03960453
0.087950215 -0.1242975 0.40622547 0.96577477 0.11152691 0.23418145 0.03960453
0.064087413 -0.09600617 0.40774739 0.96454865 0.1133733 0.2383116 0.044301692
0.086801179 -0.095481485 0.40588093 0.96577358 0.11151824 0.23419034 0.039602328
0.068907432 -0.081210561 0.40432972 0.95879173 0.121992 0.25658613 0.048125416
0.076454557 -0.089490667 0.40539953 0.96516377 0.11244608 0.23625162 0.04195201
0.08439406 -0.12350848 0.41662535 0.96455145 0.11338042 0.23829705 0.04430462
0.092508867 -0.12354066 0.41316399 0.96577477 0.11152691 0.23418145 0.03960453
0.082757577 -0.11342786 0.41884804 0.96455145 0.11338042 0.23829705 0.04430462
0.085875064 -0.10263862 0.41462743 0.96236199 0.11675867 0.24541159 0.043863393
0.081387378 -0.096363388 0.41559148 0.96075779 0.11911669 0.25051099 0.046849918
0.071885645 -0.087382853 0.41033864 0.95879173 0.121992 0.25658613 0.048125416
0.082940526 -0.12412392 0.42605156 0.95879608 0.12200672 0.2565628 0.048128981
0.079257138 -0.10139208 0.42736992 0.95879161 0.1219796 0.25659221 0.04812403
0.081099764 -0.10619072 0.42383695 0.95879161 0.12197984 0.25659233 0.048124459
0.077314653 -0.094361603 0.42639136 0.95773244 0.12403959 0.25954327 0.050512061
0.070435598 -0.084096231 0.42184198 0.95665979 0.12609786 0.26249072 0.052900091
0.074792765 -0.12306277 0.43896717 0.95666796 0.12614129 0.26244003 0.052906297
0.076663107 -0.11476088 0.4357681 0.95666796 0.12614129 0.26244003 0.052906297
0.075138986 -0.09484911 0.43511167 0.95540136 0.12889202 0.26569733 0.057751775
0.072143942 -0.088988371 0.43748212 0.95540136 0.12889202 0.26569733 0.057751775
0.060750064 -0.12142459 0.448782 0.95583808 0.12777755 0.2646631 0.061636116
0.072906554 -0.12195152 0.44489515 0.95540822 0.12891646 0.26566106 0.057752639
0.085027069 -0.12571004 0.44023851 0.95666796 0.12614129 0.26244003 0.052906297
0.066269875 -0.1169171 0.44888118 0.95540822 0.12891646 0.26566106 0.057752639
0.073448651 -0.10343871 0.44410357 0.95540667 0.12889618 0.26567623 0.057751063
0.073395029 -0.094302945 0.44493437 0.95540136 0.12889202 0.26569733 0.057751775
0.069384523 -0.12355585 0.45434165 0.95814538 0.1245774 0.25775564 0.069800302
0.069224887 -0.103496 0.45576534 0.95814723 0.12456686 0.25775376 0.069799967
0.071040437 -0.1024041 0.45360106 0.95661014 0.12601085 0.26271337 0.065772898
0.074733116 -0.089635603 0.4589141 0.96263349 0.1117686 0.24666683 0.073600732
0.078349933 -0.12595935 0.46009374 0.96131372 0.13289396 0.24127816 0.072267219
