# .PCD v0.7 - Point Cloud Data file format
VERSION 0.7
FIELDS x y z normal_x normal_y normal_z curvature
SIZE 4 4 4 4 4 4 4
TYPE F F F F F F F
COUNT 1 1 1 1 1 1 1
WIDTH 582
HEIGHT 1
VIEWPOINT 0 0 0 1 0 0 0
POINTS 582
DATA ascii
-0.16218428 -0.19820698 0.47117588 -0.4689362 0.024625393 -0.88288867 0.0046002371
-0.1450367 -0.27871433 0.46124765 -0.42743528 0.034334078 -0.90339369 0.00027635042
-0.21251427 -0.17506988 0.50016159 -0.80526394 -0.011818287 -0.59279871 0.055466946
-0.18510342 -0.35027197 0.47891042 -0.45174614 -0.3344003 -0.82710451 0.091945454
-0.10794613 -0.086491667 0.45443517 -0.26233718 0.73723036 -0.62263203 0.075027473
-0.11154028 -0.17452951 0.44703814 -0.41929531 0.01585022 -0.90771163 0.0010159005
-0.20406446 -0.18732499 0.495287 -0.74135196 -0.0070055397 -0.67107987 0.049310382
-0.20829576 -0.32286477 0.48909622 -0.63018471 -0.0650765 -0.77371335 0.042502437
-0.097167075 -0.085486509 0.45146614 -0.25408229 0.74695718 -0.61440796 0.069875047
-0.19135655 -0.3110463 0.48007974 -0.60698146 -0.041244101 -0.79364508 0.030130586
-0.20224018 -0.32972008 0.48517713 -0.57529193 -0.13654183 -0.80647099 0.05018907
-0.18396224 -0.17013809 0.48295903 -0.57030725 0.0062139104 -0.82140797 0.020517148
-0.18896644 -0.19399467 0.48324573 -0.62078291 0.026675729 -0.78352857 0.032523565
-0.14250407 -0.15712377 0.46263957 -0.44404319 0.075839818 -0.89278996 0.0045096409
-0.18916734 -0.3517946 0.48104957 -0.47465259 -0.34501347 -0.80973494 0.094532736
-0.20736599 -0.27975279 0.4904961 -0.75021106 0.046614021 -0.65955317 0.051543109
-0.14822449 -0.32720149 0.46063086 -0.37985075 -0.20716107 -0.90155298 0.053044714
-0.082299605 -0.12326242 0.43315223 -0.26234764 0.33850697 -0.90365183 0.060398258
-0.16895768 -0.27054182 0.47260892 -0.51414639 0.045153674 -0.85651308 0.005461874
-0.14034477 -0.2270489 0.46011412 -0.42726031 0.021138856 -0.90388149 0.00012428743
-0.20084327 -0.24993695 0.48856458 -0.74081641 0.050322123 -0.66981995 0.042465985
-0.057803348 -0.09375488 0.43052301 0.032119963 0.65841627 -0.75196832 0.095484637
-0.1611588 -0.2100164 0.47007617 -0.46113375 0.027878687 -0.88689256 0.0031380388
-0.19289623 -0.21786456 0.48416635 -0.68519884 0.032073423 -0.72764957 0.039378289
-0.21294786 -0.29448065 0.49281561 -0.72772753 0.0059913336 -0.68584013 0.051717013
-0.11198334 -0.14008535 0.44810605 -0.40796944 0.22726659 -0.88425726 0.025637878
-0.17305362 -0.14588827 0.47771075 -0.50331569 0.12690973 -0.85473222 0.019099673
-0.096373737 -0.15701355 0.43996269 -0.33870411 0.047477502 -0.93969429 0.013627533
-0.19248238 -0.25465769 0.48347589 -0.68253642 0.050236396 -0.72912294 0.03368438
-0.14759085 -0.23221701 0.46436492 -0.43083262 0.023354152 -0.90212959 0.00027310179
-0.11676091 -0.1613269 0.44996163 -0.43226498 0.048462335 -0.90044343 0.00097475707
-0.10855079 -0.1551275 0.44587937 -0.41186044 0.087105475 -0.90707421 0.0045788507
-0.16924085 -0.32182518 0.46950978 -0.44667453 -0.13960908 -0.88373703 0.037659302
-0.075817779 -0.32143676 0.42732927 0.023506664 -0.20539524 -0.97839677 0.08454822
-0.18350035 -0.22751117 0.48005188 -0.63692325 0.05126312 -0.76922101 0.03051067
-0.15019478 -0.27497593 0.46372887 -0.43352577 0.035107259 -0.90045708 0.00037110312
-0.10106999 -0.13171488 0.44245362 -0.37995219 0.30004412 -0.8749913 0.038937807
-0.19964726 -0.16949792 0.48959512 -0.66406208 0.010071849 -0.74760956 0.039360911
-0.18260685 -0.24034783 0.47944325 -0.63467878 0.05260459 -0.77098358 0.029369917
-0.18362315 -0.19420666 0.48053786 -0.57474768 0.022607677 -0.81801838 0.02212867
-0.19071208 -0.3280566 0.47884455 -0.51936787 -0.13917133 -0.84314185 0.04998143
-0.10210057 -0.19892654 0.44207948 -0.38562062 -0.0115225 -0.92258549 0.0060253949
-0.038368601 -0.13482499 0.41913664 0.282096 0.18116926 -0.94212502 0.081463866
-0.061802991 -0.13050701 0.42414925 -0.068627588 0.24196343 -0.96785527 0.077931084
-0.11982782 -0.11661317 0.45292485 -0.3662782 0.43608007 -0.82199425 0.053558152
0.020426493 -0.080498062 0.57225764 0.43645915 0.89971507 -0.0040274472 0.077375665
0.017596722 -0.082967021 0.52428651 0.58290738 0.75688481 -0.29554081 0.072300792
-0.052294113 -0.086796097 0.43144572 0.090900593 0.71952486 -0.68849182 0.09191259
-0.077238217 -0.08229965 0.44990361 -0.072674252 0.83670831 -0.54280543 0.079161234
-0.051673267 -0.14200187 0.42273605 0.058734145 0.1355768 -0.98902434 0.070050418
-0.055175766 -0.14060709 0.42263561 3.4902987e-06 0.14582743 -0.98931009 0.066770554
-0.084402137 -0.10463558 0.43924609 -0.25025487 0.51890767 -0.81737834 0.07356485
-0.1744656 -0.083432265 0.49018312 -0.37094769 0.81412727 -0.44676 0.070406891
-0.17687236 -0.08647 0.48630771 -0.41249683 0.74510229 -0.52408862 0.070553437
-0.20190825 -0.088922493 0.5033595 -0.58171833 0.72368509 -0.37132689 0.10700816
-0.18331248 -0.1064805 0.48215887 -0.52488542 0.43499002 -0.73162764 0.073934801
-0.17907099 -0.098808348 0.48254359 -0.475582 0.56443048 -0.67471474 0.074762911
-0.21736151 -0.11144086 0.50307536 -0.82672495 0.38907269 -0.4063845 0.11240895
-0.14913325 -0.096713059 0.46955919 -0.33509487 0.60005897 -0.72638881 0.071340472
-0.15397054 -0.087182209 0.4754771 -0.27607664 0.72491467 -0.63109457 0.072779357
-0.20181336 -0.1000063 0.49338859 -0.58623123 0.57033122 -0.57537413 0.096307851
-0.18710832 -0.1082601 0.48410711 -0.54431272 0.4279719 -0.72150105 0.078479126
-0.21935312 -0.12467071 0.5021956 -0.86519682 0.2195957 -0.45079055 0.091530174
-0.22572106 -0.23745184 0.50713086 -0.88888013 0.0067558368 -0.45809007 0.061399668
-0.18316014 -0.11619927 0.48230609 -0.53692144 0.36603236 -0.76008922 0.068019204
-0.20823525 -0.13998885 0.49441704 -0.75438863 0.14487231 -0.64024204 0.065645769
-0.168999 -0.09368103 0.48084766 -0.39648575 0.63001251 -0.66774499 0.070345491
-0.21231911 -0.17361683 0.4998599 -0.80466491 -0.0071872231 -0.59368575 0.053150855
-0.21144122 -0.12689078 0.49771371 -0.79581785 0.2272529 -0.56127536 0.085591704
-0.21689934 -0.1568052 0.50312066 -0.85614496 0.013248863 -0.5165658 0.062690705
-0.042794541 -0.0996475 0.42109403 0.22638138 0.51274663 -0.82815593 0.10372037
-0.17451286 -0.07985919 0.54638731 -0.31707036 0.94796872 0.028664466 0.047718201
-0.17465557 -0.11136526 0.47819746 -0.48084712 0.41796032 -0.77077568 0.067021705
-0.19086538 -0.082605086 0.51060867 -0.42527017 0.87226802 -0.24144123 0.079686373
-0.19592007 -0.11180989 0.48760027 -0.60022527 0.38706288 -0.69993705 0.078245133
-0.19048887 -0.087174743 0.49242252 -0.4893291 0.71140522 -0.50444001 0.0822329
-0.061244741 -0.0831898 0.44475865 0.031019434 0.81522453 -0.57831371 0.079842411
-0.053242251 -0.083062507 0.44424459 0.096310645 0.81457102 -0.57201254 0.079101034
-0.062482666 -0.08877518 0.4337194 0.0027176253 0.71140075 -0.70278132 0.087342247
-0.039113246 -0.13341124 0.41867733 0.25551981 0.18611763 -0.94872016 0.080068626
-0.036618859 -0.14457163 0.42131421 0.36740503 0.088536844 -0.92583734 0.070394233
-0.15961827 -0.09605059 0.47590145 -0.35071623 0.60667229 -0.71340525 0.068221726
-0.20944537 -0.087961197 0.50036627 -0.62517971 0.67284799 -0.39550713 0.097302735
-0.21790907 -0.14025396 0.50023812 -0.85753483 0.12264442 -0.49959224 0.074443452
-0.22046566 -0.098593116 0.51134151 -0.79681927 0.54497528 -0.26092345 0.10986331
-0.065124691 -0.10923863 0.42859906 -0.05781205 0.45775473 -0.88719696 0.09439525
-0.21532884 -0.19861107 0.50249916 -0.8052668 0.034350455 -0.59191674 0.056151535
-0.17725775 -0.25339004 0.47636661 -0.56010556 0.041511692 -0.82738054 0.012319051
-0.10852451 -0.14417928 0.44599912 -0.39500141 0.17751552 -0.90136683 0.016013607
-0.038948562 -0.1024078 0.42044717 0.25220495 0.49033511 -0.83424473 0.10432079
-0.051593222 -0.08641348 0.43404153 0.099094398 0.72937864 -0.6768952 0.090317778
-0.019922016 -0.082533203 0.48370868 0.35311678 0.89132297 -0.28434473 0.062537283
-0.048532404 -0.079737753 0.46561429 0.086239778 0.91799498 -0.38710192 0.059289623
-0.12755708 -0.092731856 0.4592903 -0.29656482 0.64505637 -0.7042383 0.067509264
-0.0067109554 -0.079850316 0.52230847 0.28144675 0.93798083 -0.20243445 0.062776215
-0.12443248 -0.085418373 0.45901626 -0.2875118 0.72355443 -0.62753958 0.068780296
-0.14530975 -0.079991959 0.59815592 -0.2872023 0.95087147 0.11557776 0.050235633
-0.18324097 -0.080599353 0.54378432 -0.39213833 0.91930532 0.033244215 0.061779033
-0.10443161 -0.079221144 0.49359575 -0.13396876 0.96385384 -0.23029992 0.037557621
-0.059729286 -0.085162818 0.43820265 0.03725671 0.77097654 -0.63577288 0.083274476
-0.031382613 -0.080518171 0.48022673 0.23856813 0.93646336 -0.25714114 0.06164594
-0.15868129 -0.082676373 0.62823421 -0.50373799 0.82577598 0.25365752 0.076689675
-0.13296878 -0.2509692 0.69743741 -0.35597706 0.0030355798 0.93448973 0.061774671
-0.18805271 -0.24731879 0.60669279 -0.90350312 0.033563137 0.42726535 0.00011353282
-0.22095793 -0.1154293 0.52171826 -0.93310064 0.33107603 -0.14039901 0.10011742
-0.15216157 -0.079515412 0.5114637 -0.17999297 0.96642858 -0.18335308 0.035084687
-0.018871687 -0.077915423 0.56523317 0.10076121 0.99473321 -0.018785521 0.0072319969
-0.13125008 -0.07910639 0.52258152 -0.099778906 0.98842204 -0.11430693 0.01733439
-0.16098669 -0.084882997 0.48315033 -0.2977618 0.819296 -0.48999193 0.064202279
-0.15230207 -0.086838268 0.47558936 -0.27853689 0.73034799 -0.62370586 0.072301552
-0.084111497 -0.078558713 0.52730328 -0.012726517 0.9995299 -0.027893104 0.0005606066
-0.065826721 -0.08100681 0.66452605 0.18443787 0.88737738 0.42254475 0.072507814
-0.17941822 -0.080022991 0.53156364 -0.35711047 0.93260324 -0.052184388 0.062532946
-0.0627276 -0.082137182 0.66700906 0.21246181 0.86509341 0.45439336 0.07628604
-0.09331692 -0.07994175 0.66516531 -0.011552199 0.9088102 0.41704988 0.07581909
-0.18816961 -0.080916524 0.53216797 -0.39652002 0.91710842 -0.041036181 0.068295978
-0.087616742 -0.077876315 0.61370897 -0.0011627454 0.99783808 0.065710343 0.0082853148
-0.16322872 -0.083960332 0.6374166 -0.5751313 0.74598789 0.33574697 0.074875534
-0.20211884 -0.15050547 0.57323438 -0.92705208 0.094580635 0.36280692 0.013644809
-0.19920154 -0.23344363 0.58186293 -0.9173997 0.024380121 0.39721951 0.00095077412
-0.19778989 -0.22898766 0.58375329 -0.91472262 0.020841457 0.40354446 0.00072626048
-0.22025225 -0.096094459 0.51898515 -0.80349499 0.58266586 -0.12205043 0.10571169
-0.19845474 -0.1278882 0.57791442 -0.86223257 0.31465232 0.39692423 0.045472782
-0.20554215 -0.15314348 0.56655723 -0.94163883 0.064605601 0.330367 0.015783824
-0.22182032 -0.11268881 0.50738895 -0.87903714 0.36741662 -0.30380717 0.10954725
-0.21534792 -0.10196278 0.5386883 -0.8330642 0.5512625 0.045975458 0.090176083
-0.16729686 -0.09060467 0.48015988 -0.37247163 0.69213301 -0.61823678 0.066826344
-0.19743189 -0.15083648 0.58338398 -0.90603417 0.10090972 0.41099793 0.010117281
-0.05569347 -0.077551797 0.58182925 0.003169714 0.99999142 -0.0026631325 0.00031178771
-0.18328603 -0.11646213 0.60709268 -0.81299639 0.40423161 0.41908687 0.063818477
-0.18874666 -0.099020615 0.59015381 -0.66782999 0.66915017 0.3259466 0.073049434
-0.16959149 -0.10548228 0.62840366 -0.77116233 0.46881777 0.43071863 0.069795907
-0.14423685 -0.18732582 0.68534052 -0.67234445 0.0064849239 0.74021 0.0474963
-0.19526209 -0.087929741 0.56815743 -0.58088487 0.78026503 0.23186018 0.068043493
-0.18955411 -0.14071696 0.59683609 -0.87926292 0.17556988 0.44280005 0.02023113
-0.1863645 -0.1855247 0.60684991 -0.89755034 0.031786561 0.43976477 3.9553837e-05
-0.022433607 -0.079904698 0.50316101 0.24547701 0.95193213 -0.18321085 0.053254329
-0.052524354 -0.081348747 0.4521763 0.082769118 0.84875792 -0.52226371 0.073462576
-0.018290171 -0.080760695 0.49468073 0.3053624 0.92493755 -0.22637227 0.057585984
-0.14440063 -0.080263197 0.50136566 -0.12807345 0.96305722 -0.23689246 0.037036426
-0.083930038 -0.078844935 0.49694866 -0.044198263 0.98639035 -0.15836851 0.019429738
-0.16672796 -0.080542348 0.50758004 -0.25186953 0.9399603 -0.23029605 0.048425619
-0.094945148 -0.07870274 0.52648276 -0.027826278 0.99882597 -0.039653439 0.0014661406
-0.0071082814 -0.081244946 0.5009473 0.42050302 0.865614 -0.27182627 0.067309245
-0.18750468 -0.082953319 0.49571612 -0.42210004 0.80783898 -0.41137305 0.075888395
-0.030899698 -0.078181855 0.540658 0.11118539 0.99031305 -0.083174199 0.024955928
-0.017619275 -0.079269707 0.51420963 0.23759685 0.95388973 -0.18341808 0.053241666
-0.13323247 -0.079128571 0.52880174 -0.095796615 0.9914676 -0.088402227 0.012087752
-0.0053898478 -0.078699648 0.54731232 0.2605502 0.95780587 -0.12133234 0.049201231
0.01446151 -0.080638826 0.53973734 0.4278104 0.88281405 -0.19395262 0.063224405
-0.090214975 -0.078652419 0.51985973 -0.028067678 0.99848473 -0.047333527 0.0019293161
-0.12855266 -0.079087526 0.51647747 -0.11379782 0.97904646 -0.16887285 0.030302174
-0.074313864 -0.14237198 0.42860615 -0.17560066 0.14344032 -0.97395551 0.053018641
-0.10169373 -0.078613482 0.5467242 -0.01918415 0.99977511 -0.0090400632 0.0001094895
-0.05024169 -0.07732062 0.59059656 0.012958486 0.99958217 0.025837854 0.0022233974
-0.19481131 -0.083195813 0.53844047 -0.49393228 0.86947781 0.0062572034 0.079770818
-0.1305085 -0.079127908 0.62634939 -0.27581638 0.94835418 0.15668379 0.045366269
-0.13249792 -0.084442347 0.6800189 -0.3552998 0.71213281 0.60549897 0.09626855
-0.10122722 -0.078308769 0.59086853 -0.046822716 0.99885988 0.0093073826 0.00091570884
-0.12152448 -0.078669637 0.64263272 -0.20407178 0.94346625 0.26120132 0.058043845
-0.16083348 -0.080303311 0.56783056 -0.28420386 0.95187026 0.11476581 0.044473
-0.092426024 -0.080178984 0.66765279 -0.0072790934 0.90203512 0.43160126 0.078161478
-0.12502718 -0.079100296 0.54800421 -0.058969814 0.99825698 -0.0023327495 0.0015306619
-0.13039792 -0.079230182 0.60305029 -0.19799313 0.97769517 0.070077814 0.032170534
-0.17962423 -0.084862843 0.60191512 -0.57525039 0.77562046 0.25980744 0.078367874
-0.15666704 -0.086274639 0.65707362 -0.6286869 0.62057972 0.46865085 0.07147415
0.0026540237 -0.081894927 0.6299966 0.33561286 0.85847157 0.38780218 0.078090847
-0.15786763 -0.087919809 0.65650493 -0.65462291 0.58646375 0.47700018 0.069840811
-0.1079746 -0.078558773 0.64551479 -0.11838676 0.95623142 0.26759312 0.058273215
-0.14052522 -0.1348891 0.68826538 -0.61767447 0.24516058 0.7472446 0.065832563
-0.20765297 -0.086075827 0.51662493 -0.59702235 0.78646171 -0.15824729 0.098503157
-0.16509219 -0.16027962 0.64723557 -0.85558951 0.046728544 0.51554143 0.0044508064
-0.21696332 -0.090584114 0.51282603 -0.7125029 0.65973312 -0.23893879 0.10557588
-0.15860073 -0.1330338 0.65838313 -0.79821593 0.24145234 0.55186242 0.037768628
-0.17408074 -0.13826585 0.62719083 -0.86499846 0.19409819 0.4627133 0.024355154
-0.17396525 -0.13644315 0.62727618 -0.85846192 0.20662215 0.46941507 0.027185382
-0.14610924 -0.24850491 0.68780959 -0.56039989 0.042285871 0.827142 0.061076675
-0.21914826 -0.098094054 0.52296668 -0.82297081 0.5617885 -0.084337279 0.103588
-0.22065333 -0.097401105 0.5152114 -0.81083381 0.54103398 -0.22322808 0.11097094
-0.14648689 -0.25225744 0.68732375 -0.5597685 0.047730867 0.82727325 0.059511125
-0.22124028 -0.10568632 0.52287817 -0.87318736 0.47649163 -0.10246773 0.10579929
-0.22116797 -0.19100219 0.52798206 -0.99338889 0.032758195 -0.11002434 0.069412865
-0.1614359 -0.14207821 0.65255678 -0.82943958 0.17622094 0.53007185 0.027461277
-0.12119887 -0.079493783 0.65719682 -0.20110796 0.91542113 0.34865427 0.071252078
-0.046698947 -0.077210039 0.61604494 0.088767231 0.98370886 0.15632397 0.025797592
-0.15996909 -0.080565438 0.58013034 -0.32833037 0.93415987 0.13980189 0.059037004
-0.21986182 -0.12915345 0.53213996 -0.97297823 0.23067351 -0.010150661 0.083418764
-0.051730048 -0.097424917 0.4236494 0.11899582 0.53749281 -0.83483016 0.10675185
-0.14052314 -0.079554565 0.55538017 -0.13558288 0.99009162 0.036549043 0.015996739
-0.16522922 -0.086584829 0.48266405 -0.34260136 0.77383542 -0.53273171 0.06881208
-0.18910007 -0.083061561 0.56667483 -0.48201889 0.8560546 0.18662332 0.066481471
-0.19841948 -0.1188414 0.57682496 -0.82356399 0.41765326 0.38380748 0.053509343
-0.17368619 -0.079668462 0.53632867 -0.29614222 0.95492077 -0.020642731 0.050183382
-0.023120049 -0.07940051 0.51130974 0.20674121 0.96498483 -0.16143848 0.048679315
-0.17616536 -0.12425408 0.62218857 -0.83647287 0.30540395 0.45501828 0.050366968
-0.19448559 -0.1281036 0.58602041 -0.84948772 0.32404917 0.41636842 0.047571223
-0.20568907 -0.13682395 0.56455177 -0.92798287 0.18094315 0.32574132 0.032351021
-0.16123144 -0.079566084 0.5190841 -0.20504242 0.96589023 -0.1581569 0.038389977
-0.15264641 -0.24612001 0.67768866 -0.67172658 0.027905039 0.74027336 0.045752749
-0.049473651 -0.080736957 0.66261911 0.24812852 0.83239788 0.49552608 0.073680818
0.016860288 -0.081092611 0.54919404 0.40277719 0.90159494 -0.15778834 0.053103916
-0.027873067 -0.081398517 0.47400269 0.30167609 0.89494878 -0.32872215 0.072209157
-0.036649115 -0.1116479 0.42030913 0.29803482 0.39100578 -0.87079829 0.096454442
-0.2162216 -0.095005639 0.52937913 -0.77915716 0.62592602 -0.033626657 0.099226251
-0.1301852 -0.14674659 0.70124829 -0.43315268 0.1103032 0.89454567 0.057933003
-0.082646735 -0.077927642 0.55047667 -0.0083528617 0.99990529 -0.010933958 6.3681495e-05
-0.16683878 -0.098144665 0.6364013 -0.71763802 0.55529803 0.42028525 0.071146183
-0.18843965 -0.14627568 0.59986687 -0.886253 0.15649056 0.43596587 0.017447388
-0.17783222 -0.14007169 0.62042868 -0.87084407 0.1778484 0.45825818 0.021846287
-0.17662616 -0.19987862 0.62851954 -0.89175415 0.036395241 0.45105422 0.00025928137
-0.080161281 -0.10839118 0.43808022 -0.22967832 0.50686508 -0.83086443 0.079766914
-0.03817815 -0.099199399 0.4159503 0.28786108 0.48962542 -0.8230449 0.10337287
-0.21878159 -0.11123241 0.53324407 -0.91091692 0.41245353 -0.010599115 0.096718945
-0.14169154 -0.082365952 0.6574527 -0.44851375 0.79199541 0.41422066 0.084796458
-0.087641239 -0.078177027 0.55701935 -0.013569712 0.99988407 -0.00690545 6.7705361e-05
-0.081097618 -0.078666389 0.52723843 -0.0076866345 0.99964279 -0.02559647 0.00042675904
-0.042817414 -0.077492036 0.58441174 0.027188877 0.99947727 0.017489651 0.0021868509
0.034120902 -0.082904145 0.57753062 0.58294821 0.81250334 -0.0030993156 0.1057911
0.010001553 -0.080326505 0.53746396 0.38655519 0.90453899 -0.17995633 0.064982951
0.050473597 -0.087294005 0.61170906 0.76781875 0.59953231 0.22586589 0.12668419
-0.046109878 -0.077698916 0.63628435 0.15061991 0.95033133 0.27236742 0.050682757
-0.14411719 -0.080490775 0.60654461 -0.33620343 0.93057865 0.14488208 0.056155685
-0.048225217 -0.07681483 0.62724084 0.12187577 0.96886796 0.21550213 0.040081311
-0.12975131 -0.07954783 0.57806373 -0.1304394 0.99017501 0.050388701 0.017495506
-0.085980102 -0.077587776 0.61782908 0.0045613931 0.99697334 0.077610716 0.0097551337
-0.1066459 -0.079225354 0.67615342 -0.12103874 0.83925688 0.530092 0.091990687
-0.17465118 -0.088925697 0.61286187 -0.61162698 0.73080081 0.30305561 0.081908606
-0.12867627 -0.11381942 0.70400012 -0.32677352 0.34763297 0.87884605 0.087260574
-0.20492154 -0.085282587 0.52373487 -0.59277463 0.79876775 -0.10289916 0.094108336
-0.17752305 -0.17333737 0.62511587 -0.89147711 0.037990361 0.45147026 0.00031437707
-0.21614167 -0.22690551 0.54804671 -0.98804653 0.016521325 0.15326841 0.042064454
-0.15724237 -0.18490063 0.66659456 -0.78051549 0.013872899 0.62498242 0.025706852
-0.16210954 -0.15739849 0.65279752 -0.84498614 0.047403164 0.53268313 0.0084453812
-0.16680543 -0.24974221 0.65294808 -0.84135193 0.051171839 0.53805977 0.010302133
-0.17834781 -0.17711209 0.62351888 -0.89187086 0.037662059 0.45071939 0.00029958022
-0.17721984 -0.23360048 0.63103116 -0.88890946 0.034197073 0.45680457 0.00061072141
-0.15152255 -0.26456648 0.68044019 -0.65209949 0.028703989 0.75758982 0.049155165
-0.16812238 -0.24687044 0.64993292 -0.84455216 0.04808858 0.53330964 0.0089931935
-0.1411588 -0.16966899 0.68897521 -0.66230875 0.013092938 0.74911672 0.054369852
-0.15735923 -0.24705139 0.6711126 -0.72216183 0.027186675 0.69118977 0.043389793
-0.15597031 -0.33034569 0.67799276 -0.69945413 -0.13936701 0.70095712 0.069491483
-0.20199414 -0.21460602 0.57508254 -0.92895061 0.029574273 0.36902052 0.0070586102
-0.16260184 -0.27653787 0.66266435 -0.78711849 0.055854738 0.61426771 0.025071699
-0.14785843 -0.28670436 0.6867274 -0.5847919 -0.0061932863 0.81115973 0.059824869
-0.17432849 -0.16360001 0.63060778 -0.88630831 0.054118112 0.45992264 0.00055223529
-0.18277311 -0.11429718 0.60791135 -0.80876708 0.42397368 0.40760538 0.065865651
-0.17814219 -0.1299473 0.61808705 -0.85445476 0.25714415 0.45142436 0.040171422
-0.10925611 -0.080830537 0.4595449 -0.21153039 0.83527207 -0.50751895 0.073228359
-0.16105741 -0.081787147 0.61244905 -0.45020747 0.8656553 0.2189844 0.072345287
-0.18849713 -0.26023647 0.60774165 -0.90353137 0.034701411 0.42711473 0.00011371779
-0.17551832 -0.16004166 0.62734133 -0.88734299 0.067525156 0.45613912 0.0010787853
-0.22092083 -0.097262718 0.50909966 -0.78055137 0.55405784 -0.28941214 0.10613515
-0.17317942 -0.21781647 0.63748592 -0.87402666 0.031164428 0.48487744 0.0019468205
-0.13177885 -0.091195397 0.69415742 -0.34558862 0.54794657 0.76178938 0.093374461
-0.19151722 -0.086756893 0.57429606 -0.55364984 0.79458272 0.24921931 0.069278494
-0.14921264 -0.089388192 0.67581004 -0.64340305 0.50867504 0.57208574 0.074114554
-0.18263042 -0.19777381 0.61563396 -0.89697796 0.033877708 0.44077525 0.00010283873
-0.18197544 -0.22157936 0.62028986 -0.89903277 0.034149967 0.43654758 0.00013785048
-0.14793824 -0.26527473 0.68639421 -0.59129065 0.00053424796 0.80645835 0.05717561
-0.21945053 -0.30366173 0.54275542 -0.99838936 -0.044077054 0.035718448 0.042622577
-0.19969982 -0.14153832 0.57731104 -0.91129041 0.17023055 0.37492841 0.02363931
0.013065388 -0.079922058 0.62453616 0.36190882 0.86555332 0.3461782 0.090609089
-0.095177919 -0.079409853 0.47543862 -0.14102218 0.93041408 -0.33829337 0.054357439
-0.21891077 -0.22979555 0.54179245 -0.9922812 0.026959155 0.12104232 0.049816679
-0.16551408 -0.1739513 0.64854503 -0.84234434 0.04799857 0.53679812 0.0068356656
-0.14819512 -0.30123538 0.68818694 -0.59378743 0.010986151 0.80454695 0.049590949
-0.080009401 -0.077716179 0.60152292 -0.004667182 0.99942344 0.033629432 0.0023866943
-0.097217076 -0.11334546 0.4432182 -0.33569893 0.4674958 -0.8177737 0.05894047
-0.22163877 -0.16858983 0.51207554 -0.92826784 0.0024599684 -0.37190416 0.063385457
-0.1323805 -0.098874018 0.69879103 -0.35238069 0.48196051 0.80221069 0.091704354
-0.13636063 -0.31107074 0.69849652 -0.36204806 0.015463508 0.93203121 0.050162915
-0.13212177 -0.089800477 0.46181655 -0.27711266 0.6954999 -0.66293919 0.069687851
-0.16327436 -0.33391461 0.66543078 -0.80561543 -0.1831193 0.56342804 0.054137081
-0.21672207 -0.2811332 0.54878914 -0.98013371 -0.086415894 0.17852239 0.039769907
-0.22227441 -0.18395548 0.52380425 -0.97615469 0.01441286 -0.21659715 0.070413806
-0.16679499 -0.21903151 0.47241193 -0.49294278 0.04031352 -0.86912733 0.005786669
-0.12340189 -0.079006545 0.55925405 -0.062239621 0.99801594 0.0095042894 0.001841511
0.035872329 -0.082026184 0.60239577 0.59606618 0.7817266 0.18332644 0.12040561
-0.0063352352 -0.078371078 0.55849022 0.23665166 0.96782625 -0.085489579 0.038623203
-0.14591737 -0.08047244 0.60422426 -0.32728222 0.93495387 0.13692166 0.055446371
-0.13800901 -0.079832859 0.57000059 -0.16819379 0.98426336 0.054189779 0.02614289
-0.017187972 -0.077163614 0.6028927 0.1628771 0.97680527 0.13900554 0.026060037
-0.12369514 -0.081409603 0.67517066 -0.25656727 0.79784864 0.54553717 0.096177712
-0.10400516 -0.078340612 0.59547204 -0.064829566 0.9976626 0.021597443 0.0029332512
-0.16428597 -0.079820678 0.55998194 -0.2680403 0.95825773 0.099481404 0.040118109
-0.1417581 -0.083779484 0.67011195 -0.48975262 0.70218772 0.51679295 0.08822152
-0.098910362 -0.090039283 0.69243932 -0.0055340421 0.63935846 0.76888883 0.092015833
-0.011427416 -0.077839278 0.61781073 0.20069578 0.95453489 0.22041872 0.0440639
-0.17718585 -0.086868562 0.60883588 -0.61587977 0.73186797 0.2916528 0.077172175
-0.135409 -0.079364277 0.58282262 -0.16863832 0.98418254 0.054277018 0.026572114
-0.19086662 -0.08635544 0.57627189 -0.55659133 0.78991491 0.2573722 0.068340965
-0.16722474 -0.16011433 0.64308655 -0.86170006 0.054623727 0.50446928 0.0036332011
-0.16885364 -0.30927846 0.65405911 -0.83800888 -0.036234166 0.54445219 0.01543357
-0.16915925 -0.30428359 0.65312755 -0.83235395 0.0059526078 0.55421245 0.011614198
-0.13789994 -0.13530438 0.69199479 -0.57290912 0.23582017 0.78496116 0.068269156
-0.20249018 -0.10397767 0.56331295 -0.76508874 0.59549534 0.24499932 0.071152449
-0.15847483 -0.18089037 0.66294384 -0.80238396 0.027088426 0.59619308 0.019064246
-0.15401457 -0.13054845 0.66729337 -0.76087731 0.26943421 0.59031421 0.043778222
-0.16859767 -0.15016125 0.63946557 -0.86765534 0.10857556 0.48516545 0.0085441275
-0.20939909 -0.11135994 0.55280763 -0.86157084 0.4761115 0.17610654 0.071714193
-0.16031392 -0.24787118 0.66606724 -0.76110601 0.0083418088 0.64857388 0.03207152
-0.16015276 -0.28333268 0.66729939 -0.76685053 0.043463245 0.64035249 0.030503567
-0.22404161 -0.23306228 0.52664238 -0.99450475 0.0030710327 -0.10464634 0.05936113
-0.16745028 -0.10695473 0.6275512 -0.75240839 0.51011342 0.41673258 0.07843139
-0.15096554 -0.26482561 0.68141419 -0.6286453 0.017940681 0.77748525 0.049437273
-0.13292645 -0.16760743 0.69850564 -0.49665359 0.03125529 0.86738586 0.062009446
-0.05708798 -0.077980302 0.56388062 0.0043677883 0.99987358 -0.015289898 0.00019094524
-0.21464016 -0.2299331 0.55058789 -0.98422265 0.022492459 0.1754989 0.039947499
-0.21618085 -0.23691987 0.54851121 -0.98530436 0.0038936608 0.17076343 0.040670555
-0.16129608 -0.31823084 0.66805893 -0.76061314 -0.086882278 0.64336544 0.039014224
0.044742551 -0.081802107 0.59606874 0.66622835 0.734725 0.12774533 0.12258112
-0.1782435 -0.27886462 0.63208407 -0.88930506 0.040703297 0.45549947 0.00071440206
-0.15645015 -0.16677012 0.66571277 -0.80934018 0.025828909 0.58677197 0.017858863
-0.16902034 -0.1772235 0.64262909 -0.86357194 0.04871688 0.5018667 0.0024933827
-0.1692722 -0.095090412 0.63144362 -0.68624967 0.62279099 0.37575623 0.076732457
-0.21856144 -0.10174122 0.53127384 -0.84854549 0.52858675 -0.023803851 0.097814493
-0.17945774 -0.26727107 0.62821496 -0.89059675 0.039387293 0.45308512 0.00064040476
0.047105052 -0.080504157 0.59927619 0.66293007 0.73541439 0.14031866 0.12393574
-0.17389525 -0.25188732 0.63985336 -0.8689453 0.042854354 0.49304929 0.0031662479
-0.13180855 -0.15384874 0.69935453 -0.44026166 0.062906228 0.89566314 0.057839181
-0.19467899 -0.1466559 0.58746541 -0.89672107 0.13095571 0.42277896 0.012210818
-0.1067932 -0.08704865 0.69653213 -0.089175656 0.59742624 0.79695016 0.091935441
-0.17602861 -0.12333522 0.62246591 -0.83738106 0.30472007 0.45380464 0.050210319
-0.15203145 -0.10910734 0.66708785 -0.71268147 0.38760564 0.58467674 0.059583358
-0.21299307 -0.089137636 0.52845651 -0.70666414 0.70505083 -0.059406668 0.098798595
-0.15005623 -0.25003558 0.68201262 -0.62760395 0.045823753 0.777183 0.0523366
-0.14903688 -0.30698797 0.68677264 -0.59723115 0.01650879 0.80189925 0.04807556
-0.13813747 -0.28765586 0.69739747 -0.42654112 -0.0067994352 0.90444261 0.05652478
-0.15086988 -0.089529522 0.66864038 -0.64021778 0.54616648 0.54020673 0.075874589
-0.19378746 -0.13516876 0.58801663 -0.88047844 0.22752708 0.41591957 0.028639462
-0.14692868 -0.17037967 0.68117529 -0.70926452 0.0013866893 0.70494109 0.046213217
-0.15715352 -0.26266399 0.67109931 -0.74522597 0.043493956 0.6653921 0.033500705
-0.2198914 -0.25738963 0.5375703 -0.99597412 -0.010046748 0.08907602 0.06031787
-0.1350347 -0.38414425 0.70911419 -0.34995389 -0.53758687 0.76715887 0.14664918
-0.13477185 -0.095012553 0.69645637 -0.37677574 0.50409055 0.77713102 0.090439878
-0.1800264 -0.099271066 0.48287654 -0.48648405 0.54839969 -0.6801405 0.073956341
-0.15279728 -0.172335 0.67241919 -0.753281 0.013844023 0.65755314 0.036740635
-0.14476264 -0.348809 0.69241244 -0.54960322 -0.22041932 0.80582356 0.11525495
-0.13101967 -0.31680882 0.70407146 -0.24778005 -0.0029127977 0.96881193 0.05023738
-0.065624014 -0.07850872 0.5168997 0.032707553 0.99798763 -0.054321911 0.0032029324
-0.1057971 -0.086961068 0.69627494 -0.070823461 0.59451634 0.8009584 0.090802595
-0.15325955 -0.085330755 0.65957892 -0.59154427 0.65439439 0.47100249 0.079585917
-0.11079675 -0.3682515 0.70152837 0.055486269 -0.32053015 0.94561183 0.13453539
-0.12970753 -0.23893037 0.70162058 -0.35748085 -0.011123792 0.93385422 0.058703117
-0.11210763 -0.28957486 0.70127887 -0.044871461 -0.017835688 0.9988336 0.054011162
-0.071160808 -0.082773797 0.67270178 0.16486065 0.85976267 0.48335198 0.080017455
-0.13500586 -0.14495216 0.69788033 -0.49535531 0.12209512 0.86006743 0.056960791
-0.071065843 -0.24133761 0.68143421 0.32283857 0.011404083 0.94638532 0.011494501
-0.071398489 -0.15214522 0.68273836 0.33237064 0.06352704 0.9410069 0.01512876
-0.029090514 -0.3344276 0.6647799 0.44805416 -0.19308029 0.87290752 0.0329795
-0.14761217 -0.079627715 0.52956736 -0.15101609 0.9850142 -0.083313935 0.019450027
0.040441759 -0.14715981 0.62682867 0.80010283 0.078589678 0.59469253 0.039949302
-0.072878934 -0.30259946 0.68509406 0.31816775 0.0037281709 0.94802713 0.0083554601
-0.090766586 -0.20597672 0.69161415 0.1753491 -0.0022452886 0.98450375 0.049195435
-0.12817973 -0.10656619 0.69788074 -0.34311152 0.44411036 0.82767171 0.093032509
-0.017260052 -0.35941529 0.65823895 0.41796076 -0.43810698 0.79584616 0.069472618
0.032631207 -0.179289 0.63316149 0.73778647 0.021302305 0.67469788 0.038808879
-0.17093258 -0.084499836 0.62635231 -0.60798621 0.72772074 0.31745112 0.085411623
-0.12343569 -0.1457534 0.70213163 -0.34632921 0.12787442 0.92935687 0.06079188
0.019851983 -0.36033058 0.63975447 0.57862419 -0.46329188 0.67123371 0.080014944
-0.11547057 -0.23858947 0.70039374 -0.161663 -0.040406834 0.98601842 0.057808869
-0.085958652 -0.1940452 0.6905309 0.24402565 0.027475504 0.96937948 0.033998981
0.04336616 -0.28870773 0.62681592 0.79726064 -0.01593939 0.60342473 0.041259252
-0.042029064 -0.13725635 0.66700828 0.42758256 0.20153707 0.88122416 0.026558468
-0.044335928 -0.090085067 0.66303647 0.2847845 0.78563756 0.54924631 0.067709401
-0.022515558 -0.21680726 0.65830415 0.43716776 0.0064795418 0.89935666 0.0003387309
0.03571165 -0.30875117 0.63131672 0.72823673 -0.046862174 0.68372166 0.035999317
-0.071883835 -0.24648173 0.68181348 0.30945086 0.0039596292 0.95090711 0.012533127
-0.015777666 -0.323805 0.65836507 0.44370487 -0.15272452 0.88306355 0.025818376
-0.13233225 -0.22048579 0.70158148 -0.40146104 -0.050521366 0.91448164 0.055717878
0.023401383 -0.10399155 0.6339277 0.56457019 0.52994132 0.63278955 0.11628723
-0.071245261 -0.10843202 0.67916167 0.25993696 0.52176315 0.81252444 0.081897311
0.0042051543 -0.31390595 0.64896703 0.52070308 -0.059364263 0.85167146 0.013970493
-0.11502376 -0.15315813 0.70078224 -0.2628395 0.088734679 0.96075052 0.060021088
-0.026860796 -0.29781646 0.66378778 0.4330146 -0.0018526197 0.90138495 0.00087332388
-0.12077901 -0.18856148 0.70341438 -0.31392577 0.01904235 0.94925654 0.057989504
-0.12603427 -0.16370489 0.70233035 -0.4454996 0.03322823 0.89466536 0.063853607
-0.11224344 -0.16689792 0.70264757 -0.26239279 0.043494876 0.96398038 0.063099012
-0.094294719 -0.36559719 0.6958732 0.23810261 -0.30339789 0.92263585 0.11154386
-0.12115751 -0.16220838 0.70376182 -0.36471921 0.045069098 0.93002605 0.064280599
-0.074961931 -0.35732019 0.68605393 0.35529017 -0.26746786 0.89567286 0.074067116
-0.099391684 -0.29008064 0.69623661 0.090210959 -0.0079694409 0.9958908 0.034985043
-0.082672469 -0.22810298 0.68712294 0.23863831 -0.039730109 0.97029543 0.027191915
-0.095107295 -0.15764709 0.69256276 0.036467031 0.059194587 0.99758017 0.054222517
-0.10006568 -0.077919252 0.6324392 -0.047745805 0.98832136 0.14471048 0.025106093
-0.13004473 -0.12006371 0.70216161 -0.37569356 0.29959759 0.87698096 0.082468845
-0.10129846 -0.36515236 0.69892853 0.15713075 -0.28674507 0.94503289 0.12154254
-0.029665316 -0.33592215 0.66490424 0.44579357 -0.210728 0.86997807 0.03912776
-0.053257551 -0.31389084 0.67575771 0.42652661 -0.048435092 0.9031772 0.0086330781
-0.12819038 -0.096284889 0.69932592 -0.30067658 0.49716148 0.81389445 0.092450246
-0.12646888 -0.2107501 0.70188719 -0.36660486 -0.058852829 0.92851341 0.056818102
-0.059519891 -0.11217732 0.67439973 0.34116507 0.52564615 0.7792961 0.078873768
-0.12592694 -0.37687042 0.7124837 -0.17644814 -0.35121241 0.91951942 0.14419058
0.044408772 -0.25023779 0.62504095 0.88135546 0.0070716748 0.47240099 0.051707476
-0.037913177 -0.36932513 0.66486025 0.42394862 -0.53044868 0.73409253 0.070751414
-0.10507593 -0.078536458 0.60159016 -0.073369704 0.99692822 0.027405605 0.0040809526
0.036114346 -0.36074182 0.63223326 0.68859977 -0.40842384 0.59918308 0.092520244
-0.11532509 -0.08812815 0.69912624 -0.14341991 0.58056438 0.80148339 0.096020691
-0.12839508 -0.22797777 0.70260388 -0.37114048 -0.02775934 0.92816174 0.055641249
-0.17719716 -0.08397337 0.49780825 -0.37059686 0.85118669 -0.37167078 0.069533564
-0.1494751 -0.27938619 0.684448 -0.62239444 0.012884617 0.78259772 0.054381225
-0.044595674 -0.08365453 0.67041302 0.29237872 0.77239245 0.56384796 0.072862081
-0.052661512 -0.077409752 0.63924778 0.13683149 0.95138538 0.27594009 0.054888152
-0.025335101 -0.17575726 0.65848565 0.43008083 0.01303268 0.90269631 0.00019030101
-0.04441078 -0.23983297 0.66912258 0.42123482 0.023233412 0.90665394 0.00034026217
-0.019264108 -0.1377773 0.65638155 0.42914039 0.20196757 0.88036788 0.026704432
0.00069326261 -0.24952286 0.64835507 0.51986831 0.017293822 0.85407132 0.01007018
-0.12771837 -0.15927605 0.70250672 -0.45214978 0.041081522 0.89099544 0.059091542
-0.0053419704 -0.34381449 0.65396899 0.44583744 -0.25669509 0.85751766 0.042432215
-0.08383406 -0.20788056 0.68869108 0.25371626 -0.01406343 0.96717644 0.028135179
-0.11971939 -0.088347934 0.69897568 -0.2001399 0.57668108 0.7920751 0.096478805
-0.092544898 -0.24253668 0.69159591 0.1832827 -0.014148442 0.9829585 0.035168018
-0.0008496042 -0.17188887 0.6491015 0.51165432 0.02074616 0.85894096 0.0075849933
-0.093995266 -0.2105104 0.6928854 0.12932599 -0.025878886 0.99126434 0.051885962
-0.048466906 -0.079643764 0.65940559 0.23236154 0.85468769 0.46423811 0.070217319
-0.05924774 -0.098760404 0.6723845 0.29869279 0.70875525 0.63909978 0.079581708
-0.1149497 -0.22478394 0.7002247 -0.17378278 -0.043536745 0.98382109 0.062885709
-0.12795447 -0.24407709 0.70122308 -0.29681495 -0.025518043 0.95459402 0.058631506
-0.19244614 -0.083582602 0.50531971 -0.4345578 0.84471977 -0.31242308 0.081611685
-0.12373825 -0.078640021 0.64389932 -0.22925773 0.93637305 0.2657941 0.060361419
-0.018302774 -0.083349675 0.65634847 0.29033574 0.7794531 0.55511987 0.066327229
-0.10766637 -0.080303647 0.6899811 -0.076916449 0.72270942 0.68685871 0.096700266
-0.091288358 -0.30750504 0.69380653 0.18972358 0.0093435189 0.98179311 0.023770841
-0.036756884 -0.079898193 0.6641894 0.27678719 0.79917675 0.53357792 0.065423526
-0.11532373 -0.29148614 0.70011884 -0.072994895 -0.0054102847 0.99731767 0.052893858
-0.10176384 -0.081559993 0.69378924 -0.02269548 0.68201661 0.73098445 0.090540238
-0.20741029 -0.087014548 0.52427173 -0.636603 0.76631761 -0.086567096 0.098290727
0.028741397 -0.18614659 0.635517 0.70236492 0.014841421 0.71166241 0.03252032
-0.0096920021 -0.07921052 0.64976317 0.25270864 0.81561041 0.5204978 0.059062995
0.0096175745 -0.34832197 0.64624196 0.52186567 -0.29346615 0.80095804 0.052650835
-0.090570442 -0.24457368 0.69062304 0.19388352 -0.010850998 0.98096448 0.034316346
-0.039000258 -0.23179451 0.66605645 0.42449063 0.016747968 0.90527743 0.00016165874
-0.088710502 -0.33790535 0.69330502 0.2522366 -0.087871283 0.96366769 0.065078534
-0.063311622 -0.10302257 0.67528558 0.29374963 0.63019323 0.71872646 0.085039675
-0.096394256 -0.1178227 0.69171029 0.010485465 0.37616551 0.92649317 0.088401005
-0.17691587 -0.082664959 0.49658236 -0.36835974 0.85015988 -0.37621713 0.068407305
-0.064935848 -0.1364821 0.67831159 0.37388283 0.18110304 0.90962267 0.030188143
-0.035174578 -0.078690231 0.65221441 0.23685171 0.86849421 0.43545276 0.067206115
-0.077483863 -0.36747661 0.68680984 0.34485057 -0.38891873 0.85429525 0.09313184
-0.12290993 -0.14097272 0.70109546 -0.31222987 0.16010351 0.93641835 0.066041909
-0.087343536 -0.084395453 0.6850425 0.0586574 0.73873818 0.67143524 0.087667465
-0.096198775 -0.11261062 0.69071144 0.0077354866 0.43800923 0.89893711 0.091052629
0.022454871 -0.21096541 0.63829327 0.65036601 -0.022792293 0.75927889 0.036612269
-0.12556492 -0.2986851 0.7024585 -0.21986501 0.033159576 0.97496659 0.043876637
-0.12443615 -0.10467147 0.69965875 -0.29558134 0.44072384 0.84758139 0.094869532
-0.078330129 -0.18292902 0.68623978 0.29459766 0.030175248 0.95514488 0.019902974
-0.11841584 -0.20307368 0.69983119 -0.28857306 -0.031247605 0.9569478 0.054960482
-0.070677429 -0.12775718 0.68074572 0.33575118 0.26126689 0.9049921 0.047640864
-0.042720247 -0.07933715 0.49819067 0.13379121 0.97940356 -0.1512237 0.028579853
-0.089808956 -0.077864565 0.62311864 -0.0027458209 0.99541587 0.095602028 0.012834508
-0.072800845 -0.13847625 0.68226302 0.31918573 0.14742406 0.93615526 0.028892506
-0.12435172 -0.25417674 0.70051634 -0.26367384 -0.0089994594 0.96456999 0.065238796
-0.11026945 -0.23255681 0.69841886 -0.089557283 -0.051155195 0.99466705 0.063002937
-0.029214209 -0.2267358 0.66125107 0.43011516 0.011932348 0.90269518 0.00018302603
-0.017289476 -0.082960337 0.65116394 0.24244481 0.81735122 0.52264476 0.063917577
-0.045214996 -0.093753867 0.66506475 0.29490107 0.76903892 0.56710893 0.0697117
-0.070851699 -0.22126569 0.68222368 0.3446292 -0.0053015086 0.93872392 0.0080794627
-0.13162132 -0.12971503 0.7026453 -0.413802 0.22419971 0.88232785 0.073837958
-0.094038315 -0.19763428 0.69321203 0.11657114 -0.005601021 0.99316657 0.04816607
-0.12526362 -0.13655786 0.70136571 -0.3313868 0.17901245 0.92635709 0.068455003
-0.10005953 -0.33163723 0.69704479 0.16790085 -0.041965339 0.98491031 0.065931819
-0.19293475 -0.086298987 0.57466543 -0.57498425 0.77676708 0.25695539 0.068172619
-0.15642944 -0.081075557 0.49613252 -0.20318428 0.93959308 -0.27546507 0.04535231
-0.13999206 -0.07902953 0.5097478 -0.11659733 0.97251427 -0.20154667 0.033780374
-0.040708192 -0.13499154 0.66632354 0.42181364 0.2182318 0.88002729 0.028186398
-0.024928248 -0.21940778 0.65906256 0.43363258 0.0090144668 0.90104473 0.00020481762
0.050838292 -0.33947736 0.62276578 0.81374973 -0.22141296 0.5373897 0.064811103
0.01378253 -0.27754661 0.64313126 0.5776121 -0.0081772022 0.81627041 0.019891027
-0.10362739 -0.36538759 0.69982249 0.15151039 -0.28056857 0.94780058 0.12215735
-0.014694515 -0.077853009 0.5618273 0.12731802 0.99096072 -0.042271938 0.016626094
-0.099200509 -0.37530211 0.69416547 0.19304045 -0.45881802 0.86730707 0.13574193
0.053598192 -0.27822453 0.61289781 0.94178724 0.0021571806 0.3362025 0.058349553
0.027968498 -0.08056736 0.57677042 0.48305306 0.87527627 0.023474997 0.090670027
0.04415812 -0.083836414 0.61169845 0.6885407 0.6841054 0.24064806 0.12869729
0.040612154 -0.22702539 0.62724751 0.80386543 -0.0062287846 0.5947786 0.052439373
0.021895435 -0.21059875 0.52251071 0.90107691 0.019753907 -0.43320912 0.00011557861
0.018951794 -0.081332654 0.54635227 0.44178668 0.87832302 -0.18268336 0.055455524
0.053907901 -0.21191402 0.60492057 0.99296695 0.0056670383 0.11825611 0.050484061
0.051385298 -0.098700687 0.60843927 0.8408131 0.51616001 0.16313197 0.12863347
0.011299754 -0.16982403 0.50417489 0.90194982 0.019490495 -0.43140092 0.00021507147
0.016481055 -0.17006925 0.51530409 0.89960498 0.019052556 -0.43628874 0.00021630446
0.050387379 -0.085092343 0.60998714 0.76216924 0.61069715 0.21481855 0.12652689
0.053485811 -0.090772666 0.61577922 0.81107259 0.517865 0.27198717 0.12735811
0.0027554231 -0.084772281 0.49170819 0.58769035 0.72983885 -0.34922114 0.070765749
0.047496632 -0.12693498 0.57436955 0.95503944 0.20027702 -0.21860644 0.070719667
0.054140858 -0.3116149 0.5951314 0.99457771 -0.059661109 0.085180357 0.050931718
0.043073129 -0.35407248 0.56542581 0.89185059 -0.36341748 -0.2693145 0.065088883
0.054487094 -0.20924737 0.598867 0.99891311 0.013881653 0.044495836 0.040607087
0.020537093 -0.32463184 0.51929915 0.88280374 -0.20179442 -0.42418927 0.026829977
0.051518921 -0.15344009 0.6006974 0.9840548 0.035578422 0.17427087 0.037612427
-0.012899188 -0.081666976 0.48975229 0.39003098 0.8781659 -0.27694863 0.058582999
-0.02621517 -0.080322482 0.48979408 0.26071668 0.93939012 -0.22265026 0.053790942
0.036149453 -0.082194321 0.58488572 0.60654622 0.79112554 0.078879558 0.11450526
0.044687007 -0.15858029 0.57073426 0.97396767 0.012648207 -0.22633398 0.023079066
0.032123271 -0.17222354 0.54596651 0.92315042 0.019031771 -0.38396764 0.0032058596
0.010297386 -0.13176353 0.50349641 0.8867656 0.19969715 -0.41685468 0.036203783
0.025162006 -0.23635845 0.52898508 0.90415245 0.015085768 -0.42694366 0.00027093064
0.053112734 -0.24128412 0.59516501 0.99865144 0.042202353 0.030235726 0.058255624
0.031332672 -0.20834476 0.54200584 0.9198584 0.023113638 -0.39156893 0.0024248976
0.045169875 -0.23497844 0.57055187 0.98219317 0.041622702 -0.18320507 0.030049507
0.0035076067 -0.27699578 0.48535407 0.88842803 0.0016562516 -0.45901302 0.00035626657
-0.040177051 -0.21748671 0.42023194 0.58189386 0.1128495 -0.80539703 0.053365037
0.0089959316 -0.12584484 0.50124627 0.87920374 0.23676229 -0.41345429 0.048685778
0.022524033 -0.18779226 0.52608955 0.89946675 0.017426008 -0.43664166 0.00015288052
-0.0051475028 -0.096319087 0.47179016 0.65033418 0.59758592 -0.46899518 0.067967087
0.017341875 -0.13361619 0.52011478 0.88449758 0.21860299 -0.41216105 0.040913854
0.045665499 -0.084478736 0.59868342 0.70975351 0.69531149 0.11310098 0.12569955
0.0070297043 -0.07962513 0.53851026 0.34164035 0.92725706 -0.15321909 0.058208372
0.003287483 -0.078392334 0.57186353 0.26370201 0.96446973 0.016110651 0.043554556
0.052887414 -0.35912779 0.61744678 0.82026964 -0.34945568 0.45281166 0.091897838
-0.041682914 -0.36955407 0.4236756 0.40838507 -0.56939757 -0.71344793 0.11501813
0.053508557 -0.29492995 0.60885936 0.96315223 0.00082829129 0.26895568 0.049236018
0.0078759175 -0.35677972 0.49839503 0.81570762 -0.4435676 -0.37130702 0.065348051
-0.15836322 -0.082441449 0.62556046 -0.47410941 0.85027915 0.22857304 0.074364275
0.02514963 -0.27581367 0.52786732 0.90090305 0.0069088736 -0.4339655 0.00017035041
0.0025058629 -0.14914545 0.48626104 0.89341158 0.10950783 -0.43568772 0.012430663
-0.011357998 -0.15493156 0.45463437 0.78473198 0.040113803 -0.61853594 0.035063095
0.044133883 -0.093040727 0.5831368 0.78358561 0.62108523 -0.015707428 0.12179007
0.051456183 -0.14436783 0.58537775 0.99216253 0.071657337 -0.10236616 0.043391205
0.010945247 -0.15931948 0.50424749 0.90174824 0.037821647 -0.43060383 0.0013911184
0.036531594 -0.084583774 0.57356358 0.64316928 0.76231194 -0.072206728 0.10520335
0.046452217 -0.12878513 0.57136768 0.95482153 0.17139252 -0.2427765 0.060562916
-0.036241807 -0.2419983 0.4182533 0.70523369 0.050284151 -0.7071895 0.031110687
0.046179753 -0.15836869 0.57414079 0.9778688 0.017858341 -0.20845541 0.025433378
0.0098964041 -0.3197574 0.49588597 0.89474487 -0.13222654 -0.42655325 0.018956523
0.045924183 -0.27356327 0.56908822 0.98133022 -0.0097289439 -0.19208421 0.026807576
0.031036662 -0.28505507 0.54009414 0.91788083 0.0042073573 -0.39683381 0.0019078408
0.032414448 -0.2959289 0.5429582 0.92126071 -0.000486687 -0.38894522 0.0026981402
0.0025438059 -0.23453799 0.48304692 0.8884899 0.0080080014 -0.45882642 0.00070878962
-0.0094386758 -0.18058638 0.45887762 0.81951022 0.036677811 -0.57188958 0.026113387
0.052572012 -0.1612028 0.61123341 0.97076827 0.0058745178 0.23994686 0.037399579
0.039822955 -0.09224353 0.56561905 0.75424695 0.6338914 -0.17115282 0.098484755
0.051147878 -0.26524672 0.61650485 0.92041755 -0.0064417929 0.39088368 0.050957341
-0.0075664911 -0.08064013 0.50450438 0.38673645 0.88713676 -0.25183985 0.063612767
0.023386599 -0.08251103 0.54186213 0.50838178 0.82966411 -0.23066282 0.059686411
0.023487704 -0.22877541 0.52650303 0.90334231 0.016646836 -0.42859733 0.00020411659
0.0434369 -0.22365496 0.56795114 0.97885859 0.016261514 -0.20389077 0.027984118
0.034063227 -0.16737898 0.55139178 0.93713593 0.028348209 -0.34781107 0.0089970278
0.029614661 -0.23730172 0.53736424 0.91395134 0.016270207 -0.40549746 0.0011845249
0.0030624419 -0.31821156 0.48232657 0.88977367 -0.13003302 -0.4374862 0.018338088
0.015668854 -0.34476385 0.5093056 0.86184311 -0.31929404 -0.39405301 0.052653681
-0.0039717783 -0.21765479 0.46785608 0.86538595 0.014263817 -0.50090283 0.0059299539
0.028265154 -0.16765691 0.53929108 0.9103058 0.025913944 -0.41312438 0.0013309181
0.01605141 -0.17964868 0.51320964 0.90114629 0.022005534 -0.43295634 0.00013731046
0.012581747 -0.24051562 0.50320601 0.89897054 0.011829934 -0.4378494 9.559482e-05
-0.00016356922 -0.17090048 0.47997177 0.88875604 0.016370684 -0.45808816 0.0020971869
0.028864918 -0.2465865 0.63475198 0.72458547 0.027938198 0.68861848 0.051378172
0.044879954 -0.27040187 0.62534899 0.87603992 0.0026201536 0.48223141 0.049954079
0.047976851 -0.086583853 0.59995443 0.74374819 0.65707922 0.12282301 0.1290077
-0.0026399535 -0.079233229 0.63605237 0.2696608 0.88952458 0.36882114 0.064048596
-0.10472795 -0.3707428 0.69937879 0.1224777 -0.34083146 0.93211216 0.13219455
0.052472394 -0.35637569 0.5902198 0.92564172 -0.37385392 0.058486033 0.10196968
0.014537917 -0.083724119 0.51938742 0.59473932 0.7459051 -0.2998513 0.076625556
-0.039932884 -0.31485242 0.41812792 0.72207624 -0.080250688 -0.68714315 0.028162088
0.016073834 -0.20790173 0.51065546 0.90115881 0.021220397 -0.43296936 7.1983595e-05
-0.0091028642 -0.36916253 0.47044364 0.75025618 -0.54382652 -0.37598976 0.071048491
0.031645738 -0.18285105 0.54470539 0.92282033 0.02275971 -0.38455763 0.0033298312
-0.010248668 -0.36989364 0.46385705 0.74951303 -0.51731277 -0.41305912 0.072197311
0.000428411 -0.22624187 0.47786441 0.88468933 0.0041873753 -0.46616229 0.0013835448
0.036987226 -0.23987621 0.55190009 0.9514662 0.031745642 -0.30611143 0.010686974
-0.010180786 -0.31148839 0.45514956 0.84553158 -0.06945806 -0.52938825 0.015625624
0.0042926092 -0.28831068 0.48548874 0.89008301 -0.002042627 -0.4557938 0.0003426015
-0.012648508 -0.29985657 0.45390803 0.84333545 -0.017738471 -0.53709471 0.010076614
0.052783709 -0.30098826 0.58580637 0.99600798 -0.006743432 -0.089009643 0.039242335
-0.025140189 -0.077090204 0.60669535 0.11925215 0.98193055 0.14694007 0.023045307
-0.062362701 -0.079581156 0.46544337 0.033658914 0.90844142 -0.41665491 0.063318036
-0.010482887 -0.1119997 0.45798886 0.70297003 0.36214331 -0.61211544 0.069808543
-0.072676189 -0.079154849 0.46827117 -0.032853361 0.92007929 -0.39035195 0.058775764
-0.035508517 -0.10153009 0.4233956 0.3224932 0.52581191 -0.7870959 0.1018334
-0.032867085 -0.26703995 0.42118651 0.76986575 0.022629447 -0.63780451 0.024097437
-0.0016540909 -0.30940261 0.47145376 0.87074459 -0.056875788 -0.48843536 0.0089642154
-0.039543517 -0.28740203 0.41690981 0.76065487 -0.0041376217 -0.64914334 0.01968657
0.0090025971 -0.1962878 0.49746376 0.90003949 0.019957056 -0.43535113 0.00019714821
-0.00021350241 -0.20957437 0.47603619 0.87834567 0.0094419792 -0.47793284 0.0033384487
0.019244809 -0.16958918 0.52182138 0.89854681 0.020404618 -0.43840307 0.00018619862
-0.022930963 -0.23607555 0.43293551 0.78407037 0.039782017 -0.61939567 0.026274931
0.049564913 -0.37226507 0.59435189 0.81998736 -0.55237991 0.14999054 0.12021731
-0.023996172 -0.093301579 0.445429 0.50152528 0.58434343 -0.63797736 0.090430126
-0.028819298 -0.22882991 0.42619044 0.73073202 0.063662194 -0.67968959 0.033971224
-0.0097972602 -0.35069001 0.45910698 0.80687541 -0.34037459 -0.48280144 0.061850633
-0.0046010017 -0.18798026 0.4689796 0.86530823 0.006682476 -0.50119573 0.0085466485
0.035091911 -0.19941533 0.63116503 0.76355171 0.0036282996 0.64573646 0.043681301
