# .PCD v0.7 - Point Cloud Data file format
VERSION 0.7
FIELDS x y z
SIZE 4 4 4
TYPE F F F
COUNT 1 1 1
WIDTH 1384
HEIGHT 1
VIEWPOINT 0 0 0 1 0 0 0
POINTS 1384
DATA ascii
0.043942329 -0.27359751 0.57012081
0.025666419 -0.2847845 0.54263598
0.02652901 -0.29583949 0.54597861
0.003452122 -0.234567 0.482647
-0.0078736544 -0.18057831 0.45818731
0.058242138 -0.16127481 0.6138497
0.042780399 -0.089469299 0.5640831
0.048158649 -0.2655586 0.6148119
-0.0071404581 -0.078432433 0.50417489
0.02352136 -0.08177723 0.54183018
0.02165222 -0.2286709 0.52734512
0.043947522 -0.2236488 0.56771922
0.02739406 -0.1685425 0.55572611
0.031218531 -0.2372649 0.53659773
0.00086176401 -0.3182165 0.4833912
0.01376486 -0.34466609 0.5100382
-0.0051840539 -0.2176951 0.46838641
0.029244181 -0.16761079 0.53878123
0.01113564 -0.1800202 0.51560628
0.0099862218 -0.24043331 0.50450879
-0.0046773548 -0.1709097 0.4820191
0.03064364 -0.2466131 0.63798523
0.047025021 -0.2703329 0.62784839
0.052525159 -0.082928292 0.59889162
-0.001732051 -0.072221853 0.63653171
-0.1031296 -0.37294781 0.70256162
0.05106223 -0.3561559 0.59056568
0.01532555 -0.081325039 0.51894182
-0.040661689 -0.31480941 0.4196465
0.019668881 -0.2077252 0.50892109
-0.01173246 -0.36734799 0.4716652
0.028101331 -0.1830156 0.54656178
-0.0073847771 -0.37114701 0.46245909
-0.0061522722 -0.2263217 0.48093379
0.03304464 -0.24000341 0.5538801
0.01987863 -0.38334531 0.52224302
-0.01195705 -0.31148481 0.45611069
0.002691746 -0.28840989 0.4863624
-0.022092341 -0.30067381 0.4593021
0.05178779 -0.30097899 0.58598948
-0.025160849 -0.075983293 0.60666537
-0.062350512 -0.078509957 0.46540549
-0.01430166 -0.1127847 0.45978609
-0.072503388 -0.071822852 0.46807671
-0.03232592 -0.098054677 0.41948521
-0.035678029 -0.2671721 0.42412859
-0.007039607 -0.30937189 0.4740147
-0.040591419 -0.2870118 0.41913241
0.0077199941 -0.19635651 0.4980967
-0.004882663 -0.20982391 0.4781954
0.01288778 -0.1700123 0.52491897
-0.027550699 -0.2361269 0.43664309
0.051662389 -0.3732335 0.59405762
-0.020082951 -0.087368913 0.44296691
-0.02978247 -0.2288395 0.42702919
-0.01247752 -0.35053569 0.4602994
-0.0034372211 -0.1879255 0.4684734
0.03596383 -0.1994573 0.63246769
-0.036607381 -0.1574142 0.42458549
-0.030441459 -0.092243701 0.42506719
-0.03163898 -0.1556894 0.42020559
-0.01693565 -0.088089786 0.45558059
-0.02299547 -0.18255471 0.43815929
-0.02161455 -0.118037 0.44146711
-0.01621389 -0.1341083 0.43947959
-0.01355201 -0.078400642 0.54791719
-0.037385281 -0.26331839 0.42023319
-0.03547496 -0.34022731 0.42097661
0.01551062 -0.32629639 0.52536732
-0.0049826498 -0.32472271 0.50538093
0.055016991 -0.3222186 0.59229612
-0.03040874 -0.34866211 0.43220681
-0.1674322 -0.085863471 0.64979839
0.05031443 -0.36499229 0.57241642
-0.1917062 -0.077679902 0.53621483
-0.005096734 -0.076532871 0.56057239
-0.15159 -0.074078858 0.618536
-0.098687112 -0.077427059 0.59313089
-0.06205726 -0.072083227 0.60745049
-0.061646279 -0.073957384 0.57299972
0.054419521 -0.1412151 0.59871018
0.05414534 -0.27874771 0.61702907
-0.084358871 -0.077375948 0.53155857
-0.1065157 -0.076165646 0.49584201
-0.05914038 -0.075902522 0.47850659
-0.019172009 -0.077227183 0.47921371
-0.088287652 -0.07474035 0.51995122
-0.027911009 -0.088009089 0.453228
-0.1054888 -0.078101717 0.46469161
-0.023343921 -0.086859517 0.43402541
-0.03663677 -0.1142026 0.41958821
-0.01042479 -0.3570388 0.44494411
0.029912289 -0.2223122 0.54091948
0.028748689 -0.31605461 0.53370482
0.02707148 -0.071969241 0.60632187
0.0069069271 -0.070892237 0.52643359
0.003862679 -0.21306729 0.4920902
-0.1840799 -0.077958576 0.60162169
0.022070531 -0.36862481 0.51260531
-0.1975622 -0.074486852 0.54969871
0.031090319 -0.1921045 0.54380232
-0.031334519 -0.271689 0.45824051
0.047543231 -0.3021968 0.58118749
0.043595731 -0.28176439 0.5650456
-0.05997413 -0.076494753 0.59427291
-0.1768444 -0.080381513 0.58264548
0.05458856 -0.34061351 0.55826592
0.050608519 -0.33083779 0.57888103
0.051112171 -0.31198159 0.59822702
-0.081706107 -0.078877628 0.49968499
-0.0104422 -0.33285639 0.47280601
0.0035411119 -0.1065302 0.5016883
-0.02906239 -0.2966896 0.43300751
0.01882619 -0.075805247 0.6326015
-0.016016239 -0.066221617 0.5607034
0.026361231 -0.27335441 0.54111272
-0.016177589 -0.24618889 0.44034529
-0.2380216 -0.090770543 0.55975962
0.087890573 -0.37948859 0.52997679
-0.1326112 -0.072706223 0.62956733
0.05068982 -0.1020568 0.58818269
0.05267268 -0.2125521 0.57062942
-0.057557639 -0.076377183 0.43991649
0.05605733 -0.1183906 0.59961802
0.057225529 -0.1507722 0.61857378
0.028636459 -0.30444211 0.53773367
-0.01849425 -0.1204539 0.43033481
-0.1036899 -0.3669486 0.71210063
-0.025908651 -0.36652061 0.4056069
0.057098389 -0.21986941 0.58813357
-0.096894443 -0.072278529 0.53935927
0.0024887321 -0.2428935 0.48863289
0.041731719 -0.22763491 0.58119982
0.01078314 -0.38248751 0.3975167
0.059071779 -0.098431557 0.59049457
-0.034861092 -0.087495297 0.51965791
0.04193604 -0.083149701 0.57237142
0.05426186 -0.1517213 0.61774099
0.02310336 -0.23369899 0.56414288
-0.04408038 -0.075197458 0.47179139
-0.02018553 -0.1123394 0.4533307
0.01123738 -0.080765247 0.5081355
-0.02942276 -0.1378675 0.4273048
0.00710535 -0.18346021 0.48648071
-0.01548141 -0.17253821 0.43505579
0.009086132 -0.2248508 0.4995563
-0.016085031 -0.1950193 0.46199381
0.01384175 -0.31354421 0.50746429
0.1304252 -0.38005939 0.58732969
-0.02958381 -0.1008188 0.4321779
0.056887388 -0.17388929 0.58967322
0.02216756 -0.30613109 0.51837921
-0.3785311 -0.130031 0.62897342
-0.046281811 -0.28899071 0.43280509
0.040183421 -0.075697333 0.60687011
-0.02103281 -0.3250373 0.43817651
0.053936839 -0.1994566 0.58976448
0.02915013 -0.3328031 0.64458519
-0.1836541 -0.062175911 0.58654749
0.023136239 -0.13347711 0.63527471
0.00198102 -0.31961429 0.64899659
0.044561181 -0.2129849 0.62359232
0.055053119 -0.1032321 0.61701548
0.05546749 -0.34721199 0.61970699
-0.1302425 -0.14842869 0.7030561
0.033989489 -0.1875886 0.6301564
0.01041743 -0.35372791 0.64601368
-0.1459184 -0.22565269 0.71735197
-0.01791415 -0.36536041 0.66102612
-0.068025678 -0.1443734 0.67870641
-0.06038839 -0.35333881 0.67742068
-0.016094649 -0.3261131 0.65952557
-0.088660151 -0.2348621 0.68672889
-0.089877874 -0.349709 0.69040811
-0.088343531 -0.074190773 0.47830579
0.0099309683 -0.32519579 0.64530891
-0.1056106 -0.29547769 0.69599432
-0.073525161 -0.36571571 0.68432182
-0.06028235 -0.073623091 0.67200702
-0.1162672 -0.072401553 0.4686071
0.025659081 -0.1060891 0.63473409
-0.1233222 -0.1287736 0.70143437
-0.1491918 -0.1807975 0.69364983
-0.1483701 -0.1821374 0.71747428
-0.1107205 -0.131442 0.69505048
-0.1037792 -0.18190619 0.70208091
-0.1115023 -0.2988306 0.69854093
-0.0067299311 -0.083221257 0.48793101
0.034874361 -0.1498225 0.62739778
-0.01378244 -0.3678548 0.65894932
0.01380617 -0.087339342 0.6354444
-0.090338357 -0.25160089 0.69011718
0.01859655 -0.092003047 0.6394394
-0.1302316 -0.31100339 0.7003001
-0.1194346 -0.38346079 0.7124325
-0.1407534 -0.37516829 0.70150232
-0.1074486 -0.073484898 0.68598378
-0.09899646 -0.37562531 0.69936532
-0.1170893 -0.078216791 0.67316508
-0.13102549 -0.083448797 0.66656399
-0.18031891 -0.087132066 0.61289471
-0.15038469 -0.3560034 0.69548458
-0.1462768 -0.078855067 0.64503437
-0.096652389 -0.081287123 0.60343188
-0.2215499 -0.1133069 0.52958769
-0.175056 -0.076141506 0.60623842
-0.1372128 -0.15645181 0.70030391
-0.14360049 -0.1696475 0.69293678
-0.1592124 -0.082045168 0.65717483
-0.2225415 -0.16023441 0.52899963
-0.2208924 -0.097100109 0.5245021
-0.14736091 -0.1878953 0.68833858
-0.1828495 -0.3241919 0.62458879
-0.1515232 -0.30381739 0.68924308
-0.19835719 -0.1220863 0.57565081
-0.1829306 -0.1139027 0.60441059
-0.2246248 -0.106231 0.52093017
-0.2278171 -0.1812921 0.51419657
-0.1528478 -0.1083549 0.6655314
-0.1656094 -0.25095591 0.64986038
-0.1408346 -0.1367577 0.69494432
-0.1630061 -0.2805286 0.66504443
-0.1521575 -0.24962389 0.68555212
-0.16754439 -0.2826806 0.65208381
-0.1422344 -0.2621834 0.69400758
-0.14556099 -0.27711111 0.68869609
-0.069588363 -0.080100447 0.52095842
-0.2063487 -0.08162424 0.58065182
-0.20267101 -0.1045103 0.56441373
-0.18944231 -0.1144297 0.5874933
-0.16909529 -0.30443299 0.65148687
-0.1568004 -0.32925081 0.6762687
-0.1806422 -0.29880509 0.62354338
-0.199922 -0.1366604 0.57569242
-0.19771311 -0.3568638 0.59794807
-0.13765951 -0.1531315 0.6991812
-0.233913 -0.34387901 0.49491411
-0.1575335 -0.15514641 0.65865803
-0.21525081 -0.095094472 0.53766912
-0.1614223 -0.2916398 0.66690642
-0.19279809 -0.32973161 0.60182881
-0.14876521 -0.22443821 0.67885661
-0.1378714 -0.34380159 0.70339501
-0.19310769 -0.082235754 0.57566512
-0.2181208 -0.1022689 0.53585923
-0.2086231 -0.1137449 0.5507468
-0.1577694 -0.13474829 0.65970188
-0.1510853 -0.1368642 0.66322547
-0.16781829 -0.25502861 0.65580958
-0.1568172 -0.33285511 0.68016171
-0.2025931 -0.1538541 0.56598502
-0.148249 -0.087893717 0.67503482
-0.1924267 -0.3336682 0.59493589
-0.20374539 -0.1410448 0.56447089
-0.17644501 -0.30754179 0.63542819
-0.1335564 -0.09477666 0.70212972
-0.17514341 -0.2514517 0.64382541
-0.1469761 -0.081085376 0.59966528
-0.041471899 -0.077767849 0.46670789
-0.1861677 -0.081870258 0.53025389
-0.1908866 -0.1322857 0.58174878
-0.2313243 -0.091759682 0.5174588
-0.15999641 -0.13359649 0.6554215
-0.14723121 -0.3436105 0.68259531
-0.1528566 -0.30583119 0.68798602
-0.1472725 -0.25714311 0.68918538
-0.1783243 -0.1058751 0.61853892
-0.1478342 -0.1562385 0.67500663
-0.2290943 -0.15767141 0.50632793
-0.1554351 -0.2492242 0.66857457
-0.050468091 -0.081882954 0.64775801
-0.1341819 -0.080132283 0.68182802
-0.147194 -0.1000349 0.67627192
0.030842301 -0.080103278 0.55513602
-0.2278814 -0.08517608 0.50966102
-0.1065769 -0.077898286 0.49553469
-0.047743801 -0.076588482 0.63063538
-0.1264005 -0.17420819 0.69857222
-0.041172441 -0.077918887 0.53981477
-0.144218 -0.33823341 0.69629532
-0.006763339 -0.077984087 0.55669463
-0.052421808 -0.078980267 0.4429172
-0.1875027 -0.28489751 0.62048918
-0.16631781 -0.3366996 0.66360158
-0.2153656 -0.080137879 0.49837571
-0.05655098 -0.074982233 0.593117
-0.062796533 -0.083218217 0.4411298
-0.13195591 -0.083864629 0.46202949
-0.20107169 -0.1453954 0.56762081
-0.1830167 -0.1129388 0.60762823
-0.02422482 -0.054681391 0.64480758
-0.025572181 -0.07770741 0.61032277
-0.1053041 -0.074237533 0.66767007
-0.1433313 -0.1591592 0.67157441
-0.17242759 -0.078607798 0.56326628
-0.2095073 -0.08223626 0.5411039
-0.099684298 -0.079953223 0.45092529
-0.1735975 -0.083079129 0.48056081
-0.14589231 -0.079198658 0.67074019
-0.13203999 -0.38116261 0.71416831
-0.054435428 -0.08777371 0.47201869
-0.149533 -0.1789069 0.6687367
-0.1435577 -0.08034569 0.62865567
-0.00916785 -0.068072438 0.5521729
-0.20968691 -0.1116556 0.55504549
-0.036627531 -0.079194099 0.59412068
-0.2303704 -0.1132862 0.507855
-0.0065533519 -0.07925427 0.48602191
0.06181854 -0.083587021 0.61130673
-0.051513139 -0.081752062 0.465655
-0.086120188 -0.082928993 0.67094082
-0.1880496 -0.084752232 0.59410048
-0.1757827 -0.1279597 0.4778749
-0.17185961 -0.091220632 0.4775039
-0.056362148 -0.080468267 0.4752219
-0.14368001 -0.12648989 0.4678776
-0.1454 -0.134974 0.46603319
-0.11518 -0.074432909 0.56623763
-0.2109468 -0.14007241 0.49469689
-0.03249431 -0.1006418 0.4120186
-0.041474462 -0.1040741 0.4101575
-0.093272537 -0.1248789 0.44048429
-0.054150071 -0.14280321 0.42199001
-0.15855061 -0.075917959 0.4790661
-0.1476783 -0.081433013 0.4793452
-0.18689761 -0.1076067 0.48389411
0.046194371 -0.083125412 0.60299301
0.041822139 -0.079348236 0.57683539
-0.132459 -0.179611 0.45934391
-0.04719222 -0.095109157 0.42149621
-0.2143461 -0.15019511 0.5044229
-0.037234601 -0.076895587 0.61530018
-0.2193705 -0.1417339 0.49625671
-0.18816289 -0.1111614 0.48498541
-0.17514659 -0.082307607 0.53708309
-0.1032847 -0.083770327 0.60024869
-0.15202729 -0.079214387 0.5098471
-0.01413083 -0.072892368 0.60753143
-0.086740077 -0.1683259 0.43871811
-0.1555168 -0.157037 0.47438261
-0.16975699 -0.083388478 0.47787699
-0.1096266 -0.1259596 0.44819361
-0.16129319 -0.098579071 0.47198701
-0.070992112 -0.085205503 0.43341139
-0.094697483 -0.1468851 0.4398087
-0.1621208 -0.1117541 0.47192639
-0.024741471 -0.084367283 0.57656407
-0.08926177 -0.07923606 0.55345261
-0.076440297 -0.1456103 0.42881471
-0.044576701 -0.204336 0.41889179
-0.053473771 -0.083942287 0.58077252
-0.1106057 -0.08358866 0.62654787
-0.1236433 -0.079880834 0.63415581
-0.074848413 -0.081441939 0.4552629
-0.1791074 -0.076861382 0.4880999
-0.059865121 -0.18271869 0.41986999
-0.083064787 -0.082704343 0.4745574
-0.18261801 -0.15741611 0.4844763
-0.20718659 -0.090593338 0.4924778
-0.038053509 -0.19838309 0.4098067
-0.051825259 -0.090850294 0.42092991
-0.03007048 -0.080724269 0.49787399
-0.07596916 -0.2107031 0.4269076
-0.1580622 -0.2144703 0.687792
-0.1329087 -0.075488947 0.5284701
-0.2052478 -0.082033657 0.55142349
-0.042845249 -0.16320311 0.40975901
-0.07932964 -0.091643929 0.4305684
-0.077290058 -0.18498909 0.42838669
-0.237734 -0.1164027 0.48462671
-0.1261842 -0.090080917 0.4536213
-0.037498649 -0.1848294 0.41014609
-0.04716545 -0.2216551 0.4170635
-0.073023863 -0.131148 0.42854741
-0.082365043 -0.1189343 0.44197011
0.018239681 -0.082269527 0.56893688
-0.096489973 -0.076895267 0.50919801
-0.1347056 -0.080645233 0.4803929
-0.007139504 -0.081023663 0.53661788
-0.21919049 -0.2680245 0.4904913
-0.17530981 -0.1779757 0.47452629
-0.1214565 -0.2041028 0.44420689
-0.20824081 -0.078249447 0.50549412
-0.22586299 -0.2632516 0.48894751
-0.066307433 -0.1935543 0.41915151
-0.213218 -0.2315654 0.54887962
-0.13972969 -0.33876321 0.4561725
-0.2111613 -0.1674249 0.49212271
-0.2000038 -0.1954955 0.4876042
-0.1858976 -0.21272799 0.60762972
-0.1921763 -0.16378111 0.59397757
-0.1590832 -0.30040759 0.67095917
-0.48743939 -0.37862101 0.89719123
-0.15891591 -0.29254219 0.4651351
-0.1462013 -0.1188151 0.46967581
-0.180372 -0.3629964 0.70481682
-0.52679378 -0.38344589 0.76321572
-0.17473119 -0.28253821 0.4684076
-0.1284726 -0.31840751 0.4513928
-0.51557159 -0.38247359 0.73497683
-0.1119423 -0.0766747 0.45991549
-0.20448419 -0.082424283 0.49139789
-0.15240809 -0.1801222 0.46646699
-0.20543461 -0.2847065 0.48568961
-0.031257808 -0.073935091 0.50608867
-0.1722351 -0.079366148 0.57401288
-0.01530576 -0.085067362 0.58238602
-0.1239786 -0.15359861 0.45046479
-0.038834509 -0.2318271 0.4112325
-0.1781607 -0.1620833 0.47770771
-0.1086782 -0.3180348 0.44310141
-0.1072344 -0.23042201 0.43974179
-0.13965981 -0.1696993 0.45877689
-0.133973 -0.1608313 0.45625561
-0.47443369 -0.38143781 0.68216848
-0.50665659 -0.3818033 0.86347228
-0.2091613 -0.1843009 0.50055128
-0.244561 -0.29056099 0.49241969
-0.1273682 -0.32333401 0.4496558
-0.48587811 -0.3756502 0.69954711
-0.1520652 -0.1396006 0.46851039
-0.1470511 -0.3264356 0.70672238
-0.2259807 -0.33182359 0.52681172
-0.2311507 -0.227568 0.5020656
-0.1864361 -0.30640429 0.62913883
-0.2336078 -0.23825081 0.5016886
-0.20276409 -0.26276401 0.57289869
-0.1646643 -0.3832657 0.68138921
-0.21477 -0.2882247 0.55255032
-0.006499398 -0.079855204 0.49631581
-0.051944681 -0.076715313 0.50948262
-0.0059347232 -0.082320623 0.47355181
-0.066968746 -0.077957623 0.51681179
-0.01100571 -0.082721941 0.45368671
-0.14553569 -0.081126101 0.67532772
-0.014255 -0.087995946 0.4354201
-0.098877467 -0.079697236 0.62636358
-0.03635161 -0.082647018 0.4172093
-0.065457948 -0.077972174 0.64167053
-0.12711839 -0.076387428 0.68781048
-0.02587191 -0.076833449 0.44976941
-0.1350541 -0.07951048 0.6578548
-0.069679096 -0.08008384 0.49975771
-0.094638273 -0.079162776 0.49917319
0.04303718 -0.085635677 0.57396942
-0.009476495 -0.1571456 0.45570809
-0.0097437911 -0.1198109 0.46061221
0.02009196 -0.17938159 0.51535982
-0.050985072 -0.09187983 0.42483661
-0.079479098 -0.082352981 0.43752831
-0.1427419 -0.13407759 0.46631569
-0.1553265 -0.1795958 0.4688364
-0.089511544 -0.1132975 0.43312779
-0.116831 -0.1255607 0.44735181
-0.093002513 -0.15923069 0.43317571
-0.025366461 -0.097541787 0.408719
-0.033095092 -0.1410618 0.4068749
-0.1337658 -0.15475909 0.45149279
-0.1855188 -0.1594108 0.47916251
-0.035452452 -0.093901597 0.40652031
-0.1146602 -0.1195597 0.44567379
-0.1661011 -0.21827149 0.47069669
-0.2112954 -0.27032331 0.49078631
-0.2244067 -0.26515949 0.4998976
-0.18879829 -0.27418929 0.47800469
-0.1337578 -0.17623749 0.45052251
-0.02641191 -0.1501065 0.40716609
-0.03525738 -0.1082421 0.40753001
-0.1774729 -0.1587529 0.47213879
-0.1543421 -0.1338352 0.459463
-0.1257534 -0.095168963 0.46813151
-0.1242139 -0.15488669 0.45621771
0.0055165058 -0.2189752 0.4698579
0.025266031 -0.3298291 0.51427448
0.01058134 -0.2028729 0.4954752
0.040751271 -0.36577931 0.56616652
-0.058695588 -0.1830699 0.4166294
-0.053913791 -0.21513151 0.41473681
-0.054760881 -0.3446182 0.41427511
-0.1172641 -0.29240671 0.44397739
-0.1195572 -0.32531309 0.44723409
-0.067728803 -0.19703791 0.43078151
-0.040543221 -0.1943821 0.4128029
-0.06663096 -0.175101 0.42618561
-0.042620681 -0.22698531 0.4130913
-0.096761324 -0.36341771 0.4300622
-0.054331589 -0.3671231 0.41437519
-0.031073369 -0.2400147 0.41061649
-0.030133599 -0.34114611 0.41519281
-0.038180832 -0.31606719 0.42216209
-0.0303437 -0.26656631 0.41089401
-0.049431771 -0.2040429 0.4136191
-0.027818641 -0.28024799 0.41075629
-0.02799551 -0.2115017 0.40832871
-0.033798341 -0.27250499 0.4070507
-0.02060356 -0.1487803 0.42821419
-0.078027517 -0.2110526 0.42259941
-0.0188246 -0.1987094 0.43551669
-0.097953081 -0.29037479 0.43360221
-0.020401049 -0.1875338 0.43502921
0.007968232 -0.084580332 0.49429581
-0.0052166362 -0.080357313 0.47198051
-0.017330211 -0.08736603 0.44339779
-0.091168948 -0.32224831 0.43717381
-0.1832346 -0.103347 0.47474399
-0.12803841 -0.085970514 0.45820099
-0.033458181 -0.28279939 0.40448999
-0.1294194 -0.37090361 0.44556829
-0.0067004189 -0.37727711 0.45837721
-0.047755182 -0.079678431 0.43739781
-0.076927736 -0.083383948 0.43410891
-0.01224771 -0.29137591 0.45002261
-0.0099169696 -0.2261464 0.45261559
-0.098556317 -0.26029649 0.4369891
-0.039181311 -0.27828199 0.40517491
-0.078598946 -0.18253431 0.4235611
-0.04162997 -0.30355009 0.41098371
-0.062390279 -0.074400678 0.62945271
-0.02602518 -0.1571876 0.4153637
-0.2278256 -0.28845921 0.50077111
0.045041271 -0.1681146 0.57513541
-0.18999811 -0.1077257 0.48279259
0.0051758499 -0.14849579 0.48049259
-0.1589607 -0.2047202 0.46895069
0.00040320191 -0.35797861 0.46210349
-0.0047432859 -0.078956783 0.50275958
0.0056498041 -0.31919909 0.4806543
-0.027993379 -0.26800239 0.41627309
0.01959431 -0.082963958 0.51332462
-0.02085631 -0.1823483 0.42938849
0.063252211 -0.27835241 0.60519552
-0.02632389 -0.1014603 0.41618231
-0.029034249 -0.1630225 0.40857771
-0.048994578 -0.078769028 0.47121879
-0.1525435 -0.3351458 0.4531886
-0.2009404 -0.35576501 0.4765614
-0.1724432 -0.34680009 0.46973461
-0.17414349 -0.28047451 0.47376519
-0.1882454 -0.36767441 0.467839
-0.18705601 -0.3766942 0.4702892
-0.1073223 -0.078109667 0.495406
-0.1239601 -0.077965632 0.47480869
-0.17999759 -0.08472009 0.48664531
-0.13385721 -0.1841042 0.4538314
-0.034050688 -0.079206109 0.60455543
-0.060886089 -0.078026786 0.46377581
-0.16682661 -0.1758374 0.51372522
-0.1531388 -0.077550411 0.4761366
-0.13230591 -0.3183639 0.4531112
-0.04359759 -0.1072074 0.40807679
-0.22050659 -0.195924 0.48862019
-0.21994589 -0.14063831 0.49599361
-0.1860154 -0.081016302 0.57599568
-0.033369299 -0.077122107 0.63861179
0.045042779 -0.1089482 0.57132488
-0.1040263 -0.2173654 0.4341611
-0.068057097 -0.30451921 0.42189911
-0.073453143 -0.30199361 0.42872751
-0.0201084 -0.078259319 0.55863303
0.019019241 -0.078753039 0.56523257
-0.17453679 -0.089677393 0.4821555
-0.034280021 -0.13540711 0.41304269
-0.080974028 -0.1113468 0.43358681
-0.2021953 -0.19123439 0.48476741
-0.1436552 -0.32724679 0.44842049
-0.1470488 -0.2745007 0.45592901
-0.1140614 -0.2462309 0.44441921
-0.082934253 -0.14084169 0.43064779
-0.1655307 -0.1080712 0.4741244
-0.13224719 -0.097622111 0.45903131
-0.2339578 -0.35383421 0.4962419
-0.23085441 -0.33663651 0.49906141
-0.097664878 -0.077482 0.61408812
-0.098527253 -0.30762359 0.4349629
-0.061570842 -0.2494982 0.42398861
-0.098861977 -0.21427479 0.4431268
-0.1124128 -0.082051918 0.45080671
-0.16607951 -0.1832533 0.4698112
-0.045174841 -0.3209596 0.41216949
-0.04480296 -0.28048781 0.41381851
-0.039204311 -0.17895889 0.40977481
-0.090334363 -0.14185891 0.4312925
-0.02131794 -0.07751523 0.42388469
-0.094550587 -0.2361692 0.4357228
-0.022363991 -0.34408361 0.42044279
-0.062639393 -0.1290736 0.42116141
-0.1253566 -0.078239009 0.56631792
-0.05280384 -0.077975392 0.51786381
-0.051918339 -0.079229683 0.44077849
-0.17723849 -0.18335959 0.48268691
-0.160688 -0.28768679 0.46446681
-0.042079549 -0.2590028 0.4136804
-0.017447799 -0.1152994 0.4439677
-0.1268198 -0.07633099 0.45526651
-0.077876016 -0.2117154 0.42795259
-0.2010635 -0.24369431 0.48080951
0.024859309 -0.2132476 0.51948392
0.06220115 -0.2423963 0.6008603
-0.081216589 -0.15815119 0.43166399
-0.21565901 -0.2671552 0.4934167
-0.2155823 -0.3622807 0.4905633
-0.065708481 -0.27823469 0.42130831
-0.05282034 -0.1405185 0.41796619
-0.092375979 -0.1225721 0.43658
-0.1340894 -0.2496037 0.46117139
-0.22520711 -0.254123 0.51235688
-0.1060264 -0.31969199 0.43286309
-0.159371 -0.27151719 0.4681555
-0.081319407 -0.37659031 0.41845641
-0.1462239 -0.3053264 0.45892259
-0.1904418 -0.21244781 0.48416051
-0.1674597 -0.33337811 0.467522
0.016629569 -0.31829691 0.50184798
-0.036102269 -0.082561173 0.41706359
-0.058718018 -0.32681981 0.41356319
-0.06591928 -0.079483882 0.52198511
-0.034839969 -0.079463743 0.57254517
-0.145025 -0.079465397 0.66851163
-0.1282741 -0.078510366 0.69565117
-0.036601279 -0.18485349 0.41171381
-0.1225683 -0.2136436 0.45910779
-0.2080735 -0.30479661 0.48841181
-0.072110057 -0.36384371 0.4184542
-0.039128911 -0.19773041 0.4119015
-0.08223445 -0.078621492 0.47389489
-0.1132645 -0.19791199 0.4525212
-0.1459043 -0.36427411 0.45433
-0.034417991 -0.2398258 0.40744421
-0.0417776 -0.33249629 0.41449919
-0.1423351 -0.2227874 0.462881
-0.085563786 -0.3740783 0.42138311
-0.1804686 -0.20254239 0.4839122
-0.108337 -0.15128671 0.44628671
-0.1705361 -0.27165139 0.47733951
-0.19452929 -0.3819232 0.46250001
-0.094629668 -0.095528983 0.43844569
0.022580611 -0.080404148 0.53889501
-0.1910743 -0.1921391 0.48641431
-0.1330069 -0.078932732 0.60416031
-0.01184853 -0.083546244 0.465242
-0.1429272 -0.077340446 0.51187992
-0.086647093 -0.29911619 0.42987791
-0.1639351 -0.2196869 0.4685539
-0.045405451 -0.38090411 0.40839759
-0.1040813 -0.3125318 0.42972019
-0.085350737 -0.32367581 0.4321132
-0.071484767 -0.15465359 0.43127379
-0.1453044 -0.1185792 0.46970329
-0.12997819 -0.3711448 0.44734371
-0.034474801 -0.2395788 0.41321859
-0.1771464 -0.2528106 0.47671199
-0.062918313 -0.36516419 0.41996691
-0.122337 -0.15247481 0.45479539
-0.067228317 -0.246105 0.42671081
-0.1378188 -0.08170189 0.45964411
-0.004133292 -0.1992159 0.468229
-0.1336112 -0.34822091 0.45426121
-0.034068931 -0.1227913 0.40422061
-0.2249102 -0.2928735 0.49994639
-0.1471619 -0.2833932 0.45591241
-0.035652589 -0.25278011 0.40671811
-0.087095417 -0.1017126 0.43353021
-0.036848608 -0.3741838 0.41772249
-0.046915621 -0.34781399 0.41091079
-0.190568 -0.2520434 0.48012611
-0.2108593 -0.190466 0.50336158
-0.15010691 -0.3300589 0.46492729
-0.1050061 -0.22007529 0.42833859
0.02830785 -0.23665871 0.52680677
-0.1223174 -0.1166018 0.45277941
-0.016511559 -0.25117481 0.4337928
-0.1754372 -0.1211015 0.47445321
-0.088042647 -0.079635158 0.46199
-0.072791293 -0.1471087 0.42860571
-0.042256631 -0.1641285 0.415602
-0.1777162 -0.12956379 0.48386589
-0.1936162 -0.28309241 0.48905501
-0.1486403 -0.36034709 0.4564012
-0.12510189 -0.2217195 0.45491219
-0.09780734 -0.3627682 0.4337945
-0.15652999 -0.34688881 0.46228501
-0.1213738 -0.093110099 0.46331251
-0.19526359 -0.2211549 0.46606579
-0.096078448 -0.14980111 0.447321
-0.07880234 -0.1682874 0.43331411
-0.077579968 -0.1298212 0.42971411
-0.2014482 -0.3234286 0.48771259
-0.107856 -0.26520401 0.44899839
0.0097063994 -0.2093219 0.49321979
-0.064037323 -0.2987062 0.42379531
-0.053931449 -0.2413201 0.41996741
-0.1502319 -0.23986501 0.463539
-0.068006717 -0.25685671 0.42686409
-0.050349992 -0.1946784 0.4142544
-0.053730778 -0.25059989 0.41890359
-0.065322578 -0.085817948 0.44048771
-0.08568044 -0.1768828 0.4400883
-0.113855 -0.1415204 0.45689109
-0.132764 -0.2045064 0.4564822
-0.2347586 -0.31127 0.51170897
-0.120765 -0.1893944 0.4538275
-0.1361192 -0.29079849 0.45685071
-0.2351352 -0.2412926 0.50923312
-0.1509521 -0.093894631 0.46489379
-0.04754708 -0.336943 0.41478801
-0.1053522 -0.25532699 0.4495171
-0.2152022 -0.17139611 0.49058941
-0.21542279 -0.1278466 0.50007439
-0.15379199 -0.31550571 0.4622975
-0.2200624 -0.26989451 0.50874507
-0.154348 -0.1242236 0.47167471
0.05220985 -0.1533381 0.58719468
-0.063707434 -0.1226713 0.42684481
0.02283844 -0.1914629 0.52468753
-0.17388991 -0.1769664 0.48092419
-0.1727616 -0.081651211 0.55764949
-0.04351012 -0.34097749 0.40954071
-0.036478311 -0.082799613 0.41689631
-0.1241095 -0.081014253 0.48227161
-0.036333829 -0.08252582 0.4164848
-0.038992491 -0.1002898 0.41581169
-0.00092837209 -0.081626207 0.49485031
-0.051493172 -0.080402851 0.432237
-0.045572881 -0.079879642 0.46830121
-0.18900169 -0.080200233 0.56870311
-0.055669069 -0.07847628 0.43675449
-0.02061248 -0.080737934 0.48532361
-0.038975421 -0.13467 0.410487
-0.0077124238 -0.080765098 0.4857066
-0.085977912 -0.079841264 0.4467805
-0.03826848 -0.077518031 0.49163631
-0.18588389 -0.077587657 0.60395563
0.043238971 -0.076936617 0.61199462
-0.05467755 -0.078369349 0.45213509
0.0074801738 -0.079579279 0.57088423
0.02196902 -0.080705553 0.54273927
-0.0085027814 -0.078676701 0.54872823
0.01250595 -0.078091577 0.49716201
-0.019522909 -0.078514472 0.56516981
0.03956306 -0.081040367 0.60049468
-0.02492708 -0.077119529 0.58283138
0.041714132 -0.078485943 0.60535258
-0.080979109 -0.07728897 0.4389717
-0.12652791 -0.079761878 0.4581812
-0.092876077 -0.078733623 0.66586918
-0.088921957 -0.07691054 0.61663729
-0.1053934 -0.0755959 0.59411073
-0.1217571 -0.075371519 0.56503808
-0.121688 -0.080485217 0.5560565
-0.095506459 -0.07831572 0.52761668
-0.07012409 -0.078637064 0.4744603
-0.0263747 -0.079582743 0.54274589
-0.092838407 -0.07759437 0.5057227
-0.002002537 -0.079197973 0.50160998
-0.085667312 -0.079349592 0.53424889
-0.1044416 -0.078250617 0.49396151
-0.1284871 -0.082178317 0.4707039
-0.1201265 -0.080555163 0.49076661
-0.04388601 -0.077878997 0.63819629
-0.047222849 -0.076467231 0.5912047
-0.060342621 -0.078478053 0.66936767
-0.1207874 -0.077545047 0.64406413
-0.092563808 -0.076853544 0.66820288
-0.1307392 -0.073295072 0.67854089
-0.006868809 -0.074365988 0.6334995
-0.15669049 -0.079438493 0.66116363
-0.1123883 -0.078704208 0.67029488
-0.1868474 -0.083497487 0.59502429
-0.1578242 -0.1336541 0.66272348
-0.120145 -0.08092846 0.66784859
-0.076668918 -0.079183377 0.52904898
-0.01256728 -0.078874037 0.55946761
0.01341718 -0.081073336 0.53908628
-0.070079327 -0.081259847 0.46596849
0.046679679 -0.077419877 0.6048345
-0.1563544 -0.074552417 0.4812738
-0.1333195 -0.079690948 0.53035158
-0.1624262 -0.076770499 0.48070791
-0.19673119 -0.080170617 0.4987959
-0.2330606 -0.1070216 0.51182258
-0.1270844 -0.078702897 0.51828009
-0.070422113 -0.1438414 0.4281016
-0.1383245 -0.078989819 0.68221688
-0.1193874 -0.076331407 0.62800068
-0.031324271 -0.069552422 0.65897352
-0.05102003 -0.071767673 0.66477138
-0.1890721 -0.080291852 0.55985749
-0.1618339 -0.079596467 0.6589731
-0.145605 -0.135278 0.69344211
-0.1696784 -0.1580106 0.64887291
-0.1724391 -0.137863 0.62928909
-0.17818721 -0.083735019 0.61676133
-0.133114 -0.08144401 0.58478057
-0.1495979 -0.25110501 0.69092
-0.15978201 -0.078929931 0.57000238
-0.1488014 -0.1877227 0.68870407
-0.1724139 -0.14825781 0.63987988
-0.1364858 -0.1124637 0.71145701
-0.148881 -0.086159989 0.67760402
-0.228788 -0.1065909 0.51547271
-0.18120091 -0.38048741 0.7336787
-0.1383734 -0.078963473 0.7021991
-0.083416998 -0.073694907 0.6023742
-0.18069009 -0.080232352 0.58505332
-0.23293 -0.112424 0.5086503
-0.1976475 -0.078998446 0.5785746
-0.2304703 -0.092426747 0.51856887
-0.1731901 -0.2196452 0.63938141
-0.15115459 -0.2462358 0.67814308
-0.1133221 -0.075283349 0.56064337
-0.1533941 -0.26079711 0.6863693
-0.1728666 -0.09570691 0.63880318
-0.1364006 -0.2438505 0.70007539
-0.17675149 -0.2000453 0.63235962
-0.1162158 -0.075101987 0.4704192
-0.1575269 -0.16702551 0.66750908
-0.1669371 -0.25700861 0.64714003
-0.1441403 -0.1977891 0.70055902
-0.1394382 -0.092576683 0.70566231
-0.1745922 -0.091808021 0.62467867
-0.1758987 -0.1407745 0.62121427
-0.14182261 -0.25113869 0.70291132
-0.1349275 -0.085147686 0.45824429
-0.1731824 -0.081599191 0.55732518
-0.1566782 -0.07445097 0.65471917
-0.050671492 -0.074478254 0.46739829
-0.2022727 -0.15409 0.572294
-0.131383 -0.31771931 0.70453882
-0.066113994 -0.078986749 0.5141356
-0.01742137 -0.07416676 0.64464241
-0.100975 -0.37291181 0.69907218
-0.1079629 -0.3800981 0.70141423
-0.1970502 -0.079871103 0.55585808
-0.01139632 -0.37326309 0.65530813
-0.14909519 -0.079940751 0.51775593
0.01628661 -0.084415361 0.63496011
-0.074493527 -0.30375659 0.68050551
-0.1960866 -0.38505271 0.60119277
-0.21397179 -0.20292 0.55193228
-0.1801559 -0.080237143 0.484846
0.04528515 -0.1364768 0.62422848
-0.1770647 -0.1556547 0.62825018
-0.16047379 -0.087255299 0.65308452
-0.1315814 -0.31964111 0.69912833
0.04637064 -0.095338076 0.62342739
0.038315501 -0.1446718 0.6342485
-0.01455905 -0.37058139 0.65350819
0.01274069 -0.1066564 0.63918817
-0.092823371 -0.37200189 0.70259148
0.0056500132 -0.31817439 0.64702612
-0.041420661 -0.2443025 0.66372597
-0.1870718 -0.081606492 0.59546268
-0.226311 -0.19281951 0.52461278
-0.1512401 -0.35688561 0.69151241
-0.1359811 -0.36610559 0.70980471
-0.1037733 -0.3495428 0.69976562
-0.0074642152 -0.2705538 0.65772009
0.0205174 -0.14528009 0.63020128
0.038299251 -0.26156801 0.63552397
0.052029949 -0.1978444 0.61643308
-0.1774814 -0.079043999 0.61862552
-0.002770596 -0.34232739 0.65658408
-0.1720973 -0.14587361 0.64521557
0.017070791 -0.1033297 0.63185138
-0.032526448 -0.33756939 0.66060382
0.047207128 -0.2974523 0.62222952
-0.091092691 -0.2445168 0.69050097
-0.051707961 -0.31777051 0.67510152
-0.1272731 -0.38292149 0.71095532
0.048283111 -0.25378221 0.62514418
0.03751291 -0.3070685 0.63483977
0.024026239 -0.3681381 0.63758957
-0.003096716 -0.3738018 0.65967989
-0.185028 -0.085453883 0.61155897
-0.218439 -0.079847053 0.5207029
-0.22798871 -0.15890031 0.52696657
-0.1892689 -0.12985151 0.59886491
-0.1912221 -0.1871046 0.60646123
-0.052635439 -0.079194367 0.47075531
0.043380979 -0.2264827 0.62375432
0.001197219 -0.2477387 0.64837772
0.046923101 -0.2673485 0.62519741
-0.2191868 -0.16287211 0.55244517
-0.2137696 -0.2147406 0.5492695
0.02661334 -0.1013912 0.64112812
0.04692303 -0.3068414 0.6252721
0.047510061 -0.21176 0.61782253
-0.01680474 -0.2889044 0.65406811
-0.065998517 -0.3254737 0.67799598
-0.01358936 -0.3262628 0.65698248
0.02276521 -0.3488169 0.638695
-0.00061911339 -0.36946729 0.66745001
0.037076648 -0.3627992 0.63254869
0.01357314 -0.27973899 0.6390062
0.056291621 -0.384718 0.62527537
-0.080746628 -0.20375749 0.68763518
-0.01517959 -0.38018861 0.66088688
-0.1462431 -0.36114189 0.68081701
-0.041719269 -0.3744261 0.65661001
-0.19502319 -0.080621533 0.49482301
-0.2099715 -0.091256753 0.54992968
-0.1803354 -0.1055976 0.61802959
-0.18739989 -0.093667977 0.59314889
-0.15181769 -0.089276128 0.67188549
-0.15501121 -0.34083119 0.68520278
-0.1687292 -0.09404707 0.64047343
-0.04565895 -0.28000471 0.66844338
-0.025251631 -0.30385879 0.6595642
0.054363791 -0.15651301 0.6060859
-0.027754139 -0.34536651 0.65405798
-0.1025877 -0.22992159 0.69314432
0.02727513 -0.17133839 0.63428593
0.038787149 -0.18266401 0.63625902
-0.02383817 -0.224682 0.65000749
-0.041316342 -0.24760009 0.66565973
-0.018619429 -0.083336987 0.65467519
-0.1260931 -0.2228552 0.69802427
0.01957925 -0.1150865 0.63770169
-0.14591929 -0.3326796 0.69465989
-0.09138529 -0.2160197 0.68992633
-0.076164573 -0.37410641 0.68342179
-0.1400474 -0.37988541 0.70158827
-0.091020063 -0.26023591 0.68910402
0.038923532 -0.090499908 0.63237143
-0.069639787 -0.3630912 0.68542713
-0.01174882 -0.18752269 0.65368092
-0.1335257 -0.38130349 0.7124182
-0.1658362 -0.37235481 0.67164361
-0.03668683 -0.3740502 0.66583139
-0.084962547 -0.349244 0.68790382
0.024322091 -0.21532349 0.63672268
-0.12907811 -0.30280551 0.70383209
-0.08321844 -0.2365799 0.67871058
-0.0098434761 -0.22966591 0.64866889
0.043131828 -0.37385431 0.63070363
-0.112854 -0.36296979 0.69545811
-0.01171009 -0.35479021 0.65144181
0.031776749 -0.27860811 0.62858683
-0.052334629 -0.37473461 0.66813022
0.0372147 -0.1164337 0.63288081
-0.02381127 -0.26696661 0.65855992
0.06028885 -0.36027899 0.61831778
-0.065678246 -0.35037041 0.6760087
-0.082756117 -0.3045013 0.68565792
0.066539988 -0.2913368 0.62096578
-0.096063212 -0.080676347 0.54344451
-0.1796184 -0.083597347 0.49191561
-0.1249586 -0.083151519 0.56674308
-0.1464106 -0.091159374 0.4463906
-0.065553486 -0.081779003 0.456025
-0.1043692 -0.07570222 0.58545339
-0.1165656 -0.073718131 0.54962271
-0.1309824 -0.072216243 0.55381978
-0.20297889 -0.1322201 0.56907052
-0.22113059 -0.099454552 0.53276712
-0.14572001 -0.082210511 0.59330392
-0.02466153 -0.1086122 0.65077358
-0.023992579 -0.074595869 0.63132459
0.06068508 -0.159439 0.60076451
-0.03374492 -0.097241819 0.66404372
0.0041155522 -0.1126437 0.64166743
-0.074545167 -0.1476028 0.68553609
0.01302326 -0.36871219 0.62779528
-0.1023274 -0.37040779 0.69609243
-0.2126684 -0.081067383 0.52196687
-0.1822643 -0.1038665 0.61071098
-0.206663 -0.19353931 0.54072207
-0.079471737 -0.2212555 0.6767599
0.027663561 -0.36571491 0.75424272
0.003389633 -0.35077131 0.64901811
-0.037852291 -0.29685339 0.66430372
-0.055652689 -0.3502301 0.67336911
-0.068468504 -0.38077369 0.68236572
0.02744852 -0.091411591 0.63228452
0.021034939 -0.3156853 0.64471298
-0.02349137 -0.098273613 0.64781427
0.023702839 -0.3534652 0.63538402
0.007530957 -0.2018864 0.64086151
-0.0016162629 -0.29492369 0.65077502
-0.0076078922 -0.26109639 0.64598972
0.01101048 -0.1896679 0.63894778
0.061051261 -0.2551325 0.62606061
-0.04119334 -0.3458842 0.66834837
0.05145384 -0.16255081 0.61727113
0.055439349 -0.3629255 0.61851943
0.01457158 -0.2308456 0.62944621
-0.053771678 -0.083602101 0.5073241
0.050947729 -0.1874458 0.6152662
0.047858581 -0.28301719 0.6238758
0.068173803 -0.38188019 0.63338482
0.03936781 -0.17253719 0.62567598
0.066292107 -0.3054159 0.61057758
-0.1988207 -0.08225055 0.57097512
-0.2260211 -0.087552257 0.52611071
0.041028708 -0.092158817 0.62888658
0.023816019 -0.08077243 0.63551569
0.02917641 -0.1047266 0.63383889
0.039694309 -0.14749131 0.62895942
0.006325155 -0.074544892 0.51947618
0.024442291 -0.079841383 0.5740149
-0.1038124 -0.37042099 0.69776231
0.037833542 -0.30788249 0.63385242
0.038979892 -0.26408359 0.63021308
0.047022071 -0.2911891 0.62894511
0.03663981 -0.1861892 0.63066089
0.04565021 -0.2569755 0.62196678
0.04345426 -0.186425 0.63119411
-0.1008939 -0.38415 0.69420141
-0.090228111 -0.3814131 0.69570988
0.03145453 -0.2214849 0.63486958
-0.13080519 -0.38122571 0.71154451
-0.1124863 -0.29325959 0.70426089
-0.106921 -0.37572649 0.70447481
-0.090122819 -0.31106851 0.69419461
-0.0874888 -0.34679911 0.68918359
-0.069908947 -0.36529961 0.68356991
0.01891375 -0.1161975 0.63814813
-0.07390517 -0.073698819 0.46225119
0.036782291 -0.1462442 0.63016468
0.029844141 -0.27659419 0.63740611
0.061238829 -0.3451809 0.62169242
0.049108058 -0.1773102 0.62511438
0.055618111 -0.2514489 0.61029392
-0.1264317 -0.2100811 0.70361829
-0.1245299 -0.2374889 0.70478737
-0.1164369 -0.1713689 0.70064908
-0.1336834 -0.2226696 0.70769137
-0.1384642 -0.1959886 0.71279871
-0.1333618 -0.2431784 0.7074514
-0.1020766 -0.228761 0.69551891
-0.1395577 -0.3302435 0.70461762
-0.091412753 -0.24494749 0.69003481
-0.1163452 -0.1985009 0.70368493
-0.1143052 -0.2428557 0.70262998
-0.091268063 -0.2159593 0.68875128
-0.1134859 -0.2263473 0.70293868
0.0093809962 -0.075095318 0.55885011
-0.026311429 -0.080115803 0.49607971
0.01682174 -0.078741863 0.52570778
0.020032531 -0.078704938 0.54536659
0.0042962432 -0.078750446 0.56731641
0.00198704 -0.081723407 0.49813369
-0.01045984 -0.078436561 0.48429221
0.055767979 -0.2200776 0.6120584
-0.01226595 -0.078064188 0.60226172
-0.029722059 -0.075369582 0.5569073
0.01244625 -0.24695329 0.64268059
0.026447769 -0.1036344 0.63568151
0.059047971 -0.213063 0.62473452
-0.024065761 -0.07246916 0.5822196
-0.1104977 -0.2344259 0.69744837
0.031746659 -0.1556817 0.63358712
0.052853141 -0.090450659 0.62216687
0.024957331 -0.091730133 0.63266391
-0.072500877 -0.3073259 0.68275738
-0.092092574 -0.26322061 0.69035751
-0.1152966 -0.1534798 0.70187879
-0.075323403 -0.2952548 0.68516731
-0.083015919 -0.2323945 0.6856156
0.016392229 -0.07721673 0.5772202
-0.08560136 -0.07961145 0.52694231
-0.098694801 -0.077200823 0.51495868
0.06084824 -0.076462157 0.60859472
0.030485841 -0.081103981 0.57327849
0.063912511 -0.07997039 0.60961449
0.066791952 -0.080604337 0.61608458
0.01321769 -0.32495341 0.64444488
0.05228084 -0.078051247 0.62334877
0.043392088 -0.2290215 0.62579107
0.0548192 -0.28329071 0.61222088
0.042363022 -0.076062158 0.60462391
-0.02192807 -0.076873161 0.60401601
-0.0078631938 -0.1911034 0.4642278
-0.016684201 -0.075398609 0.58831871
0.055748489 -0.28612471 0.60897303
-0.083228409 -0.3037698 0.68921012
0.01059029 -0.16835231 0.51105553
0.0198665 -0.1789019 0.52551872
0.062428389 -0.1094729 0.60865891
0.052233819 -0.26148891 0.62236267
-0.1671686 -0.079566456 0.63622111
-0.05542678 -0.34776571 0.67774642
-0.073970653 -0.3740494 0.682172
-0.045080781 -0.077305391 0.59088278
-0.098912448 -0.076863937 0.55230713
-0.056891441 -0.075179107 0.45357701
-0.052301679 -0.077748813 0.43340221
-0.02883303 -0.077448502 0.59172678
-0.072116263 -0.082834512 0.49909601
-0.058117181 -0.076736271 0.44237369
-0.12148 -0.079985373 0.49288121
-0.01577419 -0.075639643 0.57064742
-0.070365757 -0.084128529 0.45848641
-0.01445109 -0.074506491 0.55080158
-0.096814603 -0.075719953 0.49172959
-0.007587492 -0.079867229 0.56965548
-0.085570067 -0.069860883 0.51010859
-0.087516516 -0.082309142 0.49602941
-0.05908227 -0.073381737 0.58378452
0.055630062 -0.078505807 0.61898661
-0.04305831 -0.2176612 0.39207199
-0.0052680671 -0.18201549 0.47250941
0.059079621 -0.1012048 0.60656607
0.051616728 -0.1278507 0.62858647
0.056803789 -0.092129678 0.59851241
0.051913772 -0.1072865 0.58753729
0.001907706 -0.1757006 0.49542561
0.04397184 -0.132156 0.56690419
-0.1265285 -0.21138661 0.70396012
0.03092611 -0.2410028 0.63648331
0.01317903 -0.155469 0.51224118
-0.06690082 -0.072645158 0.57758683
0.006523401 -0.18947759 0.49454159
-0.065568447 -0.31767929 0.68076849
-0.13316821 -0.2634123 0.71090019
0.01075473 -0.1566233 0.52056342
-0.002640635 -0.2839919 0.47510901
0.05858624 -0.21739089 0.60163403
-0.003346056 -0.3024503 0.47254479
0.064089447 -0.13169061 0.61277872
0.031104481 -0.1567333 0.54447281
0.02062672 -0.096471608 0.52539372
0.051051229 -0.124658 0.58475941
0.0323078 -0.256102 0.6349467
-0.1198834 -0.073416643 0.4528589
0.058482651 -0.1121698 0.62119669
0.057512369 -0.13671289 0.62034112
0.057392418 -0.1530053 0.59767127
0.0043125148 -0.1891489 0.48404121
0.026824649 -0.28872171 0.53989053
0.03149781 -0.078698538 0.5586369
0.027314311 -0.086026452 0.54148448
0.053966701 -0.2120133 0.59659022
-0.03956509 -0.34816369 0.4162021
0.01474428 -0.084414437 0.51656348
0.041076601 -0.094176836 0.56232882
0.01340276 -0.137591 0.51977593
0.042744759 -0.27824011 0.56536591
0.02804005 -0.2128232 0.54127008
-0.01239634 -0.2266553 0.44997111
0.05564386 -0.37375721 0.59017348
0.019748749 -0.2335467 0.52459532
-0.032653209 -0.25177431 0.41981509
-0.029735619 -0.29746929 0.42125899
0.054398779 -0.28468099 0.61367798
-0.03573006 -0.27269411 0.40827861
0.002860785 -0.081180617 0.53888857
0.041340228 -0.31671789 0.56706089
-0.01068985 -0.37811491 0.45914599
0.01469159 -0.3160657 0.51540953
-0.024275539 -0.1871686 0.43486741
0.01328492 -0.37529719 0.50575
0.05084002 -0.086126879 0.59657341
0.046770271 -0.14937951 0.62452149
-0.01297873 -0.15946721 0.4534041
0.0056684022 -0.20086481 0.4947921
0.026062369 -0.3004162 0.54133922
0.0033600931 -0.087592907 0.49121091
0.01029789 -0.1757434 0.52154458
0.016561629 -0.3300623 0.52043092
0.01066577 -0.3202861 0.50383991
-0.019079391 -0.13822301 0.43651539
0.0123893 -0.3498452 0.50686008
0.01112127 -0.3230572 0.49197581
-0.1044812 -0.082974628 0.4604587
-0.01413471 -0.35581979 0.45579401
-0.02908957 -0.23290171 0.42284679
0.050448362 -0.14725611 0.59647709
0.054116309 -0.1203047 0.59754002
0.050073031 -0.1057909 0.58573139
-0.02431065 -0.080321327 0.48562509
-0.190892 -0.080138698 0.53345549
0.008757174 -0.2459784 0.50099891
0.046128809 -0.26878199 0.58051097
-0.035534259 -0.102558 0.41443551
-0.039934341 -0.080814913 0.481231
-0.2244433 -0.087104663 0.50809789
-0.01390189 -0.1826373 0.45277271
-0.006682694 -0.1927391 0.46564591
-0.021640239 -0.2122125 0.43941739
-0.01288229 -0.078540012 0.54862249
0.026866971 -0.080260471 0.57374388
0.001444876 -0.077122822 0.56866479
-0.031328019 -0.080110773 0.58441281
-0.069154918 -0.078743592 0.6124292
-0.031911671 -0.080232367 0.61514682
0.041793112 -0.2288449 0.5654403
0.050621148 -0.19140451 0.58115458
0.03046459 -0.079499021 0.61817431
-0.064886928 -0.082132831 0.43739381
-0.090619273 -0.083274953 0.52916151
0.0094769597 -0.141267 0.51682329
0.0090795755 -0.1631905 0.5020256
0.02315497 -0.17538521 0.55173278
0.051283181 -0.1995928 0.60997581
-0.03145295 -0.29070401 0.40889019
-0.1087288 -0.38519919 0.75474137
-0.099121027 -0.37423551 0.69871742
0.058428168 -0.29740131 0.60589677
-0.1481934 -0.075811043 0.61576909
0.032680929 -0.1831632 0.54312652
0.017872211 -0.1941182 0.50957042
0.0520606 -0.1481794 0.58310032
-0.1034349 -0.069002733 0.44919929
-0.096079953 -0.071065858 0.53713
0.002615035 -0.089534737 0.48203391
0.019601289 -0.2126455 0.49988011
0.031475991 -0.17722119 0.54334247
0.0057835281 -0.1685755 0.50417852
0.05465135 -0.31347141 0.5925895
0.020487729 -0.3282685 0.5201627
0.005783468 -0.084348157 0.49177679
0.044684649 -0.23889101 0.56965572
0.053351492 -0.080254309 0.59434211
0.051051471 -0.078777976 0.60805619
0.037703682 -0.2685003 0.63010222
0.05896014 -0.36459261 0.6163938
0.05578813 -0.077587239 0.61607111
0.0202851 -0.077258587 0.5427742
0.059870992 -0.083527207 0.61384249
0.05965415 -0.2177932 0.60244989
0.052777231 -0.2451272 0.59360009
-0.0015831291 -0.2082843 0.4800342
-0.097634733 -0.074220158 0.66963851
0.05295388 -0.1017847 0.61873269
0.054384109 -0.14248011 0.58291447
0.04984105 -0.13196421 0.5730179
-0.1086917 -0.38066569 0.70669812
-0.0045487578 -0.085383743 0.48616919
0.04641813 -0.2113172 0.62599587
0.053794209 -0.22082821 0.61946929
0.060767621 -0.1895003 0.61717921
0.058162659 -0.100321 0.60618401
-0.093681313 -0.35559911 0.68663722
-0.056828361 -0.3227047 0.67236668
0.034648109 -0.3110511 0.63386142
0.0098526478 -0.3546536 0.64714438
0.021503961 -0.3665666 0.64243758
0.049192369 -0.28769261 0.62484252
-0.066816509 -0.32149121 0.68391728
0.0056698322 -0.22282571 0.49143299
-0.1436452 -0.2248701 0.71458828
0.037404839 -0.18922959 0.63049769
-0.1701344 -0.078617267 0.63719612
-0.065949857 -0.085266776 0.67404658
-0.1027341 -0.1236363 0.68750328
0.045691218 -0.13303331 0.62391633
-0.08008644 -0.08246801 0.67759871
-0.0032352209 -0.32097 0.64748549
-0.064711303 -0.35427281 0.67351961
-0.01559699 -0.36584401 0.66238832
0.040660951 -0.2604757 0.62104982
0.044904262 -0.29367331 0.62999147
0.051100891 -0.31852499 0.61236989
0.052161749 -0.26450011 0.62405002
0.0084332526 -0.2825346 0.64036798
0.0095567554 -0.33266521 0.64147311
0.036060479 -0.2688362 0.63210273
0.057077851 -0.28425819 0.61089492
-0.002012305 -0.3532767 0.65059328
0.05443963 -0.37155491 0.59562051
-0.066479713 -0.114174 0.67147863
-0.1051092 -0.07333108 0.66495359
0.0071438551 -0.079548441 0.56105071
-0.089280427 -0.30825841 0.68699032
-0.03024739 -0.38094571 0.4088324
-0.016219649 -0.32677501 0.66031218
-0.055618551 -0.37950161 0.66960549
0.05346984 -0.30430019 0.62669683
-0.01567447 -0.086218588 0.44163981
0.040585522 -0.07751637 0.56495148
-0.1067576 -0.33977801 0.69779128
0.062057849 -0.1035125 0.6199019
0.05709368 -0.2075194 0.61242741
-0.10568 -0.079808787 0.68075758
-0.079422466 -0.37624189 0.67955589
0.041274641 -0.3162151 0.61719012
-0.1409149 -0.37225649 0.7094878
-0.1209456 -0.36472991 0.70020008
0.03024346 -0.1598586 0.54385161
-0.17461079 -0.076935612 0.62339938
0.01485527 -0.24650919 0.5043962
0.042427719 -0.076016329 0.58121681
-0.071984828 -0.073402308 0.46329331
-0.099786848 -0.3184073 0.69057339
-0.101155 -0.25060669 0.6869005
0.033734079 -0.36379299 0.63567072
0.027736491 -0.232761 0.53797579
0.056822509 -0.3529413 0.6191926
-0.01228547 -0.3686429 0.6619941
0.038210269 -0.35371441 0.54879242
-0.1133842 -0.37861961 0.69424319
-0.02551863 -0.3042697 0.42850831
0.037589911 -0.26643521 0.55740571
-0.1034544 -0.2236186 0.6848346
0.05001381 -0.2784003 0.58342272
0.063136458 -0.35120821 0.63485491
-0.1025831 -0.077956669 0.51105481
-0.085137427 -0.384673 0.69301641
-0.01363112 -0.35437229 0.65597802
-0.1066372 -0.074049823 0.68364918
-0.077147752 -0.1131295 0.67500228
0.020803539 -0.17611539 0.52491838
-0.076111346 -0.13197 0.67824048
-0.1840934 -0.079447128 0.60392088
-0.1186699 -0.2402873 0.69634467
0.019384149 -0.1179174 0.63925159
-0.021536531 -0.077723414 0.60448807
-0.069030114 -0.2384845 0.67871171
-0.1012325 -0.075296633 0.66583532
-0.061578009 -0.085234448 0.6763413
-0.1091277 -0.2336856 0.69310498
-0.069102056 -0.079675332 0.66841358
-0.1405413 -0.32486239 0.70342273
-0.057059269 -0.085138977 0.68864989
-0.1208456 -0.1730915 0.7010721
-0.082565673 -0.077806763 0.4535684
-0.1297863 -0.1954197 0.70484781
-0.1339367 -0.079693124 0.63147712
-0.1178565 -0.079578608 0.57852691
-0.1122765 -0.081629589 0.69436711
-0.068025433 -0.076600596 0.66484952
-0.14823981 -0.25435731 0.69652092
-0.094913557 -0.079071857 0.62259191
-0.071818098 -0.1101685 0.6819874
-0.1026132 -0.073956773 0.69818479
-0.06115998 -0.098377272 0.67589831
-0.1351622 -0.15509281 0.69772398
-0.089898601 -0.080323517 0.68692529
-0.15937001 -0.077061057 0.48977509
-0.1209731 -0.15740921 0.7010417
-0.1182909 -0.24551409 0.70291501
-0.1211973 -0.1316705 0.70166922
-0.1386721 -0.2244522 0.7096976
-0.1085586 -0.23428871 0.69335258
-0.1062902 -0.2132262 0.69944978
-0.064292237 -0.1147416 0.6743899
-0.1351721 -0.25700361 0.70699799
-0.1001193 -0.1224938 0.69019169
-0.1340076 -0.30446059 0.70674312
-0.098272219 -0.1203344 0.68996358
-0.1150249 -0.2371373 0.69838321
-0.1311947 -0.26310271 0.70694143
-0.1911024 -0.081979297 0.60067481
-0.053507749 -0.075373784 0.63227898
-0.1104208 -0.081360713 0.5398522
-0.089269891 -0.0735576 0.61397791
-0.1064942 -0.080259249 0.4886426
-0.1613149 -0.079326473 0.66493392
-0.13083179 -0.1882679 0.70265961
-0.12930501 -0.073701009 0.50820369
-0.13011891 -0.14793611 0.70035172
-0.1387921 -0.076272488 0.48066229
-0.123516 -0.076266363 0.52733552
-0.132319 -0.2022438 0.71286368
-0.1991291 -0.078663483 0.57834631
-0.15583549 -0.079749718 0.60047781
0.040960882 -0.312527 0.61893427
-0.047878589 -0.080903441 0.48801181
-0.0093584945 -0.075249687 0.62654042
-0.0283134 -0.22111049 0.65876102
0.01282549 -0.3218382 0.64688659
0.01271856 -0.35296851 0.64688218
-0.00064015388 -0.3550328 0.64864099
-0.001541167 -0.080758773 0.50680572
0.01694119 -0.079162933 0.6308803
0.027841991 -0.07560429 0.62711501
0.03474012 -0.1480758 0.62999701
0.054932531 -0.076791734 0.62884718
0.039796919 -0.2274567 0.62768728
0.034315139 -0.31275091 0.63254291
0.037061449 -0.26660049 0.62938529
0.031077471 -0.1878106 0.63766938
0.045999348 -0.2139104 0.62498301
0.0457705 -0.2931762 0.63004881
0.02552858 -0.22054601 0.64013952
0.035488989 -0.1863434 0.63329422
0.022991991 -0.36557329 0.64237052
0.026675969 -0.2236075 0.63353741
0.01448736 -0.32170379 0.63927728
0.040310111 -0.37194809 0.614748
0.03926402 -0.2358406 0.63300049
0.048494522 -0.265874 0.62160552
0.02446261 -0.2449605 0.63319892
