# .PCD v0.7 - Point Cloud Data file format
VERSION 0.7
FIELDS x y z normal_x normal_y normal_z curvature
SIZE 4 4 4 4 4 4 4
TYPE F F F F F F F
COUNT 1 1 1 1 1 1 1
WIDTH 588
HEIGHT 1
VIEWPOINT 0 0 0 1 0 0 0
POINTS 588
DATA ascii
0.054909531 -0.37379169 0.5184136 0.040544756 -0.99775445 0.053312309 0.061873086
0.068914592 -0.37379169 0.51575714 0.11759935 -0.9916389 0.05313006 0.075486846
0.076737918 -0.37379169 0.51566869 0.14088723 -0.98834968 0.057582267 0.085628904
0.086107291 -0.37379169 0.51499182 0.13697311 -0.98776025 0.074619584 0.097814344
0.093573257 -0.37379169 0.51405191 0.23915838 -0.96656674 0.092477709 0.11851092
0.10546644 -0.37379169 0.51625341 0.34960571 -0.92607653 0.14197937 0.14054433
0.11083245 -0.37379169 0.51536149 0.27598271 -0.95870686 0.068663619 0.13553745
0.12393428 -0.37379169 0.51346421 0.10225887 -0.98886007 -0.10816151 0.12038215
0.1338696 -0.37379169 0.51127899 0.1118051 -0.98879176 -0.098946676 0.11848943
0.1602442 -0.37379169 0.51057512 0.15336126 -0.96623266 -0.20706238 0.13489617
0.2094285 -0.37379169 0.51819968 0.64269221 -0.7417596 0.19167535 0.24516276
0.21377981 -0.37379169 0.51627803 0.74545592 -0.66251516 0.073274381 0.23655787
0.226198 -0.37379169 0.51357037 0.92297947 -0.31726161 0.21783921 0.20394334
0.22123167 -0.33196408 0.51357186 0.97631258 -0.15960126 0.1460861 0.18760927
-0.15520278 -0.32120126 0.51602787 -0.96123779 -0.19767702 -0.19221272 0.13183977
0.20892304 -0.32119793 0.51357532 0.95836085 0.064987555 0.27806672 0.28565118
0.21184471 -0.32604781 0.51952857 0.90647382 -0.0023934499 0.42225522 0.25667119
0.22574008 -0.3143979 0.51007259 0.97018445 -0.028132726 0.24072973 0.15498184
-0.16813353 -0.29747781 0.51874399 -0.8946858 0.032040991 -0.44554543 0.041237753
0.08888039 -0.29642302 0.51222837 0.86240673 -0.020268457 0.50581008 0.05902509
-0.1719093 -0.28295773 0.51085091 -0.86154616 -0.038723186 -0.50620031 0.041733511
0.094664015 -0.28899634 0.51652759 0.8845486 0.047761284 0.46399647 0.073026352
0.10822476 -0.28528446 0.5184862 0.92260593 0.23822258 0.30339468 0.10602766
-0.16652341 -0.27640671 0.5198288 -0.90343404 -0.004786483 -0.42870045 0.091224276
0.095944747 -0.27452403 0.51321703 0.90421438 0.022341477 0.426494 0.066893898
-0.16107112 -0.26420826 0.51515317 -0.92143226 0.021048194 -0.38796848 0.095924184
-0.15902895 -0.26098502 0.5120616 -0.90819567 0.026034825 -0.41773531 0.090936981
-0.16279697 -0.24383624 0.51180083 -0.99941272 0.0037426879 -0.034062147 0.11693715
-0.15846129 -0.24600632 0.51662821 -0.96337706 -0.0025180108 0.26813865 0.12519193
0.083024412 -0.22780357 0.51870883 0.920358 -0.032370396 0.38973492 0.066794664
0.091599934 -0.22686681 0.51694751 0.93106383 -0.024686888 0.36402023 0.068388149
-0.16631047 -0.21663448 0.51209641 -0.92153811 -0.0027377845 0.38827834 0.074677691
-0.16710745 -0.20544751 0.51157075 -0.83394474 -0.028987905 0.55108619 0.04774379
0.10942216 -0.20397778 0.51587671 0.93197191 -0.031730328 0.36113927 0.064369842
0.083409794 -0.190688 0.51706278 0.9134621 0.0018792973 0.40691951 0.065302648
0.12474138 -0.19362842 0.51495135 0.97268468 -0.034627769 0.22953312 0.065518662
-0.16352862 -0.18785171 0.51291215 -0.83188522 -0.056544974 0.55205947 0.04351287
0.087064035 -0.18145084 0.51240021 0.91189861 0.014063948 0.41017467 0.066574916
0.098660007 -0.18998729 0.51485288 0.91702211 -0.015839195 0.39852178 0.0632587
0.12516025 -0.18573208 0.51001805 0.97676849 -0.047689177 0.20892358 0.060279757
-0.16170239 -0.17714974 0.51804674 -0.78564578 -0.067571409 0.61497539 0.038036682
-0.16121697 -0.15036015 0.51195246 -0.75207472 -0.0054610046 0.65905523 0.020588333
-0.16078299 -0.14133535 0.51760507 -0.75579065 -0.005147188 0.65479314 0.020489348
-0.1628146 -0.13067892 0.51087213 -0.7908864 0.029371373 0.61125785 0.050265905
-0.15979832 -0.12176631 0.51160669 -0.78953308 0.0075083268 0.61366212 0.05801291
0.10093324 -0.1275073 0.5141173 0.91918725 0.11436069 0.37685072 0.051999807
-0.16213857 -0.11757222 0.51179647 -0.78908134 0.0016428035 0.6142866 0.053428747
0.071038403 -0.11725392 0.51829201 0.84471089 0.092095867 0.52723986 0.046889137
0.092985779 -0.11510302 0.51128912 0.90656304 0.12024169 0.40458053 0.056892503
0.079193681 -0.10124826 0.51848716 0.84862661 0.12973356 0.51283729 0.042257715
0.084253743 -0.10260867 0.51684701 0.86424714 0.11980087 0.48859462 0.043776687
-0.16444254 -0.092280485 0.51623505 -0.82540727 0.10930168 0.5538556 0.071064882
0.078282908 -0.095264919 0.51887506 0.83975536 0.14416513 0.52347612 0.04076213
0.082107916 -0.094097167 0.51571405 0.86070424 0.14128093 0.48910931 0.047532082
-0.16172732 -0.08593072 0.51012254 -0.87879503 0.20700313 0.42996401 0.093680918
-0.1557283 -0.08560697 0.51909918 -0.81020349 0.22122498 0.54279828 0.084260896
0.098568402 -0.081531934 0.51887608 0.86165065 0.14566563 0.48614788 0.049305394
0.1214953 -0.079903997 0.51371223 0.8879326 0.080438614 0.45288563 0.050892796
-0.18358919 -0.053003751 0.51756394 -0.86244047 0.35150537 0.36419851 0.11627699
-0.16814442 -0.045714933 0.51384425 -0.84890032 0.46423686 0.25269035 0.11130098
-0.15888079 -0.039660949 0.51950562 -0.75272316 0.54380995 0.37105078 0.12026857
0.055540297 -0.031885631 0.51861238 0.41197658 0.85769886 0.30761662 0.12630364
0.11512937 -0.031749684 0.51020336 0.85942268 0.33211628 0.3887049 0.087988406
-0.14725436 -0.029652825 0.51993829 -0.67869329 0.63475883 0.36940035 0.11924369
-0.10597047 -0.026283991 0.51321638 -0.43354636 0.84904206 0.30193576 0.1035497
-0.0063155941 -0.020089583 0.511069 0.036350265 0.99895304 0.027775338 0.013415962
0.0081416294 -0.022568183 0.51194322 0.06199668 0.99654585 0.055252649 0.020364625
0.033084963 -0.020115217 0.5154072 0.10097644 0.98745668 0.12137976 0.056979928
0.069032118 -0.023820248 0.51342309 0.3943972 0.87502444 0.28068334 0.11365125
0.075149544 -0.027731776 0.51502246 0.64928991 0.66524619 0.36860573 0.11522913
0.0013626235 -0.013882271 0.51944923 0.056899477 0.99709654 0.050606102 0.017973378
-0.17344755 -0.37379169 0.52392799 -0.6338712 -0.75740767 0.15665542 0.17521127
-0.16605707 -0.37379169 0.52511829 -0.58684576 -0.79103225 0.17285848 0.15653846
-0.15433072 -0.37379169 0.52416307 -0.50287062 -0.85339218 0.13726994 0.15692103
-0.1453542 -0.37379169 0.52251899 -0.42137551 -0.89969647 0.1139695 0.14566536
-0.13583447 -0.37379169 0.52676028 -0.28290018 -0.95099425 0.12480949 0.10284398
-0.1255586 -0.37379169 0.52517688 -0.2189762 -0.97193408 0.085986316 0.088551216
-0.11334106 -0.37379169 0.52622765 -0.14516327 -0.98840237 0.044591174 0.06985601
-0.108452 -0.37379169 0.52871501 -0.11343089 -0.99336433 0.018995525 0.048558474
-0.093636014 -0.37379169 0.52012849 -0.00024502553 -0.99999982 -0.00060359744 0.00011911691
-0.087746322 -0.37379169 0.52758271 -8.6369997e-05 -0.99999994 -0.00039492588 0.000116056
0.0048767482 -0.37379169 0.52653652 0.0063419677 -0.99994314 0.0085768811 0.0092923287
0.02316892 -0.37379169 0.52600127 0.0021882942 -0.99971819 0.023640079 0.031860933
0.0592857 -0.37379169 0.52481592 0.057361331 -0.99729621 0.045933958 0.067198128
0.06577222 -0.37379169 0.52622563 0.074321963 -0.99576908 0.054039415 0.072970122
0.074507177 -0.37379169 0.52465206 0.14793313 -0.98567379 0.081013158 0.10922369
0.083530419 -0.37379169 0.52318972 0.12254132 -0.98980236 0.072628535 0.091892995
0.097156517 -0.37379169 0.5251807 0.15466213 -0.98608387 0.060978372 0.11357918
0.10590075 -0.37379169 0.52399749 0.18624309 -0.98149562 0.04449572 0.11427151
0.1110053 -0.37379169 0.5286783 0.17554013 -0.98278558 0.057604134 0.09992113
0.1787314 -0.37379169 0.52629542 0.18304896 -0.89633453 0.4038285 0.16281801
0.18879589 -0.37379169 0.52813798 0.18315841 -0.87333357 0.45137742 0.18138637
-0.16836816 -0.34051809 0.52766544 -0.94087422 -0.31755176 0.11796867 0.13997725
-0.16123311 -0.30230039 0.52303165 -0.93505919 -0.014756481 -0.35418433 0.075790688
-0.15387307 -0.30750698 0.52808207 -0.99416959 -0.010130027 0.10735078 0.12908137
0.084350966 -0.3076272 0.52445954 0.87414593 -0.045046583 0.48356977 0.064433582
-0.16884726 -0.28272411 0.52275616 -0.91345602 0.012314457 -0.40675113 0.099556036
0.10253981 -0.28255391 0.52511716 0.91370767 0.20326765 0.35188147 0.10105199
-0.16592737 -0.27582797 0.52494776 -0.91541535 -0.00033141405 -0.40251043 0.09680438
-0.17362966 -0.26318964 0.52700347 -0.95201349 0.0090211267 -0.30592328 0.084192
0.072382428 -0.23936549 0.5297873 0.86502272 -0.013938704 0.50153911 0.052555311
0.084377952 -0.23310658 0.52377659 0.89887273 -0.037267067 0.4366222 0.059619997
0.099204943 -0.23543628 0.52868503 0.9117651 -0.044982705 0.40824139 0.05712771
0.1017517 -0.23152067 0.52665925 0.90968567 -0.051945969 0.412036 0.060427766
-0.16596559 -0.2156752 0.52010715 -0.81994331 0.0029661744 0.57243711 0.052322462
-0.16767719 -0.2048081 0.52859801 -0.79070598 -0.056679696 0.60956669 0.04303474
0.10267762 -0.20097081 0.5206697 0.90168738 -0.017307939 0.43204203 0.059473842
-0.16609718 -0.18953368 0.52646661 -0.81494641 -0.059725944 0.57645053 0.040018048
-0.16492315 -0.17770623 0.52962172 -0.77546155 -0.057631623 0.62875903 0.0381268
-0.1599537 -0.16469085 0.52495492 -0.74148196 -0.02510896 0.67050284 0.024315797
0.11167078 -0.1609326 0.52992451 0.86271966 0.030429872 0.50476617 0.049259763
-0.15607227 -0.15571487 0.52852827 -0.74893469 -0.013491818 0.66250646 0.021810815
0.1054697 -0.15825348 0.52957988 0.86639255 0.031899314 0.49834362 0.047606967
-0.1587559 -0.14620003 0.52711463 -0.74901944 -0.0049483338 0.66252953 0.020717544
-0.15613417 -0.13481702 0.52601153 -0.74280733 -0.015601446 0.66932344 0.020880204
0.099066585 -0.13243228 0.52572429 0.87667775 0.10655192 0.46912986 0.050498322
0.097207747 -0.12120173 0.52105498 0.89110911 0.15639785 0.4259862 0.052979283
-0.16296536 -0.11108948 0.52678621 -0.76193076 0.016708858 0.647443 0.048654322
-0.15934956 -0.11576602 0.52925122 -0.75332779 0.0048346249 0.65762746 0.049406514
0.090959623 -0.11408336 0.52506071 0.85899282 0.14858678 0.48995245 0.042287894
0.076847591 -0.10677823 0.52168298 0.84743464 0.17343798 0.50177068 0.038059317
-0.16647148 -0.094163306 0.52311671 -0.79154354 0.062050469 0.60795432 0.0535722
-0.15023509 -0.085906349 0.52257884 -0.80756998 0.23429076 0.54123801 0.084976792
-0.14835882 -0.086934328 0.5243032 -0.78434771 0.21450281 0.58205438 0.082083754
-0.13909465 -0.089885548 0.52415556 -0.7519393 0.2402312 0.61390257 0.08270321
0.072504878 -0.081128396 0.52593809 0.82094735 0.18539749 0.54006791 0.053196583
0.094428182 -0.084450424 0.52708822 0.83717281 0.11457659 0.53480262 0.04145135
-0.17681342 -0.054985799 0.52300632 -0.85509932 0.33557504 0.3952145 0.11420152
-0.16525988 -0.047806595 0.52368063 -0.79837859 0.43078983 0.42072767 0.12198748
-0.15448241 -0.037079915 0.52146989 -0.72714365 0.55418521 0.4051429 0.11977642
-0.14475089 -0.030700302 0.52421308 -0.66459477 0.62440836 0.41039973 0.11684364
0.065007471 -0.031686578 0.52582783 0.58481127 0.70106286 0.4080523 0.11972301
-0.14167416 -0.029459588 0.52424318 -0.6364302 0.64714086 0.41972056 0.11647042
-0.12513098 -0.02733086 0.52540839 -0.58767688 0.68385482 0.43241021 0.10426471
-0.11174182 -0.027472472 0.52844572 -0.52329224 0.73948115 0.4234772 0.10244792
-0.094713524 -0.027699254 0.52427369 -0.36519971 0.88280779 0.29543105 0.097703636
0.065071121 -0.026405867 0.5268693 0.54418749 0.74351794 0.38864002 0.11619453
0.094880141 -0.028085813 0.52325445 0.80485046 0.40086609 0.43763241 0.087007158
0.10640463 -0.028512876 0.52231598 0.8329615 0.31800336 0.4528234 0.077290952
-0.087031685 -0.016444918 0.52053928 -0.23044415 0.95755768 0.1731438 0.064646043
0.02316892 -0.01576698 0.52600127 0.086906977 0.98981637 0.11274209 0.050649554
0.067812741 -0.014325393 0.52719688 0.3711656 0.88312685 0.28692004 0.098064393
-0.1812814 -0.37379169 0.53664303 -0.72417194 -0.61028838 0.3211281 0.2069772
-0.17108464 -0.37379169 0.53352648 -0.64424449 -0.73020554 0.22748406 0.17916106
-0.16537276 -0.37379169 0.53449601 -0.54867852 -0.80669284 0.21954165 0.17182925
-0.15483472 -0.37379169 0.53478676 -0.46740964 -0.85889548 0.20934874 0.15285851
-0.14797127 -0.37379169 0.53285068 -0.40576029 -0.89519292 0.18435894 0.13614686
-0.13573349 -0.37379169 0.53617257 -0.27802488 -0.95242703 0.12483954 0.099498086
-0.1244732 -0.37379169 0.53577852 -0.22487418 -0.97053099 0.086610071 0.088496849
-0.1158311 -0.37379169 0.5398249 -0.16574003 -0.98298496 0.079189047 0.066014647
-0.1051064 -0.37379169 0.53467393 -0.09176527 -0.99553186 0.022261905 0.03683307
-0.089475013 -0.37379169 0.53215259 -6.3891319e-05 -0.99999994 -0.00045193179 0.00011192499
-0.052027851 -0.37379169 0.53464341 3.506085e-06 -1 -0.0002160349 0.0001005557
-0.0084369183 -0.37379169 0.53639138 0.01116943 -0.99992317 0.0053752195 0.0080053248
0.038153019 -0.37379169 0.53976262 0.0070018624 -0.9993962 0.034033559 0.054208606
0.048518568 -0.37379169 0.53526044 0.043193813 -0.99841177 0.036170099 0.062416703
0.057108767 -0.37379169 0.53591311 0.066169605 -0.99446887 0.081567958 0.073599488
0.06516663 -0.37379169 0.53458476 0.07649909 -0.99354833 0.083723992 0.083556578
0.074085914 -0.37379169 0.53387016 0.10615974 -0.991965 0.068815514 0.097601414
0.087825269 -0.37379169 0.53799182 0.19986604 -0.96999782 0.13841188 0.09257035
0.094550163 -0.37379169 0.53491724 0.20509177 -0.97062224 0.12581696 0.087553985
0.1027534 -0.37379169 0.53434962 0.18695554 -0.97413617 0.12691081 0.093384571
0.1154788 -0.37379169 0.53104562 0.24110578 -0.96035105 0.13997814 0.091909051
0.19640431 -0.37379169 0.53202963 0.30746046 -0.73459101 0.60485053 0.22394086
0.21576285 -0.37379169 0.53853214 0.87048554 -0.36284703 0.33256119 0.21954553
0.22085419 -0.37379169 0.53998482 0.86483729 -0.35949141 0.35046032 0.22599708
0.1992566 -0.34637219 0.53282517 0.43379283 -0.67247111 0.5996719 0.24209227
-0.17391628 -0.33141631 0.53424966 -0.92833161 -0.162204 0.33450007 0.12770805
-0.18015108 -0.32984641 0.53835028 -0.83450967 -0.092071258 0.54324633 0.10614968
-0.16646236 -0.32396773 0.53604114 -0.86965567 -0.096460462 0.48414302 0.12857889
0.22085419 -0.30773991 0.53998482 0.78720582 0.27588841 0.55153662 0.14307223
-0.16395813 -0.29043156 0.53279084 -0.94871312 0.090318613 -0.30296203 0.12020814
-0.15733567 -0.29614726 0.53820664 -0.95605397 0.1200717 0.26747641 0.1164963
-0.16395102 -0.28797796 0.53368431 -0.94871312 0.090318605 -0.30296203 0.12020814
0.10090763 -0.28452545 0.53317785 0.85351795 0.33087763 0.40252581 0.12564072
0.066135347 -0.25350201 0.53570431 0.84869432 -0.0079173567 0.52882439 0.042509593
0.082496665 -0.24288495 0.53075385 0.87129837 -0.011159667 0.49062687 0.050652631
0.095618233 -0.24270254 0.53500146 0.88604081 -0.0083545242 0.46353206 0.049342383
0.094032466 -0.20174311 0.53645957 0.85308331 -0.012332889 0.52162892 0.04936922
-0.16508496 -0.17586224 0.53277707 -0.75663853 -0.017126339 0.6536091 0.027649134
0.093609899 -0.16043963 0.53829128 0.83468729 0.029865477 0.54991376 0.04316752
0.1154788 -0.1630311 0.53104562 0.87461752 0.04144695 0.48303872 0.051907182
-0.15638906 -0.15301566 0.53225034 -0.7465288 -0.0081351623 0.66530341 0.021010442
-0.15386312 -0.14296085 0.53211206 -0.74761295 -0.0029326668 0.66412824 0.019752625
-0.14084764 -0.14194758 0.53030181 -0.73762226 0.0008048077 0.67521316 0.020496069
0.077569842 -0.14973424 0.53811222 0.79878598 0.056705195 0.59893703 0.036488216
-0.15859812 -0.1333549 0.5316326 -0.73195273 -0.014323413 0.68120486 0.022593293
-0.14254601 -0.13882434 0.53650379 -0.72710621 -0.00041004282 0.68652493 0.019365847
-0.15286134 -0.125075 0.53597933 -0.71565896 -0.02938222 0.69783169 0.024455193
0.0706257 -0.12350405 0.53603971 0.77843243 0.081865013 0.62236738 0.034392525
0.088687852 -0.12514944 0.53894776 0.80277872 0.11117528 0.58582121 0.037692159
-0.16164647 -0.11283252 0.53001237 -0.75319874 0.01346765 0.65765512 0.048167851
-0.15692295 -0.11105462 0.53396678 -0.74988592 0.014402871 0.66141045 0.047202792
0.073801115 -0.11950915 0.53098512 0.80939966 0.09124168 0.58012688 0.041706651
0.085465536 -0.11425453 0.53605604 0.81206983 0.10793889 0.57349086 0.037837744
0.088426098 -0.10312744 0.53037697 0.83713269 0.13081352 0.53112775 0.038915694
-0.16244303 -0.091053516 0.53085703 -0.77455389 0.083363727 0.62699038 0.052179642
-0.15729249 -0.091755956 0.53885925 -0.7352286 0.057123937 0.67540783 0.046357058
-0.14838989 -0.096689731 0.53725767 -0.71507531 0.058959391 0.69655663 0.042088419
-0.13899006 -0.09395612 0.53464198 -0.72206306 0.12053373 0.68124634 0.057999276
0.089925125 -0.092515051 0.53255451 0.82627863 0.12517196 0.54917717 0.037729356
-0.15055647 -0.087970942 0.53060788 -0.75973648 0.15226597 0.63215166 0.068978392
-0.14117259 -0.086029775 0.53632903 -0.73001522 0.18762855 0.65717059 0.069210082
0.086236939 -0.089884035 0.53005809 0.82650048 0.13252054 0.54711545 0.038380641
0.066192299 -0.073131613 0.53422797 0.7957918 0.22996186 0.56020796 0.071109734
0.068641946 -0.06808532 0.53039271 0.78902382 0.2703405 0.55168599 0.076044627
-0.16663881 -0.055664502 0.53093141 -0.78039986 0.34409115 0.52208954 0.10863429
-0.15583447 -0.051903974 0.53774238 -0.69775426 0.40711957 0.58940029 0.1010691
-0.15299241 -0.042919248 0.53203112 -0.71096045 0.49252474 0.5019508 0.11186071
-0.14932697 -0.044982109 0.53746891 -0.68252176 0.4428089 0.58145034 0.098539017
0.059740905 -0.041741494 0.53831494 0.69971991 0.46927193 0.53867984 0.10952451
-0.13593444 -0.032754533 0.53716743 -0.63603342 0.56730193 0.52309656 0.10082221
-0.10363441 -0.030495781 0.53563774 -0.5292393 0.70124298 0.47766519 0.097690694
0.056725942 -0.030986803 0.53677154 0.60481954 0.61454266 0.5064885 0.11907402
0.06229857 -0.039417606 0.53428191 0.68366396 0.48900491 0.54173601 0.10983589
-0.13045409 -0.028647127 0.53535169 -0.59309894 0.6408577 0.48737577 0.097425751
-0.12358041 -0.027097233 0.5356226 -0.58926904 0.64984459 0.48006669 0.095964909
0.037964359 -0.027454777 0.53816295 0.3661834 0.87162507 0.32585201 0.12343226
0.057924878 -0.026030885 0.53644323 0.52085036 0.72256362 0.4545511 0.11160001
0.10328475 -0.023660969 0.53844732 0.80077642 0.34098792 0.49242705 0.083106093
-0.08554557 -0.016127754 0.53202224 -0.26485321 0.92355585 0.27730396 0.080549642
-0.053458959 -0.014700945 0.53490394 -0.067067534 0.9911781 0.11431501 0.039062276
-0.1903538 -0.37379169 0.54566622 -0.63589454 -0.56577623 0.52491468 0.19297929
-0.1898634 -0.37379169 0.54239708 -0.67578173 -0.5098902 0.53228861 0.20148326
-0.1626824 -0.37379169 0.54038328 -0.52342105 -0.80684644 0.27391472 0.17785534
-0.15433185 -0.37379169 0.5435766 -0.37675256 -0.90452701 0.19972114 0.14645164
-0.14634418 -0.37379169 0.54479462 -0.35724434 -0.91351384 0.19459955 0.13011783
-0.13516629 -0.37379169 0.5442034 -0.29322305 -0.94859457 0.1191162 0.10813006
-0.12526487 -0.37379169 0.54409701 -0.21785079 -0.97079372 0.10050178 0.083887689
-0.11442263 -0.37379169 0.54500622 -0.18001686 -0.9772464 0.11217597 0.075790294
-0.08599928 -0.37379169 0.54460818 -0.0055564325 -0.99978662 0.019895215 0.016702343
-0.066521227 -0.37379169 0.54257905 4.7608675e-05 -1 -0.00021819847 0.00011466618
-0.05723004 -0.37379169 0.54641724 4.5200726e-05 -1 -0.00021327904 0.00010556271
0.02833027 -0.37379169 0.54119951 0.0019465174 -0.99982536 0.018586984 0.047063477
0.04647845 -0.37379169 0.54591203 0.10041846 -0.99027908 0.096247338 0.098491348
0.055997502 -0.37379169 0.54553896 0.079010196 -0.99268061 0.091338232 0.096569188
0.065329134 -0.37379169 0.54074442 0.067302398 -0.99266177 0.10046427 0.081749454
0.0856269 -0.37379169 0.54581106 0.24149339 -0.94859689 0.20456058 0.10820032
0.091959082 -0.37379169 0.54429042 0.19281189 -0.97089672 0.14206764 0.085416771
0.1912968 -0.37379169 0.54009748 0.26188979 -0.75192195 0.60500175 0.17831855
0.21906491 -0.37379169 0.5446654 0.89110219 -0.25761998 0.3735891 0.13557456
-0.18985695 -0.33728695 0.54240435 -0.83399957 -0.073140703 0.54689592 0.092116363
-0.1903538 -0.32629481 0.54566622 -0.90406477 -0.010877608 0.42725703 0.076197803
-0.14583355 -0.31016225 0.54248089 -0.64828956 0.061787095 0.75888282 0.10304338
-0.14819598 -0.30465996 0.54194826 -0.69756788 0.065463461 0.71352196 0.090008937
0.090282768 -0.30937269 0.54839218 0.8735072 -0.052926656 0.48392558 0.13503559
0.21906491 -0.3080408 0.5446654 0.73479468 0.33022431 0.59247679 0.13271071
0.073627487 -0.25348181 0.54026139 0.84576565 -0.0038691107 0.53354055 0.041413061
0.088682391 -0.24964111 0.54283011 0.84930271 -0.024389995 0.52734244 0.045015167
-0.11990951 -0.20204769 0.5450514 -0.6884374 -0.1106998 0.71679819 0.033782735
0.085806757 -0.2041409 0.54650831 0.81922501 -0.021736186 0.57306015 0.047468059
-0.12339415 -0.19202621 0.54291773 -0.69530362 -0.07462351 0.71483165 0.028914945
0.096985698 -0.1950518 0.54276168 0.83261937 -0.005918819 0.55381411 0.04542793
-0.14299773 -0.13915743 0.54372394 -0.72358513 0.0011626382 0.69023418 0.020768048
-0.1388732 -0.13514285 0.54919255 -0.69527894 -0.0065662749 0.71871006 0.018779151
0.065106243 -0.1385221 0.54079419 0.74941099 0.092632353 0.65559328 0.032382771
-0.14038208 -0.12387203 0.54434353 -0.69377309 -0.0096206609 0.72012943 0.018478762
-0.13791133 -0.12402615 0.54622954 -0.68850929 -0.012782883 0.72511494 0.020738428
0.087920763 -0.12957609 0.54513294 0.77206242 0.1091404 0.62610543 0.034030054
-0.14679982 -0.11362179 0.54010326 -0.68800968 -0.008181598 0.72565538 0.01905445
-0.13623461 -0.1120406 0.54640663 -0.67445558 -0.0080913408 0.73827112 0.01944164
-0.13249955 -0.10640281 0.54842782 -0.664882 0.014982415 0.7467981 0.017582286
-0.14801317 -0.090059854 0.54136229 -0.71248013 0.078684859 0.6972667 0.045487456
-0.13591011 -0.093447208 0.54592401 -0.68839848 0.081323631 0.72075933 0.04168969
-0.1410231 -0.083265819 0.54248673 -0.71766186 0.15901202 0.67799461 0.062647134
-0.13393216 -0.067934334 0.54856735 -0.69396251 0.32487932 0.64254928 0.072856583
0.0629557 -0.057648264 0.54474378 0.7531051 0.32404327 0.57256329 0.082069911
-0.13697764 -0.047786657 0.54564941 -0.6651364 0.42017117 0.61729234 0.079871461
-0.12984569 -0.040071163 0.54949099 -0.61876732 0.49703035 0.60834849 0.085913926
0.057777308 -0.046345595 0.54721832 0.73480743 0.36808184 0.56971377 0.093331404
-0.12971739 -0.035339974 0.54768151 -0.62708068 0.50597173 0.59225208 0.089468762
0.052416749 -0.03456407 0.54639608 0.66670036 0.54171103 0.51191777 0.10941347
-0.12107011 -0.023399046 0.54119027 -0.57720816 0.63764036 0.51014268 0.09264911
-0.11338358 -0.027889717 0.54271501 -0.57716656 0.59999621 0.55397052 0.089304239
-0.085662767 -0.021664506 0.54487503 -0.34253171 0.84708172 0.40635526 0.091025472
-0.068005249 -0.024626389 0.54176521 -0.23703262 0.92102945 0.30906352 0.09047582
-0.055544298 -0.020639008 0.54661882 -0.16898082 0.96152234 0.21661067 0.067757234
0.031277318 -0.02377148 0.54029948 0.20906484 0.93217355 0.29554078 0.10704938
0.04958282 -0.025223503 0.54716939 0.54986304 0.70280898 0.45134273 0.11534268
0.054703753 -0.02310867 0.54515868 0.53466994 0.707138 0.46269208 0.11060908
-0.14236315 -0.37379169 0.55229247 -0.31522387 -0.93500626 0.16247235 0.11154284
-0.13474183 -0.37379169 0.55316013 -0.27375543 -0.95124382 0.14210266 0.094501607
-0.1256956 -0.37379169 0.55501705 -0.21514629 -0.96559006 0.14610927 0.085089318
-0.11708883 -0.37379169 0.55460143 -0.15828663 -0.98156738 0.10710231 0.064087264
-0.1039508 -0.37379169 0.55227989 -0.049967021 -0.99785656 0.042256355 0.032199234
-0.09739852 -0.37379169 0.55499089 -0.0064059822 -0.99976623 0.020651881 0.018310085
-0.084310412 -0.37379169 0.55356991 -0.0093922513 -0.99978864 0.01828821 0.017946607
-0.071962863 -0.37379169 0.55458212 -0.011704457 -0.99982548 0.01456063 0.016002035
-0.053057428 -0.37379169 0.55093843 4.9283775e-05 -1 -0.00021170452 0.00010351153
-0.045450032 -0.37379169 0.55534297 4.3535467e-05 -1 -0.00021360497 9.9997735e-05
-0.039372269 -0.37379169 0.5529424 2.7610991e-05 -1 -0.00020441851 9.4888957e-05
0.004825383 -0.37379169 0.55016261 0.024663799 -0.9996931 -0.0023243367 0.029773364
0.025548341 -0.37379169 0.55948198 0.052400511 -0.99812788 0.031542342 0.065358229
0.038036756 -0.37379169 0.55349958 0.080139957 -0.99432284 0.069998115 0.082468472
0.045736134 -0.37379169 0.55776006 0.12527569 -0.98618752 0.1083525 0.10024711
0.052296065 -0.37379169 0.55602235 0.10479033 -0.98887265 0.10559338 0.099558741
0.066057853 -0.37379169 0.55563611 0.18297508 -0.9648003 0.18889283 0.12213212
0.075309813 -0.37379169 0.55551207 0.18319233 -0.96426719 0.19138809 0.1095325
0.083624706 -0.37379169 0.55695045 0.21467634 -0.95069987 0.22379436 0.1133164
0.2192986 -0.37379169 0.55568337 0.85702378 -0.32163244 0.40257043 0.203025
0.2192986 -0.31184551 0.55568337 0.74810755 0.36557344 0.55379707 0.12314824
0.042250667 -0.30776039 0.55409229 0.78578311 -0.17178778 0.59416658 0.076868989
0.084209979 -0.28037491 0.55823809 0.64701366 0.46076551 0.60751009 0.10604434
0.078452058 -0.25840577 0.55937606 0.82162106 0.026282093 0.56942797 0.039648097
0.082406558 -0.25318944 0.55484933 0.81904 0.02532508 0.57317722 0.037082724
-0.1180992 -0.2433223 0.55614632 -0.72398734 0.054358207 0.68766814 0.053601678
-0.12133527 -0.20031378 0.55227292 -0.65918589 -0.069216795 0.74878776 0.019189179
0.054616921 -0.1858823 0.55488133 0.75996351 0.0023452945 0.64996159 0.031941578
0.065662809 -0.1893876 0.55095971 0.75052029 0.0029037828 0.66084105 0.034615055
-0.11136003 -0.15061638 0.55827606 -0.64186537 -0.030818971 0.76619786 0.019145157
-0.14108303 -0.1404898 0.55164582 -0.70014077 -0.0067701531 0.71397275 0.020084741
-0.12276469 -0.1465243 0.55674034 -0.66177011 -0.02895318 0.74914753 0.02005573
-0.13239029 -0.13537127 0.55239671 -0.67988759 -0.0186699 0.73307872 0.019002039
-0.11737128 -0.13448466 0.55917162 -0.64805466 -0.015728937 0.7614314 0.018897828
-0.13117231 -0.12367862 0.55298764 -0.66756701 -0.013761512 0.74442261 0.019170348
-0.12786952 -0.12206873 0.55458516 -0.66331124 0.0032235058 0.74833673 0.019011263
0.075114056 -0.11278378 0.55368572 0.77443123 0.077278152 0.62792075 0.033079907
-0.12573914 -0.10805858 0.55460191 -0.65466112 0.0045159925 0.75590909 0.01750209
-0.13119771 -0.094552308 0.55056334 -0.67550093 0.063773081 0.73459613 0.030339351
-0.12477872 -0.093073897 0.55665863 -0.64877373 0.073088631 0.7574634 0.022558086
0.065323584 -0.090561554 0.55596501 0.79539847 0.12740743 0.59254426 0.03311323
0.073796108 -0.093976438 0.55293113 0.78310919 0.1180471 0.61057758 0.032774504
-0.09739852 -0.088045686 0.55499089 -0.61195153 0.19426376 0.76666611 0.039991874
0.06564451 -0.081124231 0.55840176 0.78100419 0.12694351 0.61148822 0.035253961
0.073264509 -0.086124562 0.55390882 0.79422146 0.11349384 0.59693509 0.033928383
-0.13149385 -0.078470208 0.55068123 -0.68045628 0.17470518 0.71165824 0.041243888
-0.12257805 -0.074605197 0.55809885 -0.62336987 0.20937558 0.75337362 0.041273937
0.067984313 -0.072142504 0.55849773 0.77004051 0.16529082 0.61621147 0.043623142
-0.12499544 -0.062914573 0.55480242 -0.64068997 0.3440474 0.68640202 0.062919751
-0.13131398 -0.058934875 0.55109721 -0.66409838 0.3808206 0.64338881 0.071694486
-0.12695649 -0.050837893 0.55312431 -0.63053429 0.43557635 0.64241719 0.076669298
-0.12459733 -0.046576861 0.55755812 -0.62529749 0.43454793 0.64820617 0.071558863
0.025548341 -0.048933391 0.55948198 0.6551367 0.60015458 0.45892316 0.11706977
-0.12660074 -0.033607773 0.55073828 -0.60129762 0.51476711 0.61111045 0.081486814
0.046415336 -0.038567789 0.55947787 0.70251662 0.48980805 0.51629311 0.1041172
0.067868851 -0.036233462 0.5597083 0.75426847 0.29776147 0.58516431 0.068858296
-0.12185875 -0.026065612 0.55565017 -0.57274854 0.55871403 0.59983146 0.079684578
-0.11993244 -0.022003429 0.55592114 -0.55396706 0.59171253 0.58565938 0.080038719
-0.083088994 -0.025353875 0.55483031 -0.45463055 0.75000322 0.48042309 0.095035553
-0.072046764 -0.022555834 0.55370522 -0.34217191 0.8696484 0.3558512 0.094918922
-0.054242287 -0.020899329 0.55150646 -0.20177163 0.9547112 0.21866603 0.0671326
0.038335618 -0.025260514 0.55557793 0.48918289 0.74704736 0.45013374 0.12187823
0.048025988 -0.025436155 0.55616415 0.5970459 0.63385111 0.49170011 0.1136288
0.052863676 -0.021527728 0.5543108 0.57510775 0.66180784 0.4808965 0.11900336
0.065211251 -0.027615836 0.55613005 0.69791734 0.42840934 0.57391357 0.089298613
-0.043675683 -0.019346882 0.55368888 -0.1135545 0.97874379 0.17078064 0.052230064
-0.13164569 -0.37379169 0.56162971 -0.25925699 -0.95382839 0.15164855 0.081772514
-0.12338684 -0.37379169 0.56438375 -0.18766637 -0.97069579 0.15010343 0.070881963
-0.11427574 -0.37379169 0.56359661 -0.12445965 -0.98793185 0.092198133 0.058986533
-0.10504086 -0.37379169 0.5646385 -0.041628096 -0.99840176 0.03822384 0.034863073
-0.09603522 -0.37379169 0.56389147 -0.011135955 -0.99970382 0.021640001 0.02085918
-0.084644765 -0.37379169 0.5653767 -0.015419091 -0.99967527 0.020288687 0.021319197
-0.069726497 -0.37379169 0.56880748 -0.018460996 -0.99968213 0.01717261 0.023250012
-0.051363889 -0.37379169 0.56874758 8.3199615e-05 -1 -0.00025933541 0.00010400294
0.018481079 -0.37379169 0.56209803 0.017482983 -0.99982876 0.0060722157 0.058252234
0.025678068 -0.37379169 0.56493413 0.050909668 -0.99805874 0.035874784 0.072182894
0.036181126 -0.37379169 0.56575286 0.18430012 -0.97227567 0.14392161 0.1156989
0.0447267 -0.37379169 0.56491959 0.1395361 -0.98085827 0.13581912 0.10782726
0.052508105 -0.37379169 0.56576204 0.2757819 -0.92540592 0.2599391 0.13693199
0.066077568 -0.37379169 0.56413066 0.24760363 -0.93830532 0.24140324 0.14269799
0.073150218 -0.37379169 0.56282204 0.24142061 -0.9420439 0.23295803 0.12546493
0.082420141 -0.37379169 0.56253076 0.26063353 -0.92892736 0.26299068 0.11327587
0.090833291 -0.37379169 0.56007802 0.31657037 -0.90952027 0.26936233 0.09273091
0.22815759 -0.37379169 0.56390452 0.94624233 -0.24473523 0.21149504 0.16106386
0.03950876 -0.320077 0.56239939 0.79993296 -0.23168392 0.55356103 0.13433181
0.1574592 -0.32537049 0.56786168 0.037761994 -0.99199182 0.12052497 0.18451913
0.083965629 -0.31547999 0.56166822 0.79099256 -0.07034421 0.60776848 0.16888605
0.034897979 -0.3010169 0.56707358 0.75741953 -0.17154759 0.62998974 0.063311011
0.080404922 -0.28383482 0.56153494 0.5675205 0.59494245 0.5691784 0.1100282
0.071127824 -0.27361098 0.56580603 0.75446749 0.18361688 0.63012993 0.082101032
-0.11012395 -0.25839305 0.56406862 -0.64912081 0.064415388 0.75795311 0.016091364
-0.097668648 -0.2458472 0.56724012 -0.66892505 0.010672142 0.74325335 0.014061251
0.071877681 -0.24669516 0.56431192 0.78588021 0.06775444 0.61465573 0.035918102
-0.1049792 -0.2317666 0.56384408 -0.64894569 0.021111598 0.76054186 0.012563061
0.067926034 -0.23352548 0.56411588 0.76253426 0.082443699 0.64167333 0.033198394
0.066399962 -0.2234821 0.56212848 0.76894188 0.059931312 0.6365034 0.028607694
-0.12309914 -0.20091604 0.56641799 -0.6191088 -0.057265546 0.78321457 0.015047178
-0.1231602 -0.19705167 0.56031203 -0.64252752 -0.074190974 0.76266259 0.018348996
-0.12736331 -0.18204829 0.56302768 -0.64685661 -0.064474024 0.75988138 0.013726032
0.042171225 -0.1866328 0.56464309 0.76341814 0.00048510381 0.64590442 0.033999685
0.054904662 -0.18826847 0.56556964 0.77179426 0.00025271278 0.6358723 0.029387478
0.041739728 -0.17239332 0.56238067 0.74181122 0.075448185 0.66635102 0.031267617
0.03461555 -0.16378 0.56671429 0.75023139 0.07196068 0.65724778 0.030178159
-0.10589343 -0.14207268 0.56059539 -0.63821971 -0.012893518 0.76974636 0.017764881
-0.096174911 -0.14004751 0.56626248 -0.60422075 -0.014164789 0.79669106 0.0089942636
0.064000614 -0.14521351 0.56841826 0.75666714 0.081840247 0.64865792 0.025961759
0.070329249 -0.128591 0.56332141 0.76252097 0.055166025 0.64460719 0.028148653
-0.12136919 -0.11521265 0.56358373 -0.64392734 -0.0012523367 0.76508558 0.017526623
-0.11908498 -0.093145266 0.5650841 -0.62283683 0.080880433 0.77815986 0.014356603
-0.11516313 -0.083193466 0.56512892 -0.61382788 0.14636858 0.77575231 0.026293457
0.051100578 -0.08361233 0.56365401 0.78101277 0.13799883 0.60907745 0.034857873
-0.10497269 -0.077173054 0.56727278 -0.60137188 0.20782948 0.77146536 0.038959235
0.023424687 -0.077816308 0.56786978 0.77589506 0.13912177 0.61533082 0.048190631
0.067331605 -0.075845517 0.56018716 0.77262139 0.14473897 0.61814797 0.036785968
-0.10942704 -0.067368247 0.56410205 -0.59693044 0.26677063 0.75664228 0.050361935
0.057224669 -0.064407177 0.56670159 0.7835803 0.16943569 0.59774023 0.049048614
-0.10564435 -0.056948107 0.56712604 -0.59760696 0.31501347 0.7373144 0.056789152
0.049062073 -0.054139063 0.56304038 0.7786631 0.27195647 0.56544095 0.072769009
0.063189343 -0.052398384 0.56175995 0.78504562 0.22129722 0.57855946 0.058535412
-0.10192525 -0.041142259 0.56632197 -0.62209719 0.42298752 0.65884501 0.068926856
-0.12050977 -0.030758373 0.56120175 -0.59266919 0.49759832 0.6333555 0.072217129
-0.095816649 -0.033133622 0.56399846 -0.59855372 0.52396291 0.60596734 0.070240594
0.026774989 -0.037881933 0.56589144 0.59673655 0.6654523 0.44841817 0.10946022
0.063591167 -0.036149397 0.56631851 0.75393116 0.31315392 0.57751405 0.073616788
-0.084402412 -0.024896577 0.5646885 -0.54961377 0.61689848 0.563348 0.083013199
-0.070016332 -0.020606117 0.56911212 -0.49061084 0.68430847 0.53946555 0.084403247
-0.051154867 -0.021329105 0.56902856 -0.20374532 0.93168509 0.30075043 0.083047085
0.035379913 -0.026829775 0.56411964 0.57983983 0.67858553 0.45089629 0.11147052
0.050992243 -0.026844023 0.56610042 0.67246401 0.48912278 0.55547386 0.096236855
0.063646428 -0.02128865 0.56159943 0.6739527 0.474581 0.56618083 0.099631034
0.025726218 -0.019710729 0.56427681 0.45344818 0.80922717 0.37354535 0.10515082
0.018481079 -0.0095870486 0.56209803 0.25388467 0.93032408 0.26464993 0.074179292
-0.11658645 -0.37379169 0.57482958 -0.060388681 -0.99688631 0.050703455 0.041088972
-0.1044597 -0.37379169 0.57524544 -0.010854596 -0.99966425 0.023529328 0.022749022
-0.09404102 -0.37379169 0.5750097 -0.014923604 -0.99962848 0.022807248 0.022866141
-0.083901159 -0.37379169 0.57580751 -0.019765895 -0.99957258 0.02154173 0.022643086
-0.079088926 -0.37379169 0.57097489 -0.018048508 -0.99966252 0.018686093 0.020507315
-0.015922431 -0.37379169 0.57202703 0.01754922 -0.99984598 -0.00027551196 0.018151054
-0.0048550069 -0.37379169 0.57915097 0.013743959 -0.99990553 -0.00045724222 0.019788964
0.0028856101 -0.37379169 0.57036531 0.035671566 -0.99927986 -0.012936312 0.048623692
0.01573202 -0.37379169 0.5741747 0.061196759 -0.99768388 0.029695669 0.083139852
0.024003336 -0.37379169 0.57296407 0.1255189 -0.98801959 0.089790553 0.099033386
0.033521626 -0.37379169 0.57699299 0.2603451 -0.94990909 0.17289644 0.13256982
0.04097116 -0.37379169 0.57510859 0.26818758 -0.9411037 0.20591086 0.14296874
0.055077765 -0.37379169 0.5761233 0.3077766 -0.91005015 0.27763712 0.15465976
0.060797799 -0.37379169 0.57756603 0.37161058 -0.85909683 0.35193494 0.15121345
0.075786896 -0.37379169 0.57174814 0.31946188 -0.89901519 0.29952607 0.12832385
0.080370963 -0.37379169 0.57277781 0.32937095 -0.88555813 0.32756928 0.13472606
0.14887299 -0.32149166 0.57601607 0.36185247 0.7204563 0.59161264 0.17666261
0.15151511 -0.31464481 0.57544589 0.2556037 0.77108139 0.5831812 0.10063446
-0.093121231 -0.30546409 0.57960629 -0.62458962 -0.061399743 0.77853578 0.032763019
0.077394143 -0.30899319 0.57310402 0.61532611 0.028728032 0.78774899 0.16775283
-0.085443169 -0.29144031 0.57577199 -0.63227159 0.10567118 0.76750654 0.01181202
0.07475289 -0.29716554 0.57091594 0.64296925 0.22377551 0.73247188 0.14548963
0.03286159 -0.27201599 0.57366288 0.65510505 0.14015239 0.74242491 0.055200703
0.052558374 -0.17990699 0.57987094 0.73897707 0.063437037 0.67073745 0.034772389
0.057944357 -0.16567528 0.57516056 0.74617368 0.056182995 0.66337651 0.026698729
0.058839269 -0.14953397 0.57661009 0.74803209 0.070633568 0.65989321 0.025194095
-0.11710045 -0.11616257 0.57744867 -0.60958326 0.01502482 0.79257971 0.01112587
-0.10861626 -0.098342225 0.57622188 -0.60411656 0.041961525 0.79579049 0.01111665
0.035711773 -0.095438033 0.57309467 0.74899417 0.092285775 0.65611821 0.035368145
0.044958942 -0.090242818 0.57204723 0.76680851 0.10950286 0.63246644 0.036013506
0.052844319 -0.097061671 0.57462531 0.75493366 0.065210357 0.65255111 0.030848075
-0.1032656 -0.088540107 0.57531279 -0.61123067 0.11499607 0.78305364 0.020810323
-0.094077036 -0.085414849 0.57975048 -0.60702163 0.12641327 0.7845664 0.02462903
0.023898177 -0.085955359 0.57023668 0.75971144 0.093342401 0.64352602 0.044518001
0.034899913 -0.085308775 0.57824266 0.76941943 0.11564942 0.62818706 0.040334791
-0.095469438 -0.075083695 0.57410723 -0.61108112 0.21404566 0.762079 0.040768836
0.045320116 -0.074537843 0.57210708 0.78241885 0.15623482 0.60283619 0.042331502
-0.091857404 -0.069110826 0.57298994 -0.62047547 0.25677991 0.74099553 0.051497687
-0.083242364 -0.064351894 0.57227921 -0.62844467 0.29491064 0.71978128 0.057869911
0.045619253 -0.064300515 0.57448715 0.78178245 0.18973373 0.59398425 0.049562138
0.050621841 -0.060712241 0.57737488 0.78040898 0.19188081 0.59509963 0.050198678
-0.083017133 -0.057477959 0.5773946 -0.6181463 0.30736607 0.72347867 0.058133863
-0.094540998 -0.046591692 0.57451802 -0.62495238 0.34241697 0.70155907 0.061051957
-0.094710261 -0.037377872 0.57245827 -0.61235672 0.42183328 0.66863734 0.070022047
-0.088163942 -0.03186116 0.5784412 -0.59415877 0.45371497 0.66416728 0.075416192
0.024753697 -0.036682982 0.57198399 0.59586072 0.63810158 0.4876233 0.09787716
0.057607416 -0.031836659 0.57413 0.7258051 0.36339828 0.58407933 0.080160499
-0.081104793 -0.021710813 0.57974076 -0.57678521 0.51550657 0.63369697 0.069252431
-0.015922431 -0.029204849 0.57202703 0.071151823 0.95716697 0.2806578 0.082966432
-0.0046284497 -0.027450621 0.57904577 0.18730736 0.91948026 0.34564725 0.083491698
0.0027641049 -0.026274804 0.57057887 0.25164694 0.90611619 0.34004021 0.08765351
0.013332315 -0.024135927 0.57638216 0.37307015 0.8347072 0.40507102 0.094640136
0.020053854 -0.029571444 0.57651687 0.50945377 0.72996062 0.45564717 0.097640626
0.054168634 -0.024633609 0.57693762 0.71322334 0.3630693 0.59957755 0.078371406
-0.078352131 -0.019316804 0.57265216 -0.55215979 0.61993116 0.55749893 0.085551292
0.057408251 -0.018427569 0.57915026 0.71730399 0.30913696 0.62442732 0.067961164
-0.093767516 -0.37379169 0.58559942 -0.021126403 -0.9994759 0.024527118 0.025044739
-0.085771471 -0.37379169 0.58534116 -0.06474863 -0.99533576 0.071515054 0.054716788
-0.076859184 -0.37379169 0.58228296 -0.024449857 -0.99948722 0.020677276 0.02090711
-0.066468194 -0.37379169 0.58625287 -0.023312841 -0.99962133 0.014622338 0.018519504
-0.059421871 -0.37379169 0.58995432 -0.023405472 -0.99965972 0.011519881 0.018164497
-0.048558 -0.37379169 0.58802003 0.00012604613 -0.99999994 -0.00035520919 0.00011371413
0.0086838901 -0.37379169 0.58042759 0.051743697 -0.99864149 0.0061474727 0.075957201
0.015602263 -0.37379169 0.5854255 0.12403988 -0.98976874 0.070512831 0.10268138
0.023922786 -0.37379169 0.58442867 0.18530013 -0.97170204 0.14648919 0.11805627
0.034492496 -0.37379169 0.58316731 0.32473746 -0.91386563 0.24371135 0.14043252
0.043813691 -0.37379169 0.58577555 0.46857807 -0.79201901 0.39133164 0.15819737
0.055683933 -0.37379169 0.58478206 0.37666222 -0.86410308 0.3338435 0.15304883
0.066350237 -0.37379169 0.58265889 0.39695027 -0.84307665 0.36283928 0.14836226
0.14247316 -0.32314265 0.5832513 0.44790834 0.76325005 0.46564734 0.19628778
0.1474171 -0.30431467 0.58462608 -0.12284621 -0.79285508 -0.59689999 0.070687622
-0.084135063 -0.29402936 0.58709687 -0.63120735 0.036452673 0.77475703 0.0081397789
0.062583379 -0.29736441 0.58427942 0.70154434 0.19339132 0.68588293 0.1355588
0.037726808 -0.27093425 0.58501077 0.63855255 0.13314267 0.75797349 0.052223492
0.035914965 -0.26164374 0.58590901 0.6280961 0.094580218 0.7723664 0.053318568
0.058152512 -0.20505685 0.58490258 0.75985938 -0.014513377 0.64992553 0.03066919
0.057219338 -0.19559093 0.58244097 0.76906109 0.0089711836 0.63911235 0.031170527
0.058076229 -0.18812011 0.5829227 0.77634037 0.016715087 0.63009232 0.031144056
0.046827909 -0.17396575 0.58413118 0.73507828 0.06168808 0.67517006 0.031175625
-0.073722571 -0.165868 0.58080429 -0.57854521 -0.050171256 0.81410587 0.0093912808
-0.066262722 -0.1528459 0.58597821 -0.50526547 0.0095376717 0.86291128 0.024655703
0.05519022 -0.15062244 0.58329427 0.73722374 0.062357508 0.67276496 0.025354516
-0.087119415 -0.1242974 0.5890156 -0.57354677 0.029647365 0.81863618 0.010096854
-0.083565049 -0.11540975 0.58979404 -0.57408708 0.018926794 0.8185755 0.010159131
0.01390815 -0.1175202 0.58143651 0.60367233 0.074432001 0.79375035 0.05688493
-0.09271691 -0.10404606 0.58506477 -0.58631253 0.028676735 0.80957729 0.010021169
-0.084389865 -0.10697939 0.58877295 -0.58510679 0.011071755 0.81088066 0.0092456061
-0.090516262 -0.090340339 0.58313519 -0.59246004 0.08702381 0.80088574 0.018787861
-0.086078361 -0.095823459 0.58721715 -0.59312832 0.051824987 0.80343819 0.011182386
0.049371172 -0.094717257 0.58141601 0.7724852 0.064166933 0.63178265 0.031832129
0.033802949 -0.082890816 0.58078718 0.76412582 0.13123082 0.63157761 0.040230583
-0.075693518 -0.078152388 0.58940011 -0.55898303 0.1549603 0.81457067 0.042719349
0.038167786 -0.078873768 0.58713216 0.75137025 0.14391339 0.64399672 0.042124581
-0.070279583 -0.061437111 0.58687872 -0.55927742 0.25232968 0.7896446 0.047506273
0.038905311 -0.067625694 0.58633888 0.75018793 0.15938936 0.64172673 0.046369724
-0.06891834 -0.050443672 0.58741832 -0.53322417 0.31238148 0.78618681 0.058994152
-0.084578574 -0.041140698 0.5831992 -0.60366881 0.37718105 0.70236623 0.0646137
-0.074404627 -0.049757387 0.58625245 -0.57933164 0.29439986 0.76006818 0.052134741
-0.066009164 -0.04847914 0.58878106 -0.50886995 0.33646756 0.79236418 0.061460443
0.021994719 -0.04528572 0.58733475 0.63151032 0.44445303 0.6353395 0.081889734
-0.085954748 -0.033640277 0.58430618 -0.59626704 0.42299703 0.68230426 0.065590285
0.0290913 -0.034470197 0.58177483 0.68536997 0.43577951 0.58340752 0.071104169
0.045972608 -0.032730654 0.58158398 0.73044324 0.32963133 0.59816045 0.063535891
-0.052009411 -0.021275692 0.58875275 -0.35634944 0.69396609 0.62564057 0.086149335
0.013612618 -0.02767764 0.5855549 0.44846335 0.72905558 0.51706731 0.097972222
0.049288493 -0.026488524 0.58294386 0.73420197 0.28408986 0.61663634 0.055505496
-0.079360314 -0.019397598 0.58392346 -0.57394975 0.48835534 0.65733612 0.065574139
-0.091168217 -0.37379169 0.59235418 -0.024924558 -0.99935532 0.025839979 0.026407236
-0.086651012 -0.37379169 0.59368521 -0.027829576 -0.99933225 0.023676584 0.02418285
-0.075068288 -0.37379169 0.5950132 -0.029624382 -0.99931675 0.022102471 0.022445546
-0.064250186 -0.37379169 0.59648836 -0.028929871 -0.9994629 0.015393677 0.021763299
-0.054876894 -0.37379169 0.59264922 -0.024354985 -0.99966878 0.0083160559 0.017593307
-0.049349189 -0.37379169 0.59226632 0.00013814816 -0.99999994 -0.00041225873 0.00011929609
-0.02499914 -0.37379169 0.59747583 0.010114062 -0.99994832 -0.0010508635 0.017035859
0.0057743369 -0.37379169 0.59479314 0.031755805 -0.99927557 0.020975295 0.056164339
0.015674137 -0.37379169 0.59729725 0.16329299 -0.97223586 0.16760905 0.10441162
0.023696035 -0.37379169 0.59438187 0.25136793 -0.94218493 0.2215891 0.13877207
0.037009154 -0.37379169 0.59583545 0.43212941 -0.81532532 0.3853685 0.15911694
0.046435054 -0.37379169 0.59659088 0.46435398 -0.78117591 0.4173004 0.16484502
0.054345049 -0.37379169 0.59529626 0.4019345 -0.84965402 0.34137481 0.14927807
0.06899254 -0.37379169 0.5935927 0.3693836 -0.84985733 0.3758966 0.12712599
0.1162321 -0.37379169 0.59648103 0.44915813 -0.80303633 0.39164984 0.10053773
0.11240813 -0.33385003 0.59804165 0.11344939 -0.26176465 0.95844066 0.19287749
0.12003027 -0.32849813 0.59492159 0.0018595138 -0.20807293 0.97811157 0.23400071
0.068261415 -0.31800294 0.59388924 0.32589632 -0.066611089 0.94305599 0.15553486
0.008520484 -0.30447111 0.59652388 0.52829385 -0.090231933 0.84425342 0.059765745
0.058487076 -0.30285352 0.59418857 0.42349657 0.10340213 0.89997709 0.12444367
0.018099178 -0.2981098 0.59944928 0.53488582 -0.031632423 0.84433204 0.044244461
0.05287905 -0.29336405 0.5944159 0.50935906 0.36443996 0.77957487 0.11039567
-0.076156266 -0.28750128 0.59813488 -0.62583995 0.073372744 0.77649271 0.019526592
0.015755262 -0.28314769 0.59931874 0.54710346 0.13168359 0.82664222 0.045909435
-0.089454502 -0.27353659 0.59762257 -0.64704037 0.054483764 0.76050669 0.013378918
0.015853098 -0.2767747 0.59985501 0.54477996 0.12302339 0.82950592 0.046157245
0.04358957 -0.27575853 0.59206241 0.64380568 0.15462941 0.7494024 0.054082535
0.052170135 -0.27795547 0.59228432 0.65424198 0.16599707 0.73784304 0.063533932
0.003324568 -0.2474729 0.59827828 0.51938254 -0.013406631 0.8544367 0.044418421
0.0087829521 -0.21248436 0.59952706 0.58284569 -0.014304596 0.81245703 0.050913643
0.018972587 -0.2048077 0.59589928 0.61087382 -0.042694673 0.79057598 0.050916944
0.020140493 -0.20996189 0.59403193 0.59439397 0.001347602 0.80417293 0.052474231
0.039224539 -0.1813565 0.59314358 0.725012 0.043343153 0.68737108 0.038739372
-0.07209599 -0.1531315 0.59047008 -0.56754917 -0.0055558928 0.82332075 0.0098495921
0.0069440599 -0.1350757 0.59228748 0.50637764 0.079258978 0.85866159 0.078776337
-0.074596509 -0.12342135 0.59081 -0.53604782 0.013639427 0.84407747 0.014830592
-0.066464506 -0.12169562 0.59141546 -0.50782776 -0.022833275 0.86115599 0.023763226
0.027992159 -0.1236501 0.5934099 0.68571615 0.044224408 0.72652429 0.034396037
-0.077190034 -0.11323055 0.59148383 -0.57286543 0.0050224639 0.81963408 0.010954267
0.022442861 -0.11043087 0.59255606 0.67862326 0.040029932 0.73339492 0.056567311
-0.065360196 -0.10857435 0.59654367 -0.51195359 -0.039506473 0.85810417 0.025642203
0.042944137 -0.10275253 0.59118569 0.76644224 0.029985519 0.64161301 0.031340614
0.028539017 -0.099794395 0.59931982 0.69114429 0.025877241 0.72225344 0.053422306
0.034165565 -0.093800269 0.59578794 0.74078745 0.08052507 0.66689563 0.045956273
-0.074323326 -0.082829975 0.5957191 -0.57843304 0.10806404 0.80854028 0.028906565
0.033720501 -0.089868687 0.5986172 0.7399407 0.10830661 0.66389567 0.048399679
-0.072337195 -0.072832361 0.59160078 -0.56379521 0.18193306 0.80562735 0.040757272
-0.063967906 -0.076805443 0.59626502 -0.55530488 0.19042489 0.80955231 0.046160832
0.002982676 -0.071896553 0.59757602 0.38901657 0.13230708 0.91168034 0.12451518
0.033286009 -0.073217891 0.59606546 0.7283603 0.15653369 0.66707456 0.052410752
-0.0724089 -0.069288418 0.59178758 -0.55792868 0.18305409 0.80944848 0.041002031
-0.057612035 -0.060277469 0.5943985 -0.4742319 0.30299312 0.82661927 0.066346444
0.027681552 -0.060823787 0.59503382 0.69120419 0.19455323 0.69597828 0.060575515
0.02559291 -0.056897655 0.59220934 0.6934092 0.23794521 0.6801219 0.06165608
-0.059926391 -0.046964217 0.59121418 -0.48341084 0.36571118 0.79534233 0.069865987
0.01265383 -0.046723496 0.59568483 0.53940642 0.41270155 0.73397428 0.10569327
-0.063253812 -0.036098547 0.5908798 -0.4750354 0.44307998 0.76027727 0.069682464
0.011406961 -0.031246044 0.59180897 0.4839074 0.60182238 0.63532943 0.10189844
0.037205569 -0.030808322 0.59340739 0.70522362 0.3496488 0.61677015 0.055771973
-0.06993214 -0.029855665 0.59675235 -0.52204013 0.4358983 0.73312128 0.068363473
0.0062649092 -0.028012648 0.59305513 0.3847664 0.72215468 0.57484555 0.10142773
-0.073109493 -0.011317881 0.59286696 -0.51552063 0.58917534 0.62218243 0.071830042
-0.065295897 -0.016032135 0.59716493 -0.43917647 0.61608475 0.65388358 0.079398759
-0.050860997 -0.017141486 0.59172529 -0.30942467 0.76477635 0.56513143 0.08568006
-0.049389917 -0.011377992 0.59218341 -0.28965858 0.79076928 0.53924185 0.089451581
-0.074241221 -0.001185477 0.59345257 -0.47621951 0.6829282 0.55391711 0.070894368
-0.0755101 -0.37379169 0.6035412 -0.033712495 -0.9992128 0.020913001 0.025388014
-0.068461627 -0.37379169 0.6036489 -0.032236665 -0.99933302 0.017156687 0.024195762
-0.053267781 -0.37379169 0.60538894 0.00018529814 -0.99999994 -0.00047391976 0.00012833023
