# .PCD v0.7 - Point Cloud Data file format
VERSION 0.7
FIELDS x y z
SIZE 4 4 4
TYPE F F F
COUNT 1 1 1
WIDTH 1389
HEIGHT 1
VIEWPOINT 0 0 0 1 0 0 0
POINTS 1389
DATA ascii
0.01479721 -0.038548648 0.62925261
0.072170943 -0.24659561 0.56455421
0.091207303 -0.33607519 0.54836613
0.1163031 -0.026254769 0.5057621
0.087557733 -0.1295841 0.54501581
0.054324921 -0.30568829 0.58939219
0.051315069 -0.2961258 0.59666002
0.1195368 -0.28846401 0.49879819
0.1101964 -0.22199219 0.51205158
0.03695425 -0.031955719 0.5954681
-0.093235143 -0.02995415 0.584885
0.101703 -0.08502534 0.5184083
0.1006534 -0.2271111 0.53073257
0.090282768 -0.30937269 0.54839218
0.1209084 -0.1052797 0.48975861
0.072863638 -0.093915969 0.55207849
0.058751851 -0.062559552 0.58616549
0.038487598 -0.0331336 0.59338218
0.02233845 -0.064917468 0.61444879
0.123897 -0.1200728 0.50176013
0.03074408 -0.103317 0.60513222
0.040945381 -0.080024302 0.58806539
0.1087804 -0.20719381 0.52039957
0.095798492 -0.2033235 0.53743953
0.1021155 -0.2398711 0.52795058
0.074179649 -0.29739091 0.57039231
0.054863632 -0.27666819 0.58405131
0.078270547 -0.2844671 0.55914718
0.022905709 -0.26623711 0.62720668
0.094856977 -0.029569071 0.4859418
0.03197306 -0.08691892 0.6095435
0.066387363 -0.2369433 0.56706393
0.06694153 -0.075077243 0.55770332
0.09859255 -0.13466281 0.52412951
0.070329249 -0.128591 0.56332141
0.098329343 -0.1304189 0.52605361
0.095107257 -0.1033148 0.52705503
0.088894129 -0.1120725 0.53838623
0.095364749 -0.035943449 0.52569991
0.01462543 -0.13713861 0.63226491
0.039224539 -0.1813565 0.59314358
0.050580051 -0.02587791 0.56643587
0.0053641801 -0.065637171 0.6412394
0.1114685 -0.28115579 0.51867139
0.085806757 -0.2041409 0.54650831
0.083039433 -0.25603631 0.55566281
0.1072923 -0.031986531 0.49377301
0.016138259 -0.089422911 0.62628502
0.03029999 -0.25866619 0.61483258
0.1073698 -0.30986929 0.52752298
0.026091641 -0.1764348 0.61148077
0.090162337 -0.1241502 0.54039758
0.097242117 -0.34154639 0.41154149
0.040802449 -0.33541131 0.62173378
0.041092571 -0.075187773 0.59714723
-0.0036107299 -0.048398551 0.63858831
0.056477699 -0.1510383 0.58394462
0.096985698 -0.1950518 0.54276168
0.031437069 -0.30470949 0.61000669
-0.1388749 -0.02800658 0.49665359
0.1090348 -0.1248914 0.51425028
0.1175993 -0.25844869 0.50995457
0.1185371 -0.2065392 0.50535947
0.1168421 -0.2260948 0.50575382
0.086756408 -0.086360127 0.53759742
0.05487502 -0.29082581 0.59276801
-0.01148218 -0.027376911 0.43597531
0.0555881 -0.1653664 0.57357311
0.1030068 -0.2396128 0.51985258
0.1011221 -0.2852076 0.5330863
0.038595591 -0.067263871 0.59836072
0.01648319 -0.03162989 0.491909
0.004760623 -0.1079315 0.64095908
0.027718781 -0.1003241 0.60271537
0.071513802 -0.2736235 0.56638372
0.068948001 -0.23028199 0.56075138
0.1082373 -0.1243626 0.5184691
0.01819909 -0.2151231 0.62963867
0.016098021 -0.1752121 0.6280539
-0.0025604961 -0.20319331 0.64835691
0.0084156394 -0.28645921 0.63313282
0.0062004919 -0.26172161 0.64167988
0.1082402 -0.03125605 0.52269781
0.098074757 -0.085122824 0.52599943
0.068484567 -0.035573501 0.56982398
0.0213694 -0.1195969 0.62015092
0.1506833 -0.33748859 0.4653098
0.06723091 -0.081756473 0.56125093
0.093242817 -0.093372822 0.53417611
0.1900524 -0.3381404 0.45449331
0.03870368 -0.32084569 0.61229408
0.062519044 -0.03124422 0.5235275
0.08814016 -0.11086 0.54322982
0.066399962 -0.2234821 0.56212848
0.033930179 -0.089748502 0.59877622
0.04118764 -0.29343769 0.60159957
0.073317893 -0.1128187 0.55255848
0.024404289 -0.027887581 0.57980973
0.040467169 -0.068351887 0.58864832
0.052890271 -0.2352017 0.59971511
0.060895439 -0.33821449 0.3671819
0.033289909 -0.073988847 0.60699469
0.1055027 -0.02541955 0.52285367
0.077989578 -0.1805947 0.55940318
0.091157317 -0.25331691 0.54153442
0.12364 -0.1944216 0.51312888
0.1038624 -0.19997691 0.52134049
0.080370963 -0.32913631 0.57277781
0.131611 -0.26781511 0.50032812
0.047260791 -0.038859811 0.58267778
0.1025866 -0.30873361 0.53907722
0.055605952 -0.1790424 0.58259612
0.065342188 -0.14553951 0.56909198
0.2473563 -0.33461669 0.57926649
0.040063649 -0.33567581 0.35028321
0.038153019 -0.0312334 0.53976262
0.0372082 -0.2284755 0.61242771
0.0074403291 -0.1069703 0.64026672
0.058904741 -0.20501339 0.58711922
-0.008102417 -0.057305541 0.64015901
0.02006888 -0.065782309 0.61688799
0.01272772 -0.062887818 0.64491719
0.058299839 -0.2755599 0.59204167
0.079271853 -0.2583673 0.56035352
0.083373897 -0.31556079 0.56136483
-0.063996017 -0.02989337 0.42840269
-0.064415634 -0.035913069 0.37193921
0.09634921 -0.02923179 0.50552982
0.096430719 -0.2438748 0.53417861
0.03486276 -0.093862273 0.5958817
-0.002279103 -0.041962922 0.64921123
0.056374699 -0.14873791 0.57536513
-0.1219842 -0.025798781 0.55561417
0.05377036 -0.097621739 0.57955313
0.098936833 -0.1204611 0.52142471
0.21703359 -0.33257729 0.53863609
0.0081427693 -0.2312717 0.63749403
0.046581421 -0.17421991 0.58371061
0.02464843 -0.19420411 0.62570858
0.1175325 -0.09449327 0.50742412
-0.00053042168 -0.1432815 0.64471561
0.042303588 -0.2781477 0.61772293
0.035212431 -0.2791062 0.60285968
0.063248783 -0.29778931 0.58491951
-0.1157508 -0.02872722 0.47736999
0.06945169 -0.2106844 0.58039832
0.027992159 -0.1236501 0.5934099
0.066292167 -0.091413349 0.56129497
0.029894261 -0.058727831 0.59615213
0.01903915 -0.16374651 0.62654269
0.0095205903 -0.14095411 0.63057518
-0.046898309 -0.028142091 0.62569052
0.02536547 -0.057974789 0.60505879
0.05827722 -0.1878532 0.58597869
0.048049148 -0.22996239 0.59328479
0.03700519 -0.2450532 0.60355061
0.1242943 -0.1855236 0.5103597
0.003382206 -0.2395719 0.64984733
0.0088029504 -0.03219701 0.59046859
0.081466377 -0.1574114 0.56369668
0.068250597 -0.072180152 0.55879372
0.095690191 -0.1112149 0.52590239
-0.020882251 -0.030383879 0.4729813
0.01311433 -0.02849889 0.5004425
0.057422131 -0.030793119 0.53756118
0.06010237 -0.063549787 0.56956512
0.048683971 -0.26751041 0.59934199
0.084209979 -0.28037491 0.55823809
0.049723599 -0.3028706 0.610798
0.077331357 -0.02882066 0.51784652
0.068814367 -0.028233871 0.54010689
-0.028115271 -0.3016057 0.64456838
0.094827153 -0.023151871 0.46581629
-0.0066459179 -0.03004293 0.3738859
0.047914531 -0.1002864 0.59658939
0.093656063 -0.1603258 0.53837109
0.052022249 -0.1017899 0.573102
0.1713945 -0.34320351 0.3797645
0.1219977 -0.1637667 0.50492841
0.1173527 -0.051973131 0.50872707
0.22815759 -0.3434926 0.56390452
-0.01199526 -0.032737821 0.60118347
-0.08528477 -0.02760662 0.4208546
-0.077194691 -0.02510782 0.43683511
-0.1350252 -0.029780461 0.49579781
0.05418903 -0.19577859 0.58291751
0.091014273 -0.028377861 0.50306678
0.026806889 -0.32056561 0.64320052
-0.0084369183 -0.028368831 0.53639138
0.13694119 -0.34505919 0.2236543
0.25263381 -0.3317104 0.45831701
0.017301859 -0.1877027 0.62739807
0.1434692 -0.33503091 0.24593189
0.1057866 -0.1575928 0.53017342
-0.1094621 -0.031413291 0.51212382
-0.04441392 -0.029049739 0.51634312
0.14554159 -0.32967329 0.48445699
0.1349611 -0.33467501 0.38734999
0.03738153 -0.028814791 0.50437558
-0.1034475 -0.02920847 0.5128631
0.085932851 -0.028902231 0.4636524
0.05318683 -0.03023584 0.450854
0.009292841 -0.02897328 0.39615181
0.067562938 -0.028941831 0.44791099
-0.1223478 -0.09346123 0.56052148
-0.1218931 -0.073044419 0.55956072
0.0108723 -0.026743719 0.40737081
-0.066088967 -0.045802739 0.61071932
-0.1369293 -0.095852867 0.55604982
-0.07694795 -0.03186604 0.4064278
-0.1383308 -0.096818633 0.55066317
-0.1050344 -0.038660601 0.57004023
-0.09180218 -0.041170951 0.58827507
-0.1311911 -0.058931261 0.55086827
-0.049697939 -0.03030533 0.40841231
-0.15918189 -0.090550527 0.53791428
-0.0003391504 -0.02810055 0.44876099
-0.039291319 -0.02661325 0.6151104
-0.1138165 -0.030981479 0.54315197
-0.032838941 -0.032466799 0.3611806
-0.15676799 -0.087363653 0.5434646
-0.1346076 -0.078012019 0.55414379
-0.1375252 -0.02993362 0.53201532
-0.14658 -0.027351709 0.52882618
-0.1092643 -0.03247571 0.44858661
-0.153549 -0.042374179 0.53251272
-0.1505713 -0.043830339 0.53867722
0.073688753 -0.026943279 0.56096703
0.029380679 -0.028309351 0.61449373
0.050974671 -0.02719973 0.58414882
0.1036183 -0.024216089 0.53867859
-0.0080261827 -0.029464301 0.62635893
-0.1030722 -0.069090322 0.57889289
-0.087746322 -0.034660209 0.52758271
-0.12665971 -0.05079532 0.55367208
-0.1641832 -0.087164767 0.53224581
-0.1061736 -0.032228939 0.57483149
-0.091842949 -0.035258841 0.58866167
-0.1711655 -0.085449159 0.52460951
-0.1648349 -0.03348719 0.52149248
-0.1656307 -0.048099939 0.5265668
-0.15614329 -0.038839251 0.52172649
-0.041004121 -0.027834071 0.60148412
-0.16900641 -0.14749409 0.52741241
-0.16349401 -0.1335303 0.53346211
-0.04622734 -0.030781969 0.62408382
-0.02283716 -0.02879389 0.37935641
-0.05960286 -0.03312318 0.47524089
-0.16492011 -0.042404741 0.5252232
0.067290187 -0.02108304 0.4310486
-0.1658067 -0.1144291 0.53007132
-0.1630175 -0.1150613 0.53354162
-0.17211001 -0.044187929 0.51704222
-0.084001958 -0.029907331 0.50636119
-0.1841536 -0.05143122 0.51948732
-0.12537619 -0.030190039 0.565328
-0.088026941 -0.04450487 0.59174842
-0.018966731 -0.02953881 0.41430101
-0.1328474 -0.035910331 0.55337828
-0.089641333 -0.027394289 0.5685693
-0.1567425 -0.051308621 0.5386588
-0.1518957 -0.095674969 0.5436886
-0.1437165 -0.031799849 0.54483408
-0.13039351 -0.029723121 0.53504431
-0.064581223 -0.02912721 0.54091913
-0.179428 -0.054805439 0.51964778
-0.1209126 -0.02953114 0.53688937
-0.1621937 -0.1421515 0.53931892
-0.065557837 -0.041838791 0.61190462
0.02742636 -0.02911834 0.62250757
0.027035359 -0.026791681 0.42706701
-0.1731108 -0.092738882 0.52442229
-0.1293902 -0.093485549 0.55477053
-0.1703079 -0.060141072 0.52092898
-0.1478526 -0.078838073 0.54441053
-0.12976269 -0.069646023 0.5589534
-0.122784 -0.085402101 0.56696522
-0.1144331 -0.077639848 0.57160461
-0.096700579 -0.048204049 0.57756603
-0.13296311 -0.034269009 0.5494529
-0.03496182 -0.032411899 0.35388181
-0.0068138242 -0.029170809 0.38882229
-0.1210044 -0.075087354 0.56003988
-0.05380553 -0.03751995 0.38189131
-0.1012575 -0.07572858 0.57759798
-0.024004459 -0.02741096 0.4018836
-0.14879671 -0.086884007 0.54347622
0.01529336 -0.02713595 0.40403399
0.01546949 -0.02209254 0.39049491
-0.03558445 -0.039779078 0.34590721
-0.0068870191 -0.02305408 0.37683731
-0.1711932 -0.1887112 0.52452099
-0.1463865 -0.1413814 0.5494948
-0.097805023 -0.1585007 0.58498061
-0.1207005 -0.1178894 0.56594038
-0.1232055 -0.1121932 0.56165743
-0.1670517 -0.29520231 0.53908378
-0.14585841 -0.1222757 0.54803783
-0.17077971 -0.29204881 0.53606218
-0.1338205 -0.1350399 0.5541538
-0.092736572 -0.10408 0.58506572
-0.1249246 -0.2011382 0.56623179
-0.1348971 -0.1058821 0.55856442
-0.138863 -0.11286 0.55030549
-0.1646024 -0.17807411 0.52986312
-0.1599212 -0.15396041 0.53301841
-0.14016519 -0.13453449 0.55038798
-0.1187398 -0.1152804 0.57805461
-0.1643323 -0.1764538 0.53313023
0.03296179 -0.027809341 0.41987419
-0.078088067 -0.079039767 0.59789258
-0.086179852 -0.028762249 0.58664268
-0.015922431 -0.029204849 0.57202703
-0.0146054 -0.02794325 0.61812812
0.019780399 -0.02726993 0.45118129
-0.05156571 -0.1244522 0.62074089
-0.07711643 -0.083032623 0.59916639
-0.084700577 -0.1169987 0.5965023
-0.085657209 -0.1063699 0.59138387
-0.068461627 -0.086802259 0.6036489
-0.078612149 -0.1145118 0.59952378
-0.1659158 -0.056554969 0.53026348
-0.096768983 -0.084726997 0.58590382
-0.1229555 -0.092063047 0.5692935
-0.1670125 -0.1146771 0.52765739
-0.054258879 -0.041089419 0.61654162
-0.08541584 -0.1267477 0.5911687
0.01607066 -0.02184619 0.37284991
-0.1082005 -0.098708346 0.57514632
-0.092093803 -0.069011107 0.5738368
-0.10302 -0.088396206 0.57496381
-0.1628432 -0.33985749 0.52669781
-0.17138959 -0.27226031 0.53099078
-0.1626824 -0.2825743 0.54038328
-0.1194631 -0.1358676 0.5670774
-0.1291582 -0.1215217 0.55642527
-0.1664166 -0.3241798 0.53642559
-0.12604479 -0.1815013 0.56504351
-0.25987431 -0.32952341 0.2373075
-0.25605181 -0.33135471 0.23077551
-0.145175 -0.1138351 0.53695762
-0.26691559 -0.34036949 0.26111111
-0.16931219 -0.2048972 0.52849871
-0.1251891 -0.1481882 0.5627085
-0.13164569 -0.17378999 0.56162971
-0.19165529 -0.3399075 0.48732829
-0.1672398 -0.28996551 0.53549331
-0.24425 -0.35406861 0.23338941
-0.17755879 -0.28681451 0.52392322
-0.1569948 -0.1108214 0.53382248
0.020458819 -0.029566601 0.50681102
-0.01554104 -0.060296331 0.64562261
0.047713399 -0.03105614 0.53510511
0.1192901 -0.033175051 0.4936555
-0.0068130791 -0.030114289 0.46488929
-0.068461232 -0.027572749 0.54423898
0.060797799 -0.031680521 0.57756603
-0.073757537 -0.2307374 0.61338979
0.068504021 -0.31942749 0.59260428
0.090833291 -0.14807481 0.56007802
0.02925637 -0.18345369 0.61827463
0.1110053 -0.1623192 0.5286783
-0.019418331 -0.02862218 0.50782871
0.1305075 -0.022506589 0.50265729
0.01130667 -0.035773281 0.48913959
-0.0098470822 -0.034168001 0.4691622
0.1263075 -0.1929649 0.51665628
0.04958865 -0.27202791 0.62104619
0.077394143 -0.30899319 0.57310402
-0.068525217 -0.1092783 0.62197798
-0.01555479 -0.1971692 0.64916438
-0.091168217 -0.1222976 0.59235418
-0.07482069 -0.049881309 0.59097522
-0.0097619072 -0.28523561 0.64149708
-0.084804848 -0.2958315 0.63785708
0.03398766 -0.02784485 0.43130779
0.063152254 -0.01839276 0.55482608
-0.036624789 -0.28324011 0.6360687
-0.032036729 -0.27605429 0.6474126
-0.02336897 -0.26100501 0.6456008
0.1214953 -0.079903997 0.51371223
-0.078592479 -0.28924641 0.60123521
-0.025370119 -0.2505261 0.64134711
-0.072427712 -0.27728 0.60584718
-0.041458819 -0.044985291 0.61865318
0.071784198 -0.01543698 0.4804773
0.22085419 -0.30773991 0.53998482
0.05769068 -0.018019199 0.57854551
-0.0077322721 -0.01946729 0.62400138
-0.0072617228 -0.083480626 0.64097673
0.0645307 -0.01220718 0.5600813
0.059551541 -0.0225178 0.581164
-0.089914173 -0.090393223 0.58187151
-0.0079384148 -0.062110279 0.64723969
-0.042416479 -0.01890358 0.50309402
-0.072222114 -0.029767361 0.59879178
0.081394613 -0.01620069 0.46045211
0.029901089 -0.01534927 0.4186258
-0.0026553271 -0.016181409 0.64921772
-0.1088143 -0.057006449 0.56958097
-0.018142279 -0.076296508 0.6384573
-0.02031127 -0.028240951 0.63471562
0.00040596721 -0.02116159 0.43676171
-0.048945069 -0.02096921 0.37191781
0.0071482658 -0.0157975 0.3993738
-0.13821021 -0.083731562 0.54049581
-0.1171086 -0.1048185 0.55186272
0.1136664 -0.01592496 0.46867701
0.02316892 -0.01576698 0.52600127
-0.13584401 -0.04736796 0.54381752
-0.1035507 -0.073989198 0.56520951
-0.1284357 -0.1253823 0.54751551
-0.085296482 -0.018603589 0.57970512
-0.1333597 -0.067408472 0.54557419
-0.052027851 -0.015852541 0.53464341
-0.081852049 -0.095200241 0.58471662
0.117162 -0.017954949 0.4971219
-0.01520887 -0.01841691 0.50728703
-0.07273826 -0.072216213 0.59243369
-0.03592002 -0.04905865 0.61992139
-0.112349 -0.1140477 0.55104578
-0.1156486 -0.20117719 0.54621929
-0.03894433 -0.2120828 0.6268397
-0.15333951 -0.1366457 0.52302289
0.1384349 -0.02611262 0.4906576
-0.073304273 -0.069384962 0.59004211
-0.1311897 -0.0398078 0.55031413
-0.1360779 -0.02593538 0.54213351
-0.1031508 -0.023912819 0.44612011
0.049323741 -0.018897209 0.53541583
-0.1185454 -0.0164271 0.458323
-0.13690069 -0.027266059 0.53957951
-0.05456743 -0.02007005 0.54548532
-0.056561351 -0.017943081 0.4023197
-0.15029199 -0.085040987 0.52277619
-0.031612929 -0.026091641 0.3499178
-0.048892349 -0.1121747 0.61483371
-0.047288809 -0.1169308 0.61652392
-0.1686717 -0.2807444 0.52574033
0.22675221 -0.3139993 0.51286602
0.25327581 -0.3171187 0.47889629
-0.0676364 -0.062038422 0.58413541
-0.082999907 -0.1139417 0.58620161
0.02293974 -0.0152314 0.48995379
-0.1497222 -0.079489052 0.53140599
-0.1158311 -0.01300228 0.5398249
-0.1194359 -0.024565009 0.48317289
0.099088162 -0.015922099 0.44832629
-0.108452 -0.02362806 0.52871501
-0.06027377 -0.025891449 0.35898411
-0.17052449 -0.28123301 0.52120668
-0.1591991 -0.16470329 0.52499789
-0.1645091 -0.17854241 0.51622349
-0.1196967 -0.080417663 0.55706018
0.01316488 -0.01728633 0.43559989
0.025293469 -0.01452065 0.42197001
-0.087805897 -0.03206506 0.57848132
-0.15742821 -0.078379363 0.52050447
-0.063368589 -0.078235239 0.59329432
-0.016755911 -0.026283439 0.41554871
-0.0117406 -0.03668943 0.41619551
-0.1016405 -0.018104671 0.4655388
0.047737479 -0.01201132 0.4569768
-0.1439752 -0.01880884 0.51096058
-0.077230573 -0.03181595 0.40198049
0.01665464 -0.02310607 0.58377719
0.0045739412 -0.01703411 0.46437249
-0.124366 -0.018729949 0.50249642
0.019875171 -0.01794621 0.50442088
-0.16036481 -0.24635901 0.51805693
0.1169962 -0.022296941 0.49313921
0.1020652 -0.018227341 0.46798149
-0.051363889 -0.023736799 0.56874758
-0.092181772 -0.073132247 0.5814243
-0.027736461 -0.057268381 0.62221879
-0.035861369 -0.2150026 0.62063462
0.2192986 -0.31184551 0.55568337
0.21906491 -0.3080408 0.5446654
-0.1111553 -0.1514187 0.56092602
-0.16526499 -0.04026046 0.50925869
-0.04758957 -0.01974115 0.3555173
-0.019092681 -0.01735571 0.37012899
-0.1291396 -0.1074021 0.54239053
-0.1582502 -0.035508249 0.52219969
-0.0105547 -0.18782879 0.64189821
-0.089345694 -0.018818229 0.49887261
0.004825383 -0.02210087 0.55016261
0.083113402 -0.01085335 0.43794781
-0.16050731 -0.3008 0.52186668
0.0086838901 -0.0150764 0.58042759
0.047342449 -0.025139179 0.55508792
-0.071962863 -0.02472076 0.55458212
-0.069726497 -0.018894229 0.56880748
-0.099149503 -0.02204442 0.50440699
-0.1084931 -0.023643579 0.49861071
0.01053467 -0.00768277 0.39731851
-0.1138028 -0.069735199 0.5456475
-0.1181907 -0.30149049 0.55689222
-0.084310412 -0.02158439 0.55356991
-0.052407589 -0.023629431 0.43210691
-0.092601448 -0.019694241 0.51019812
-0.0257031 -0.01355433 0.4931879
-0.025370689 -0.023344399 0.49387509
-0.067611009 -0.01903015 0.51902258
-0.12884431 -0.060659561 0.55113453
-0.1392459 -0.087248817 0.53513181
-0.1652718 -0.043437231 0.51263589
-0.16652711 -0.2159497 0.52011663
-0.1492559 -0.036560912 0.5203467
-0.02859777 -0.13900501 0.63902837
-0.04469901 -0.045280531 0.62439138
-0.0134033 -0.1775566 0.6416167
-0.1162855 -0.045970932 0.47764489
-0.171156 -0.046853319 0.52421319
-0.1225436 -0.04601391 0.55605477
-0.088679314 -0.096558698 0.58530492
-0.1504498 -0.124237 0.53220999
-0.1193407 -0.19616111 0.56092203
-0.03791463 -0.1267896 0.62153929
-0.138052 -0.1994902 0.4643164
-0.1525701 -0.095208958 0.4911871
-0.0091952085 -0.082302228 0.64500898
-0.061291222 -0.050739959 0.37361479
-0.1533432 -0.1770443 0.52046043
-0.08140564 -0.038005039 0.57374638
-0.1094977 -0.07502903 0.4334887
-0.1131236 -0.065864041 0.43540379
-0.16585471 -0.1023223 0.50380337
-0.1277283 -0.045563981 0.45609179
-0.1519389 -0.062694892 0.48595941
-0.15526681 -0.1208305 0.4933393
-0.02803761 -0.2231319 0.34315491
-0.048355158 -0.09614332 0.36146069
-0.1532723 -0.26062569 0.51409233
-0.1307071 -0.1084006 0.47779259
-0.1100171 -0.27063709 0.4506354
-0.12803631 -0.25073659 0.4563742
-0.040955842 -0.31899059 0.327178
-0.05804557 -0.2240518 0.37877709
-0.1531793 -0.3070727 0.52769393
-0.046918269 -0.20987581 0.36835891
-0.1573973 -0.34118509 0.29273251
-0.095005102 -0.29635501 0.41156659
-0.031326409 -0.1898571 0.3483144
-0.057159301 -0.30537689 0.3818194
-0.01354676 -0.2155426 0.63797748
-0.03124577 -0.2957646 0.63322908
-0.1299586 -0.31985259 0.47410041
-0.096192837 -0.32430339 0.42946559
-0.041381899 -0.314695 0.34967911
-0.16342901 -0.083705217 0.51117009
-0.02777398 -0.2247308 0.3417941
-0.1575754 -0.2135897 0.50504911
-0.1693365 -0.2078834 0.50796819
-0.1579987 -0.18791419 0.50023347
-0.080296993 -0.1590765 0.3993201
-0.05860072 -0.1788224 0.37975469
-0.040637139 -0.15281381 0.3503271
-0.053533021 -0.1130992 0.37577251
-0.08725071 -0.089133017 0.42242
-0.088893183 -0.1790839 0.41234291
-0.05724889 -0.1137717 0.37803
-0.1143923 -0.1158168 0.4298805
-0.081253052 -0.1300922 0.40132329
-0.1130154 -0.1450368 0.43742949
-0.080465019 -0.1420766 0.41505799
-0.098258138 -0.27021971 0.41449061
-0.055847701 -0.30757901 0.38812321
-0.05711085 -0.31270501 0.37090799
-0.060406741 -0.33963761 0.3213549
-0.1092835 -0.3404398 0.38102189
-0.1180992 -0.2433223 0.55614632
-0.1529557 -0.16107839 0.52937919
-0.030723389 -0.2383907 0.63190937
-0.1639571 -0.1420795 0.51801258
-0.15740781 -0.1924687 0.5128237
-0.095215678 -0.26841661 0.57083362
-0.17315 -0.097798049 0.5079118
-0.1590064 -0.1166291 0.51239598
-0.1673951 -0.2171957 0.51179183
-0.1631331 -0.2299204 0.50895548
-0.16330171 -0.28169119 0.50623012
-0.1055695 -0.26990089 0.4400498
-0.1422469 -0.2323463 0.47640529
-0.1374802 -0.24312399 0.48338801
-0.1209729 -0.2601178 0.44548491
-0.16943111 -0.2443548 0.51586843
-0.1608098 -0.31133491 0.50769091
-0.12866031 -0.30386829 0.4590221
-0.097248264 -0.2670328 0.43024069
-0.100512 -0.28767481 0.4276295
-0.1508003 -0.29642069 0.49789259
-0.145046 -0.3061617 0.48277399
-0.15309151 -0.32079321 0.51499063
-0.14665359 -0.23022179 0.49332759
-0.1407679 -0.30984449 0.4707922
-0.09102267 -0.1569421 0.4157013
-0.068878651 -0.2993606 0.3983303
-0.093121231 -0.30546409 0.57960629
-0.21721441 -0.3565616 0.4732258
-0.092344522 -0.16409311 0.42993471
-0.05017269 -0.26550531 0.37826559
-0.116332 -0.096918792 0.44654819
-0.1234781 -0.1061655 0.54234099
-0.1219458 -0.077125847 0.4705455
-0.1481825 -0.085529447 0.48741791
-0.1246532 -0.1086922 0.54740077
-0.1134269 -0.098660007 0.44720301
-0.1506564 -0.1526313 0.52634418
-0.2090048 -0.33867371 0.49775201
-0.1444681 -0.1315497 0.4964793
-0.03875101 -0.32538971 0.3705295
-0.158209 -0.1644008 0.50578451
-0.1391609 -0.094093412 0.53447372
-0.095487833 -0.1630826 0.43564159
-0.265295 -0.34756899 0.34321591
-0.13063809 -0.27645779 0.48011339
-0.076943338 -0.2677395 0.58206069
-0.1191974 -0.1713997 0.45197901
-0.1609896 -0.036918491 0.50751501
-0.04820269 -0.18861599 0.3768954
-0.040452361 -0.30387819 0.35891429
-0.073390722 -0.1936668 0.40543261
-0.044004079 -0.071537688 0.37503451
-0.053187191 -0.083006077 0.37466559
-0.03950787 -0.1022935 0.3507672
-0.02543205 -0.1565226 0.34246531
-0.043779131 -0.25536251 0.35453281
-0.08611393 -0.1889627 0.4093048
-0.1040152 -0.119321 0.42222399
-0.1500659 -0.1277632 0.4962166
-0.1259402 -0.32408419 0.55270863
-0.1440559 -0.1674203 0.49990219
-0.1091037 -0.3317064 0.36813799
-0.16533519 -0.091651231 0.51644742
-0.054118749 -0.035518479 0.37878379
-0.1072582 -0.037561581 0.44476211
-0.057190899 -0.032566041 0.3753356
-0.1084592 -0.03533208 0.44359171
-0.056899309 -0.058114439 0.3775782
-0.129025 -0.026855201 0.45679769
-0.090170622 -0.03576025 0.4237406
-0.055199381 -0.1717499 0.3770434
-0.085619509 -0.33564731 0.41913539
-0.1502634 -0.33956939 0.41697869
-0.162074 -0.34271419 0.44824019
-0.1649071 -0.04877669 0.50414068
-0.162717 -0.1864759 0.51498032
-0.13318481 -0.1431614 0.53739649
-0.1263897 -0.068743937 0.4762632
-0.052321609 -0.1675493 0.6068247
-0.13372339 -0.335058 0.53956681
-0.12830859 -0.29935649 0.46968031
-0.1524481 -0.32549211 0.50571859
-0.1227228 -0.32622501 0.56449193
-0.086856723 -0.1226349 0.41931629
-0.044422392 -0.28654799 0.36793321
-0.169449 -0.34585589 0.53642023
-0.1175679 -0.036006901 0.4576228
-0.1105238 -0.065422863 0.56311291
-0.039824069 -0.29294941 0.62391698
-0.059310969 -0.045032129 0.38138869
-0.05348802 -0.085946903 0.37839851
-0.1642669 -0.34591621 0.4454999
-0.1084533 -0.3501907 0.3105005
-0.1607517 -0.3387548 0.45782161
-0.1252608 -0.067757256 0.47655559
-0.17289481 -0.043401331 0.51291168
-0.02397519 -0.2606774 0.34604341
-0.045749132 -0.30480871 0.37127841
-0.098066807 -0.2498873 0.43449131
-0.077403843 -0.3318302 0.35944089
-0.040688571 -0.3371045 0.36632189
-0.040248629 -0.33623129 0.2908363
0.0130105 -0.33048791 0.29450351
-0.032510579 -0.325782 0.2827138
-0.04007918 -0.33382341 0.3037467
-0.1235626 -0.27854389 0.46180731
-0.119548 -0.2684727 0.45469329
-0.14821289 -0.27402729 0.49025169
-0.1234484 -0.27450511 0.46873161
-0.049179431 -0.33310291 0.31555271
-0.15282761 -0.2772398 0.5088377
-0.15126731 -0.2887567 0.53148001
-0.04573679 -0.05437142 0.61382937
-0.1049792 -0.2317666 0.56384408
-0.096396357 -0.038963761 0.56665432
-0.085003532 -0.29349729 0.58730972
-0.039537162 -0.2388743 0.62758797
-0.093073793 -0.187975 0.57320547
-0.049137741 -0.21323501 0.61544698
-0.1236276 -0.2004728 0.55207378
-0.1544058 -0.27036521 0.52296913
-0.056622121 -0.14969119 0.6197387
-0.07659319 -0.2200228 0.59977257
-0.1797217 -0.1302544 0.52180862
-0.00725618 -0.23914181 0.63189828
-0.039459851 -0.2589947 0.63614398
0.1175808 -0.052231099 0.3735989
-0.089454502 -0.27353659 0.59762257
-0.12716819 -0.02645487 0.55233318
-0.082818568 -0.02322581 0.56207353
-0.04704925 -0.096580863 0.61118972
0.0026915071 -0.0097587109 0.3861033
-0.064109407 -0.23524401 0.59496057
-0.029499499 -0.01674643 0.36373439
0.1021711 -0.023389701 0.44092801
0.103512 -0.019475279 0.4902322
0.073722579 -0.02511281 0.44720021
0.098739266 -0.01798436 0.47830579
0.05797429 -0.023742771 0.53412139
-0.16149551 -0.085307747 0.50666058
-0.113564 -0.01266667 0.49601361
-0.1255586 -0.024969701 0.52517688
0.0429129 -0.01608157 0.41358671
0.07543087 -0.0144757 0.45046961
-0.039372269 -0.02366042 0.5529424
-0.048558 -0.02480465 0.58802003
0.01297039 -0.02504465 0.58808982
-0.01239902 -0.17678259 0.62621462
0.053601678 -0.016488491 0.54646188
0.02737576 -0.01518059 0.45757511
0.067613073 -0.01557523 0.52875471
-0.01130283 -0.02469942 0.61986709
-0.13294441 -0.02367771 0.4942525
-0.098137863 -0.02438223 0.56005138
0.21054859 -0.3248404 0.49892631
0.166324 -0.3117128 0.4974651
0.21312951 -0.32085899 0.48743191
-0.030234611 -0.02401552 0.4090071
0.02569443 -0.02258366 0.40904239
-0.055115759 -0.017246479 0.48771039
-0.01261854 -0.02039993 0.42797551
-0.05258343 -0.02156082 0.39929831
0.0028856101 -0.02733859 0.57036531
0.087204583 -0.024235159 0.44870669
0.01199767 -0.023450609 0.47801769
0.047677759 -0.0234023 0.55814499
-0.0044058561 -0.022077139 0.46704069
-0.0090309381 -0.050885681 0.6294986
-0.0087714205 -0.01593703 0.50605142
0.027371529 -0.018902929 0.56619579
0.079026759 -0.022045519 0.47306389
0.02105749 -0.1109759 0.59395051
-0.053353611 -0.025067329 0.4284673
0.2299441 -0.31428859 0.46445429
0.1386067 -0.32006869 0.4718428
0.026710389 -0.02426526 0.38518581
0.0235689 -0.02339402 0.4722091
0.065106243 -0.1385221 0.54079419
-0.03083593 -0.084621012 0.61244351
0.083071589 -0.24575201 0.52686697
-0.1162623 -0.026850941 0.50227952
0.1199386 -0.32836589 0.59492552
-0.098113298 -0.033068512 0.56115812
0.1789642 -0.32264489 0.47132269
-0.1155934 -0.024131721 0.4665783
0.086945742 -0.1017866 0.51565182
0.023222741 -0.060459521 0.59124601
0.046589792 -0.055851489 0.55998892
0.1193388 -0.19810779 0.47129291
0.08558768 -0.15346161 0.50700551
0.1053503 -0.2899552 0.51028693
-0.1010976 -0.026721811 0.49237141
0.2094285 -0.31651509 0.51819968
0.023984609 -0.036791351 0.56367242
0.0049733222 -0.0291948 0.51306587
0.1191676 -0.077952377 0.47424951
0.04097116 -0.058326989 0.57510859
0.037034061 -0.027484659 0.56693387
-0.02590039 -0.02756926 0.61250621
-0.01111171 -0.17731591 0.62289077
0.033335779 -0.097551823 0.57726598
0.039750159 -0.072153181 0.56739569
0.020016279 -0.209782 0.59657592
0.01570484 -0.27689281 0.60072249
0.072901532 -0.1182956 0.53196609
0.0085738599 -0.1033965 0.6096608
-0.016078919 -0.29445049 0.62792832
0.077044956 -0.15003949 0.53446978
0.2033172 -0.32794589 0.46293369
0.1106175 -0.1505425 0.4785206
0.199937 -0.31279099 0.48642829
0.2405529 -0.3252582 0.49601391
0.071169667 -0.022436289 0.50160903
-0.0048550069 -0.02713931 0.57915097
0.097439557 -0.081971496 0.48917469
0.064014196 -0.073042572 0.53263539
0.058687732 -0.05903253 0.54474431
0.065887026 -0.1894242 0.55122131
0.083409794 -0.190688 0.51706278
-0.0050386488 -0.051596612 0.62631381
0.0020840471 -0.051068399 0.61528301
0.070199817 -0.1232904 0.53609312
0.02013373 -0.047109481 0.58482897
0.1121726 -0.3181307 0.4545922
0.1053143 -0.1985974 0.48755679
0.01744348 -0.2454315 0.60079819
-0.022646841 -0.2939581 0.63397437
0.050726831 -0.083117753 0.55779809
0.078551367 -0.1005695 0.52027828
0.21214481 -0.32583839 0.51991361
0.095118336 -0.21766721 0.50797451
0.089868873 -0.1183937 0.51217288
0.1111315 -0.2885406 0.50045401
-0.073722571 -0.165868 0.58080429
-0.050029669 -0.30243069 0.60406768
-0.01753342 -0.023759959 0.61790121
0.058536869 -0.02448919 0.40152651
0.087483473 -0.02491999 0.50555003
0.059745941 -0.02469435 0.4528054
0.084885374 -0.033586979 0.50703472
0.05446123 -0.1896283 0.55291742
0.034094099 -0.091224194 0.57801121
0.077973962 -0.097152106 0.5187844
0.064607799 -0.037904169 0.53681451
0.1189878 -0.1131929 0.47241631
0.098689303 -0.1274308 0.49502179
0.1166424 -0.1291032 0.4781169
0.100215 -0.26282349 0.49946249
0.045613859 -0.038714621 0.55907238
0.082166523 -0.093830228 0.51598382
0.035988659 -0.27563751 0.583516
0.017276701 -0.29766491 0.60109133
0.018875871 -0.02301595 0.58839852
0.0447267 -0.096085161 0.56491959
0.03950876 -0.320077 0.56239939
-0.064840727 -0.034777641 0.58740783
0.069320261 -0.32498249 0.64724469
0.07396701 -0.2385416 0.53278941
0.1221617 -0.27669001 0.4682177
0.1240324 -0.091463238 0.46435481
0.008358568 -0.028769311 0.42139891
0.092104703 -0.29855809 0.51339948
0.1227883 -0.1406251 0.46935701
0.084261127 -0.3075662 0.52449483
-0.1378628 -0.089985102 0.52293551
0.0048706532 -0.1355601 0.61458009
-0.17483179 -0.1096626 0.496176
0.0081126392 -0.057422131 0.6074968
0.0090503991 -0.036221769 0.60933781
0.072575152 -0.31893861 0.60254979
-0.08599928 -0.025095969 0.54460818
-0.1129268 -0.017980009 0.49571171
-0.16166539 -0.03874049 0.50436091
-0.085443169 -0.29144031 0.57577199
-0.1563478 -0.1204601 0.51252848
-0.1229669 -0.2032695 0.54209971
0.004901737 -0.026881929 0.60670668
-0.1749613 -0.086149544 0.4957394
0.097876102 -0.022829 0.46305481
0.086978793 -0.02343693 0.44865829
0.049299721 -0.02463552 0.54981738
0.1119128 -0.055538591 0.48169979
0.1131724 -0.02943516 0.47521389
0.093900442 -0.22037441 0.50967163
0.076316252 -0.2604644 0.5340324
0.06206679 -0.15876789 0.54133213
0.077819929 -0.1737531 0.52877569
0.1353039 -0.31376559 0.4569205
0.1346366 -0.30735061 0.44195911
0.088997543 -0.089887589 0.50338417
0.0088846385 -0.027895181 0.59518772
0.2528314 -0.31878471 0.48149639
0.2027196 -0.3285602 0.43131199
0.003181726 -0.06027991 0.61693358
0.1586946 -0.3240453 0.39855689
-0.032653298 -0.019475911 0.47891089
0.2398712 -0.32192549 0.47303739
-0.035898149 -0.27522051 0.61615658
0.1178212 -0.32231569 0.64328772
0.1574592 -0.32537049 0.56786168
0.1211086 -0.32463509 0.63129228
0.14307401 -0.32261881 0.57055992
0.094384313 -0.02860448 0.4923363
0.00035271049 -0.27796391 0.61565667
0.092085443 -0.32760701 0.51374751
0.01573202 -0.021926111 0.5741747
-0.068148427 -0.081475109 0.58618093
-0.1744938 -0.27821031 0.5025351
0.03804687 -0.02485919 0.55542082
0.02070361 -0.2110431 0.59458399
-0.1475008 -0.087762482 0.5209381
0.053590968 -0.028606741 0.48531121
0.077663898 -0.023079099 0.51279777
0.1074155 -0.024065049 0.47030559
0.064441293 -0.029328549 0.4801338
0.1266614 -0.038148191 0.4596819
0.1004463 -0.050728589 0.49182081
0.089828372 -0.070826322 0.50321311
0.1124013 -0.19523069 0.48262841
0.098535843 -0.1913683 0.51232409
0.072835818 -0.080785811 0.52564222
0.072205447 -0.1050842 0.52511418
0.082938097 -0.2255509 0.52053428
0.1177284 -0.1081634 0.47982091
0.1130421 -0.27365789 0.48524219
0.067920119 -0.068053283 0.52985948
0.1070538 -0.24281961 0.48931819
-0.155141 -0.028622121 0.47253981
-0.059421871 -0.046981629 0.58995432
0.054889109 -0.18450101 0.5577153
-0.1413133 -0.03859064 0.52026099
-0.048724171 -0.025430201 0.4865689
-0.1406924 -0.03066352 0.52364761
0.1222799 -0.3135033 0.39970881
-0.0307658 -0.03632525 0.61427021
0.15444779 -0.3231647 0.38165629
-0.0012895759 -0.038333181 0.62216389
-0.0034533441 -0.2606937 0.62621999
0.19159929 -0.32360181 0.41254911
-0.17248119 -0.20749339 0.50580692
0.2283228 -0.3231802 0.51076639
0.032062411 -0.082504809 0.58140898
0.1709595 -0.3290351 0.3888979
-0.1471383 -0.2287983 0.52271777
-0.01371518 -0.26884371 0.62589753
0.1232484 -0.32886139 0.61326641
0.143424 -0.32343259 0.58348697
0.1204142 -0.32677239 0.61323398
0.083850861 -0.23534571 0.52086282
-0.089475013 -0.01562503 0.53215259
0.057442009 -0.04284054 0.53608912
0.077296928 -0.01975983 0.49655929
0.09824577 -0.28687811 0.49092659
0.047166761 -0.01269308 0.41607189
0.1104667 -0.31554911 0.4401381
-0.057376739 -0.3188054 0.32840109
0.090512693 -0.01504675 0.44506761
0.13230389 -0.3025966 0.4573555
0.1076097 -0.17583869 0.4574405
-0.02545619 -0.32065609 0.3281312
0.096671753 -0.23453461 0.45618749
-0.13245741 -0.02323732 0.43425381
-0.045450032 -0.01268297 0.55534297
0.04474536 -0.01941568 0.4151518
0.02064782 -0.01537871 0.47409269
0.098592639 -0.1149051 0.48283759
0.051259279 -0.02086222 0.41050121
0.077234827 -0.1535763 0.434627
-0.12558851 -0.01301318 0.4883936
0.078414202 -0.3154197 0.4522016
0.080635607 -0.16635901 0.44029951
0.01645017 -0.16119219 0.3939499
0.057301968 -0.095118403 0.42446819
-0.059035301 -0.2150711 0.33413351
0.0050649638 -0.095051587 0.3771137
-0.14514799 -0.021239251 0.44204921
-0.044233441 -0.3225342 0.33964711
0.021661161 -0.2734974 0.39102539
0.08387053 -0.1298167 0.44572631
-0.0045577288 -0.1823969 0.36297679
0.075342707 -0.32002521 0.43456021
0.097726047 -0.26258239 0.47363469
0.051629659 -0.1726916 0.4347184
-0.03012896 -0.3021768 0.3456594
0.03251183 -0.01506105 0.39679411
0.02389616 -0.01514515 0.39570859
-0.1280403 -0.01430917 0.46331671
-0.0042603612 -0.01451969 0.4910728
-0.05730224 -0.096681118 0.33330321
0.04486024 -0.2200516 0.4031387
0.05285424 -0.1596005 0.41436589
0.077382207 -0.18459819 0.4346779
-0.027889639 -0.051220719 0.3543573
-0.077659369 -0.017726241 0.39033049
0.1047071 -0.076991349 0.46966389
0.05440199 -0.035200119 0.42008591
0.0087420046 -0.02782351 0.38843951
0.061589301 -0.2445142 0.42547941
-0.057465199 -0.1413205 0.33312461
0.01920915 -0.1125657 0.39120111
0.030974749 -0.049390409 0.40155849
-0.052151319 -0.2528052 0.33587429
0.02401471 -0.1230356 0.39758259
-0.040814821 -0.1661671 0.34504309
-0.0081364512 -0.099264711 0.3616116
-0.02981377 -0.1313284 0.3528029
0.0156413 -0.073942721 0.39088431
-0.036323071 -0.01488286 0.61399043
-0.1077792 -0.01985481 0.39899489
-0.019486159 -0.028034391 0.3577626
0.01001793 -0.01434979 0.45523271
0.099130601 -0.1630882 0.47426611
0.01227754 -0.2123583 0.37626189
0.1047129 -0.17781501 0.46337399
-0.054427031 -0.1408055 0.33355421
-0.050689939 -0.2125238 0.33934349
0.048236609 -0.081018686 0.41383809
0.091348469 -0.32403669 0.62002242
0.097050488 -0.32348591 0.62067193
-0.01134789 -0.1113586 0.36033601
-0.0076208711 -0.25236639 0.36356291
0.08215788 -0.020996749 0.436703
0.03022304 -0.053554121 0.4085761
0.099904239 -0.1276513 0.4546133
0.02842265 -0.145303 0.39648819
-0.0213474 -0.053879499 0.35494831
0.02302796 -0.24205761 0.39021841
-0.0029379129 -0.31644481 0.3144393
0.077234633 -0.058545168 0.43233001
0.05258644 -0.1834825 0.41435221
0.1033936 -0.086511463 0.45911321
0.05426091 -0.078008227 0.4226599
-0.079911649 -0.01863423 0.5839839
-0.044582959 -0.024372971 0.33435249
0.1912968 -0.3248398 0.54009748
0.1124058 -0.33062071 0.309255
-0.04081523 -0.088999093 0.34038109
0.01510502 -0.076689333 0.3922255
0.042209271 -0.25121859 0.39196739
0.097486228 -0.1451184 0.45591211
0.097501099 -0.099067718 0.45482171
0.09651494 -0.111902 0.45523229
-0.025315519 -0.076195151 0.35377681
0.03192595 -0.033075359 0.39928871
0.05584294 -0.3085731 0.42075419
-0.027565241 -0.1133027 0.34713021
0.0106383 -0.01783544 0.406427
-0.0085170269 -0.02182138 0.3665942
-0.01448518 -0.019777721 0.61641902
0.055489779 -0.01515377 0.45381489
-0.116896 -0.0183993 0.49373701
0.050830569 -0.02510762 0.49620619
0.2380596 -0.32476881 0.56569773
0.020054281 -0.037754949 0.3912051
0.064645886 -0.16023859 0.42983341
0.1085739 -0.2500875 0.4769333
-0.058604181 -0.2851046 0.33160979
-0.05611122 -0.1578389 0.3341608
-0.064873457 -0.31318361 0.32760361
-0.05529255 -0.25324571 0.33583689
0.041570898 -0.2134997 0.40133989
-0.0092349648 -0.05608755 0.37020841
-0.038063589 -0.12788489 0.33999211
0.084138691 -0.2340074 0.44177541
0.05307335 -0.2595503 0.40892169
-0.029409111 -0.1841125 0.35452169
-0.01767486 -0.29633331 0.3637296
0.03274912 -0.3071779 0.40572399
-0.043645259 -0.1518057 0.34044909
0.084158868 -0.079584271 0.44428051
-0.1280338 -0.021970989 0.53466761
-0.080061972 -0.01940969 0.34898219
-0.1527756 -0.02007121 0.5278824
-0.01602268 -0.016086429 0.37568769
-0.064881027 -0.015949581 0.5981999
-0.079099543 -0.02304256 0.46265969
0.091092877 -0.01387072 0.4925653
0.1099684 -0.30771029 0.48851851
0.079743892 0.001273602 0.43511939
0.046477322 -0.03121224 0.41544899
-0.059245821 -0.091317654 0.32969499
0.193552 -0.32891679 0.53123409
-0.05771324 -0.1896812 0.3328096
-0.06257689 -0.23758151 0.32877499
-0.065648623 -0.099497877 0.32316589
0.053105261 -0.089760989 0.42121139
0.26392791 -0.33003321 0.50224012
0.044447482 -0.1994386 0.4096024
-0.002604485 -0.27998641 0.36221871
-0.062738419 -0.02319077 0.3367843
-0.01037407 -0.020940781 0.61743271
-0.005182385 -0.01820335 0.39812431
-0.051807821 -0.0189403 0.59036732
0.055115402 -0.017087489 0.44309059
-0.046158429 -0.036260132 0.34526259
-0.0044235592 -0.1894691 0.37044889
0.026057599 -0.01355997 0.42797419
0.098582603 -0.1659622 0.46732831
0.094039917 -0.2706449 0.51813239
-0.063014694 -0.097089738 0.32633319
-0.03233939 -0.25036389 0.3460874
0.22372641 -0.32899931 0.49468169
0.070788503 -0.1450593 0.4207767
0.07315135 -0.198936 0.43373531
-0.066093437 -0.1428446 0.32404211
-0.01307899 -0.3291623 0.3092387
0.089175403 -0.1953772 0.46713501
-0.045347091 -0.2396241 0.34444141
0.050935149 -0.2400343 0.41421211
-0.121375 -0.019590469 0.55690408
-0.073231518 -0.019153271 0.37575191
0.1014006 -0.27129191 0.46984699
0.1001325 -0.024434419 0.45442429
0.019866999 -0.15641171 0.39616171
0.043088172 -0.1870352 0.4123551
-0.063728809 -0.30675581 0.33094281
-0.0082651377 -0.1227758 0.37293121
-0.0092515945 -0.33253929 0.31795681
0.0083233118 -0.26867199 0.3893933
0.056208041 -0.31038901 0.4257865
0.065715037 -0.1728642 0.4319905
0.01274866 -0.2092448 0.3745597
0.100644 -0.2039714 0.46989721
0.13015319 -0.32750931 0.45751509
0.081673123 -0.1922496 0.4401046
-0.038292829 -0.32670629 0.32097211
0.01298323 -0.29794639 0.3887563
0.056205962 -0.32456249 0.42144421
0.1226565 -0.33017719 0.46635681
0.021057131 -0.098001391 0.3965497
0.044594649 -0.25375861 0.4208954
0.081742108 -0.3137365 0.44584209
0.1108416 -0.3278124 0.47897711
0.1007994 -0.2458653 0.46981651
0.049938589 -0.01186201 0.5436992
0.19036029 -0.3247166 0.4981685
0.21720751 -0.32785109 0.47759619
0.1959676 -0.32724741 0.50617939
-0.0067470069 -0.020202899 0.5120756
-0.078902721 -0.01648158 0.3643952
-0.084052682 -0.01540533 0.56184453
-0.040115591 -0.022040069 0.3756336
-0.04782987 -0.0183197 0.37923741
-0.053057428 -0.0242739 0.55093843
-0.038201991 -0.0280762 0.39568561
-0.076622494 -0.01130244 0.59588432
-0.065061212 -0.01052347 0.61320138
0.097581618 -0.1368809 0.49928549
0.1024222 -0.1265097 0.50343812
0.075429708 -0.25530389 0.43856519
0.1022659 -0.2109804 0.50171119
-0.0279637 -0.04214105 0.36579821
-0.020532221 -0.3126125 0.3369818
0.1243333 -0.30298471 0.48889109
0.038892418 -0.13372681 0.42641929
-0.01138568 -0.26458079 0.36637771
0.02833027 -0.025779691 0.54119951
0.0033559799 -0.04998425 0.37851301
0.078576058 -0.13971891 0.43266171
-0.05492967 -0.31125179 0.33659291
-0.059998989 -0.068128318 0.32626319
0.060112599 -0.04318824 0.42663401
0.067129217 -0.2871967 0.4366354
-0.0061194301 -0.295151 0.37286049
0.019139949 -0.32901931 0.31101009
0.1342566 -0.3371827 0.4037306
0.05581611 -0.32203731 0.37100041
0.0295293 -0.32580841 0.31791091
0.1037883 -0.036037061 0.4702625
0.095438063 -0.03858107 0.48632711
-0.1579788 -0.02503112 0.49835569
-0.053378999 -0.01409498 0.39605209
-0.06823808 -0.0076531768 0.6249758
-0.1488665 -0.02318171 0.45845041
-0.074241221 -0.001185477 0.59345257
-0.1016464 -0.01659018 0.37632641
0.063327998 -0.035721511 0.45023391
0.01482224 -0.02735248 0.39846981
0.042242911 -0.20682471 0.42080829
0.032958891 -0.1927347 0.40359989
-0.03954393 -0.212082 0.35145149
-0.062882781 -0.02170879 0.35681149
-0.04678994 -0.1461087 0.342298
-0.044061959 -0.2158926 0.33837989
-0.01214337 -0.32980591 0.2996408
0.020620471 -0.13092691 0.40143141
-0.063184679 -0.30342159 0.31576061
0.0041472018 -0.1331176 0.38653919
-0.064697087 -0.2728802 0.33101821
0.1139004 -0.34251559 0.4518964
0.057658259 -0.20760959 0.4486987
0.097214937 -0.072754949 0.4564749
0.156225 -0.34848511 0.46340609
0.054145601 -0.3365944 0.2883707
-0.01466805 -0.22103439 0.3650668
0.075927697 -0.1014053 0.43747601
0.1035153 -0.27430391 0.4675335
0.08620885 -0.1787698 0.4525297
0.081802107 -0.276696 0.44880489
0.062657483 -0.3329446 0.34108269
-0.002948523 -0.1133667 0.38008559
-0.048005641 -0.075898528 0.33698741
-0.048465159 -0.18231539 0.34352851
0.037041891 -0.31341749 0.4171811
0.096869171 -0.1122477 0.46603689
0.1472535 -0.30426481 0.58453149
0.046255201 -0.33557349 0.28821561
-0.01156583 -0.1466708 0.36775559
0.039542969 -0.3341361 0.3195422
0.1182855 -0.3171505 0.4781203
0.1045932 -0.1052949 0.45609379
0.0061407089 -0.2023318 0.3658888
0.068215311 -0.01315767 0.52594823
0.04443213 -0.01322851 0.54246241
-0.1195741 -0.02053228 0.48708579
-0.01386899 -0.2524932 0.35270071
0.040045559 0.001693308 0.3977333
0.042306181 -0.032072991 0.4014425
-0.006310761 -0.01167858 0.47841269
0.093377143 -0.01484424 0.4798837
0.090737037 -0.2326013 0.44294101
-0.165848 -0.0143477 0.4937683
-0.080144703 -0.0083944499 0.57214898
0.13300741 -0.30079839 0.44675079
0.068707108 -0.015896499 0.4970358
0.077263243 -0.30969399 0.43102959
0.087185502 -0.017886581 0.4697482
0.079684667 -0.0084370673 0.44349051
0.105736 -0.071015 0.45715261
-0.0394153 -0.1538353 0.33273959
0.097168557 -0.2586647 0.46262509
0.0026398301 -0.02922583 0.60047692
-0.059021711 -0.01515621 0.32263431
-0.045744121 -0.3226153 0.3193312
0.076137424 -0.305289 0.41658419
0.01219565 -0.0085593164 0.43634051
0.05798173 -0.2363323 0.4135024
0.0074051018 -0.015965641 0.4689135
0.1043069 -0.29246491 0.4747532
0.020670289 -0.31823671 0.320173
0.1116421 -0.028218361 0.45724529
-0.08191359 -0.018855359 0.34980261
0.1054342 -0.27921781 0.52521741
0.054827511 -0.31685001 0.35920539
0.2022576 -0.3052361 0.48764101
0.1639917 -0.31295639 0.39662829
0.033288751 -0.01544556 0.51260209
0.071085133 -0.01755652 0.47077379
0.002503976 -0.01879829 0.59337032
0.105901 -0.080975004 0.48361281
0.1192947 -0.081570148 0.46738479
0.03846455 -0.30791539 0.55296302
-0.053412911 -0.3113116 0.31352651
-0.0044887662 -0.3100225 0.2915906
-0.04164904 -0.31681061 0.30845091
-0.001685977 -0.31158099 0.29842281
-0.006588757 -0.3068819 0.28421739
0.062834777 -0.035169929 0.52563512
0.074375927 -0.070159607 0.50285912
0.052292939 -0.22674391 0.40004611
0.15055761 -0.31422889 0.39967701
0.037091199 -0.0075049102 0.40864769
0.044263478 -0.01285896 0.40526059
0.099189334 -0.02287847 0.48601061
0.008520484 -0.30447111 0.59652388
0.08679454 -0.1819995 0.51075572
0.1082914 -0.30306849 0.47181299
0.089047998 -0.067334093 0.49762511
0.1059124 -0.073287547 0.45872599
0.1057894 -0.20566911 0.489389
0.033931751 -0.190869 0.56650782
0.1051354 -0.2442355 0.45879379
0.1169934 -0.09762916 0.47600421
0.1161295 -0.1350386 0.4657208
0.1122903 -0.3011823 0.42792469
0.02373332 -0.085980617 0.57045579
0.025548341 -0.048933391 0.55948198
-0.01494044 -0.019525681 0.62282997
-0.0084415674 -0.047426641 0.61325657
0.1094205 -0.3177537 0.35886189
0.0069440599 -0.1350757 0.59228748
0.068257332 -0.023948461 0.51320398
0.1042417 -0.060923461 0.46469489
0.095236734 -0.01477134 0.50344718
0.0054381192 -0.092170477 0.61374921
-0.01885253 -0.039367851 0.62451762
0.1078656 -0.17720839 0.46766141
0.03461555 -0.16378 0.56671429
0.085675418 -0.2164413 0.50142431
0.1088906 -0.2343853 0.48025179
0.045691669 -0.3076511 0.55503881
0.1111065 -0.2145395 0.46555579
0.092361629 -0.1072862 0.48775521
0.07603389 -0.2421286 0.41980529
0.067956857 -0.31849429 0.33897361
-0.05672491 -0.01153582 0.4843539
0.070985816 -0.02675161 0.52656633
0.02072233 -0.036675539 0.57036197
0.066135347 -0.25350201 0.53570431
0.021432219 -0.071756177 0.57403332
0.054436158 -0.193267 0.56508821
0.03466998 -0.2080905 0.58134979
-0.001678862 -0.1249486 0.61686373
0.0592857 -0.03106555 0.52481592
0.1180253 -0.066051573 0.47572991
0.1043879 -0.04659057 0.47857809
0.1202233 -0.1850099 0.47781411
0.092672653 -0.1441005 0.50160629
0.091318727 -0.03629664 0.48117879
0.003324568 -0.2474729 0.59827828
0.02972452 -0.1027104 0.57015961
-0.001477301 -0.209098 0.61060828
0.14464881 -0.3164137 0.38201529
0.1425045 -0.3081525 0.38532209
-0.022258939 -0.1961484 0.62716663
-0.059892651 -0.01482588 0.54734921
-0.085438758 -0.01412782 0.51989257
0.050246298 -0.017344709 0.55550522
0.086878963 -0.06643039 0.49696651
0.018481079 -0.0095870486 0.56209803
0.055703081 -0.04811332 0.54541081
0.03379504 -0.080012858 0.57903183
0.006877542 -0.050160591 0.59029502
0.002982676 -0.071896553 0.59757602
-0.0093680024 -0.1052589 0.62350702
0.03737551 -0.083093233 0.55127943
0.072907507 -0.093632519 0.51288092
0.053135339 -0.1115843 0.53576583
0.091100372 -0.2312523 0.51265597
0.01878947 -0.2005133 0.59970802
0.0026976471 -0.1582935 0.59929907
0.1030942 -0.25716141 0.49171671
0.091154523 -0.1142099 0.49932781
0.038260099 -0.1899734 0.55433518
0.05957007 -0.2007 0.53602761
0.05115686 -0.28440681 0.55617583
0.069571853 -0.116747 0.51831031
0.07781285 -0.1075755 0.51603359
0.035248931 -0.26184091 0.58639449
0.098288298 -0.1816984 0.48236251
0.04150128 -0.1712946 0.55922759
0.1195366 -0.26320931 0.47206539
0.045190688 -0.1464957 0.54815412
0.092268951 -0.085881174 0.50235462
0.043308679 -0.1238968 0.54899651
-0.01506519 -0.2592037 0.62129903
0.088361077 -0.26306859 0.50383991
0.08632499 -0.29305699 0.50665092
0.033529609 -0.15019821 0.56324559
-0.01734489 -0.28410321 0.63116789
0.084443867 -0.3027882 0.50758177
-0.1265619 -0.01228157 0.48381689
-0.074445188 -0.007293582 0.38425481
-0.02805448 -0.022480249 0.344163
0.096976437 -0.0079371631 0.4680818
-0.0035000441 -0.0086245826 0.36978689
-0.07237047 -0.01514399 0.38870281
-0.082040071 -0.29496589 0.3088271
0.1153666 -0.1060637 0.4696545
0.087705366 -0.31711999 0.33119211
0.1325381 -0.32428941 0.43792221
0.17263331 -0.3107298 0.42825559
0.20133621 -0.3045139 0.4715372
0.069481067 -0.3151221 0.59458113
0.16966321 -0.31774071 0.42867631
-0.019038741 -0.15824419 0.63039899
0.01555885 -0.1856505 0.59678513
0.0017888549 -0.01361078 0.51899588
0.080687761 -0.2269755 0.4294537
0.13229349 -0.31995249 0.43498051
0.01390815 -0.1175202 0.58143651
0.0072633619 -0.21080139 0.59713042
0.18040819 -0.30572021 0.41870111
0.034897979 -0.3010169 0.56707358
0.1943868 -0.30883431 0.43368191
0.1829447 -0.3194997 0.44088221
-0.02110791 -0.30116031 0.1016773
0.02890229 -0.31316391 0.26814929
-0.090952814 -0.320342 0.29537281
0.2171997 -0.31395751 0.4592993
0.049210612 -0.3143101 0.34221891
0.25461289 -0.3120614 0.2133649
-0.01534402 -0.044193801 0.35336679
0.2161656 -0.3124778 0.51594192
-0.03154546 -0.3179228 0.27957559
0.210953 -0.3105711 0.44291061
-0.064361751 -0.31865171 0.26397029
0.0062963068 -0.1236615 0.60355312
0.065790519 -0.22761419 0.53592122
-0.017599929 -0.25758711 0.62683737
0.022985701 -0.2965394 0.5947544
0.01267409 -0.2839039 0.5953986
0.087458357 -0.28557351 0.51832378
-0.01396191 -0.32048121 0.62449747
0.01060241 -0.0086535811 0.41437021
0.03907245 -0.0095999241 0.47502491
0.1093402 -0.116566 0.4789694
0.1155722 -0.05764389 0.45578021
0.1153748 -0.084771447 0.45389891
-0.02499914 -0.009553194 0.59747583
0.084715247 -0.3275986 0.64246398
0.065285273 -0.29807541 0.53184837
0.0047157998 -0.1424078 0.59230763
0.058211211 -0.2528798 0.40590161
0.094513327 -0.04258975 0.491932
-0.02043009 -0.2776292 0.3460733
0.0006493628 -0.081151277 0.60870463
0.02908266 -0.31527349 0.30888239
-0.01537988 -0.2161171 0.6257447
0.1083679 -0.30967981 0.60005993
0.1360032 -0.31661549 0.46903941
0.14908201 -0.31367031 0.57316393
0.2302852 -0.3431378 0.2262304
0.2268388 -0.3150292 0.47921649
0.2036885 -0.3089605 0.50630301
0.17956351 -0.31405401 0.22683699
0.19593731 -0.31093419 0.48860279
