# .PCD v0.7 - Point Cloud Data file format
VERSION 0.7
FIELDS x y z
SIZE 4 4 4
TYPE F F F
COUNT 1 1 1
WIDTH 460
HEIGHT 1
VIEWPOINT 0 0 0 1 0 0 0
POINTS 460
DATA ascii
0.22380771 -0.12620109 0.48770469
0.15223759 -0.20867901 0.33220729
0.2458654 -0.21126799 0.27103871
0.1856437 -0.21244299 0.23101
0.180186 -0.214846 0.24592289
0.1436498 -0.21038219 0.27572399
0.3069523 0.019874301 0.47651151
0.22716521 -0.20343719 0.30396599
0.2267091 -0.2032364 0.26602301
0.2577678 -0.2121911 0.26093659
0.21879341 -0.21318869 0.25873369
0.21437991 -0.2040589 0.2287266
0.2539537 -0.2120482 0.2400033
0.26133201 -0.20384949 0.25481239
0.30336401 -0.2055029 0.27580991
0.28556731 -0.2064971 0.26284909
0.2322012 -0.2108366 0.20584971
0.3053861 -0.00087416923 0.4755252
0.2044777 -0.2138049 0.2423607
0.3260949 -0.21929841 0.59146851
0.2286184 -0.1219955 0.50261122
0.217411 -0.1238617 0.51555687
0.30642059 0.02261037 0.4794555
0.3246949 -0.01054943 0.4748933
0.36109331 -0.2164543 0.58483618
0.2195358 -0.21288189 0.25607091
0.32634631 -0.2201077 0.58419782
0.2946558 -0.1130218 0.48147851
0.1510057 -0.213035 0.2661128
0.1884971 -0.21308739 0.24411801
0.47750661 -0.23340879 0.54628628
0.37105501 -0.051434491 0.47228181
0.30112541 -0.1020811 0.47551879
0.19467141 -0.21643101 0.2424586
0.324898 -0.0166419 0.4765386
0.2204802 -0.2124029 0.2369772
0.2103868 -0.2073299 0.2365552
0.25640509 0.08898823 0.51558077
0.1341626 -0.2133096 0.27330059
0.19422521 -0.1264571 0.5309397
0.47230029 -0.2366395 0.5348326
0.33214939 0.01650152 0.49031809
0.2025608 -0.21202409 0.2443489
0.3001104 0.0036090759 0.47071341
0.18544909 -0.21026111 0.28948671
0.1976653 -0.2098341 0.3261171
0.1894666 -0.2091236 0.3255353
0.1702486 -0.2128049 0.30016589
0.2244828 -0.2261136 0.51524001
0.2052822 -0.1241576 0.51949018
0.1696458 -0.2253149 0.45743909
0.1625199 -0.2245155 0.4594067
0.1596024 -0.22982781 0.49391589
0.4990167 -0.057124231 0.63501668
0.1049169 -0.211642 0.3671805
0.1066635 -0.21865 0.30225241
0.083522521 -0.21581741 0.33931831
0.080369063 -0.21584851 0.31948981
0.07663399 -0.2091703 0.34732091
0.3240703 -0.03209779 0.4530907
0.2035903 -0.2045092 0.2409479
0.2206974 -0.2121795 0.2334663
0.1161919 -0.21275499 0.27945581
0.1223021 -0.2095962 0.35615909
0.1000111 -0.21630239 0.2910513
0.097461641 -0.2128901 0.3048521
0.092975162 -0.21346261 0.29202721
0.073730066 -0.21563821 0.35792649
0.1077617 -0.1236172 0.55827302
0.060427099 -0.2070922 0.27862579
0.071417041 -0.21293581 0.38263291
0.089117169 -0.2145987 0.34563941
0.05976386 -0.2144452 0.32322109
0.092913143 -0.1212427 0.55715889
0.059748229 -0.2130359 0.3845101
0.080796808 -0.21290021 0.35260409
0.081927776 -0.1309372 0.58141029
0.069408543 -0.2108932 0.3484318
0.3838034 -0.1131861 0.45326471
0.1724098 -0.22733431 0.46167001
0.331862 -0.2237746 0.59111321
0.15890449 -0.2130222 0.34867209
0.13560811 -0.21385209 0.31651169
0.22950859 -0.1319654 0.52758092
0.21653721 -0.1233419 0.5122323
0.14232589 -0.2149749 0.3571243
0.23628411 -0.1280615 0.51267898
0.225619 -0.22452229 0.51405811
0.1179119 -0.21498761 0.3246575
0.1244099 -0.2144265 0.36372811
0.2132788 -0.2208983 0.50554639
0.1648111 -0.2281981 0.46347481
0.1015519 -0.2158789 0.3319509
0.1784642 -0.13182931 0.54798108
0.09928517 -0.21340901 0.35198191
0.1584159 -0.22849131 0.4924446
0.15826529 -0.1251283 0.54383957
0.1619141 -0.2306782 0.49337271
0.1174429 -0.13386931 0.57613093
0.1038222 -0.13266461 0.57926738
0.36523741 -0.2175328 0.59084982
0.32732809 -0.21903519 0.5906083
0.1700653 -0.027572609 0.54117322
0.169346 -0.1255749 0.5391131
0.1747577 -0.046241298 0.53623688
0.1920395 -0.2320659 0.47224739
0.30751231 0.001916803 0.48519701
0.27067581 0.098283976 0.5010379
0.3060056 -0.1056226 0.48350891
0.2603662 0.086601257 0.51828372
0.3738274 -0.22569039 0.59490228
0.1642364 -0.1157854 0.54400897
0.15162329 -0.1296711 0.54973382
0.13300849 -0.1249007 0.55156898
0.2120162 -0.234639 0.52357727
0.1081402 -0.1229354 0.55832022
0.4811466 -0.2404649 0.54257601
0.307944 0.089269377 0.4792428
0.30700529 0.081057042 0.47784999
0.30545789 0.01382115 0.47484329
0.3060894 0.0068677221 0.4752717
0.3106173 0.095312037 0.48994821
0.32752389 -0.01382525 0.48022571
0.31107759 0.01021294 0.47875401
0.3077102 -0.00014575569 0.48218969
0.2249717 -0.1193862 0.49814191
0.2084735 -0.1211081 0.52623868
0.1648958 -0.2261038 0.46265799
0.16416781 -0.1151918 0.5435189
0.15138949 -0.1275502 0.5477097
0.1578977 -0.1200572 0.54308701
0.1423794 -0.211087 0.26379621
0.1408335 -0.2081131 0.3124181
0.151906 -0.2107452 0.29392171
0.122901 -0.21207111 0.28178951
0.1304148 -0.2109641 0.26673561
0.128516 -0.2041297 0.35478359
0.1206639 -0.20851029 0.29719409
0.12963779 -0.20592859 0.35670009
0.143594 -0.1237325 0.56904721
0.130941 -0.1247483 0.57735378
0.1088448 -0.1214974 0.56404728
0.3171351 0.0087853447 0.48418859
0.1649676 -0.21253151 0.26652971
0.16016831 -0.21060459 0.2565859
0.1541274 -0.20576701 0.29585809
0.1552597 -0.20794611 0.28283331
0.15857621 -0.20730209 0.30098671
0.31877509 0.0215616 0.4825404
0.23460419 -0.20560899 0.31449279
0.3426446 -0.21707579 0.59110773
0.376948 -0.212855 0.58317047
0.21387251 -0.21051671 0.28352451
0.20678601 -0.2068055 0.3284142
0.1783381 -0.21331739 0.26154509
0.2104501 -0.2078436 0.30246761
0.33856919 -0.211634 0.59397978
0.174155 -0.21027461 0.2808052
0.3282524 -0.22504979 0.58439791
0.18921231 -0.20703501 0.33574709
0.1596417 -0.2120609 0.26785001
0.1917178 -0.20625889 0.30894059
0.1980222 -0.20863751 0.32507589
0.2413663 -0.1203336 0.51788861
0.2364874 -0.22263239 0.51964837
0.1577957 -0.21111301 0.2885704
0.1770656 -0.2083194 0.29567659
0.17382631 -0.2061224 0.31447881
0.1962956 -0.2128379 0.25372419
0.182456 -0.2087198 0.33785379
0.16382159 -0.1177851 0.54132921
0.15613911 0.0176329 0.54179788
0.1405087 -0.047991201 0.55186927
0.096951239 -0.2099719 0.3499299
0.1294252 0.0095699579 0.56085199
0.126534 -0.1174992 0.55558711
0.1147918 -0.1185143 0.56261891
0.1054999 -0.0082326382 0.56183177
0.1346277 0.051859919 0.5774101
0.1009165 -0.1176936 0.56600511
0.084950261 -0.120305 0.56989861
0.1054324 -0.01941283 0.56928021
0.33137351 -0.20273259 0.2467453
0.34140569 -0.20427381 0.26771531
0.445039 0.019313131 0.43314701
0.403418 -0.2197005 0.36822709
0.31699261 -0.20398811 0.27827919
0.4104211 -0.072577238 0.44696441
0.4841409 -0.22088709 0.53469878
0.393581 -0.028902249 0.44664729
0.37979239 -0.068909153 0.4514778
0.37289271 -0.037506059 0.45691979
0.40126809 -0.2171305 0.43247679
0.3866089 -0.042296018 0.44642791
0.35620019 -0.076377243 0.46206701
0.35231391 -0.067880377 0.46883711
0.3427248 -0.046393409 0.46882999
0.3415437 -0.073614001 0.46657431
0.33444321 0.02907683 0.47673589
0.33385271 -0.00096209347 0.474911
0.33360171 -0.0147291 0.4733603
0.31939349 0.020113871 0.47946039
0.35627589 -0.069739766 0.46073839
0.35446921 -0.027043059 0.4668164
0.3155764 0.0116577 0.4818683
0.34803271 -0.057012528 0.4686726
0.31348991 -0.095644251 0.4790822
0.30586231 -0.089927271 0.47937629
0.37875989 -0.2131367 0.59561068
0.33479959 -0.0078339428 0.4762876
0.33828509 -0.035735682 0.47598511
0.31778511 0.032781541 0.48352239
0.31802931 0.0067247148 0.48182091
0.3381409 -0.2134915 0.58429992
0.3877143 -0.22199909 0.59916741
0.2638889 0.096953847 0.5058291
0.30540279 -0.106448 0.4850806
0.33910039 -0.2157388 0.59879982
0.2313849 -0.2183158 0.51126552
0.18118431 -0.037905261 0.53567851
0.1676733 -0.2266041 0.49512509
0.48659289 -0.22801811 0.53116482
0.32979691 -0.02403732 0.4787544
0.2158909 -0.2422753 0.30131599
0.55607069 -0.067846149 0.39141139
0.52433711 -0.067252368 0.41066429
0.44246191 0.02003232 0.4280732
0.40608481 -0.2220349 0.37088811
0.37199509 -0.03730109 0.45522049
0.3346335 0.00072141743 0.47514591
0.35659179 -0.029266359 0.47096431
0.33769789 -0.2110298 0.58911759
0.31531879 0.0089019686 0.47569761
0.31868631 0.032194391 0.4853757
0.26679331 0.096047781 0.50962633
0.2399593 -0.1194642 0.51539087
0.34085721 -0.037538782 0.47925299
0.39215329 -0.028168799 0.44455069
0.2028818 -0.1178595 0.52691388
0.40862599 -0.02944937 0.4458839
0.35412371 -0.039598171 0.46249819
0.34442869 -0.05403034 0.46045491
0.2290242 -0.1206518 0.52394313
0.2175836 -0.1218495 0.53120989
0.1928511 -0.1251592 0.54824668
0.35866559 -0.077933818 0.4649927
0.3526817 -0.067443289 0.46814331
0.32498151 0.015918391 0.48940799
0.3431665 0.043911349 0.4674696
0.3434566 -0.218227 0.59552848
0.2338832 -0.1119931 0.51633888
0.1786795 -0.1208811 0.5428623
0.1668418 -0.1214657 0.54876977
0.15407939 -0.1203349 0.55215871
0.18481369 -0.0030050131 0.53418928
0.1416755 -0.1201722 0.55675399
0.15537439 -0.04055893 0.55374593
0.59067702 -0.1217107 0.38332951
0.48368749 -0.21738 0.5332709
0.3843368 -0.039262488 0.43977091
0.31133041 -0.1103546 0.48623669
0.3184292 0.021689041 0.4725593
0.3419629 -0.1004053 0.47357219
0.1404639 -0.086027861 0.55033398
0.3497082 -0.03050941 0.47917709
0.3363165 -0.098504499 0.47538021
0.44252041 0.020065781 0.42862299
0.33431289 0.029256109 0.47422579
0.40291259 -0.2179216 0.3671973
0.40249249 -0.2186491 0.36848879
0.45619231 0.01602608 0.4511067
0.33535311 0.028445849 0.4768483
0.38882929 -0.2074969 0.2294489
0.3828108 -0.2087407 0.23542009
0.3718845 -0.2081302 0.2376942
0.38105059 -0.2075104 0.2572256
0.51977682 -0.064783037 0.40537721
0.36597261 -0.21005391 0.22032569
0.3595258 -0.2046697 0.26171699
0.47633731 0.029151861 0.426763
0.37882891 -0.2073767 0.24677341
0.3578935 -0.2175955 0.2211507
0.33471769 -0.2054712 0.2498858
0.2849468 -0.2031211 0.2593846
0.40433019 -0.2199768 0.59630108
0.26382291 -0.20504861 0.25610951
0.2175366 -0.210388 0.21847939
0.34769499 -0.05664267 0.4687385
0.32112521 -0.1008001 0.4926073
0.34408689 -0.218803 0.59591532
0.2132815 -0.2119796 0.24642541
0.3822234 -0.2170887 0.59067601
0.32890809 0.01487967 0.4949863
0.21794149 -0.210739 0.2164149
0.32653901 0.0082972609 0.50092101
0.1950915 -0.21246091 0.25314689
0.34168789 -0.216178 0.59963101
0.3204186 0.0066654459 0.48815179
0.3265186 0.096244402 0.48701271
0.31963569 0.03038994 0.48936179
0.2018601 -0.2119064 0.2390704
0.246566 -0.20928641 0.2300369
0.2435365 -0.2060805 0.24389879
0.32123679 0.085547477 0.4914203
0.27688909 -0.2066308 0.26138031
0.2419358 -0.20462909 0.28358629
0.33287549 -0.00057625031 0.47456509
0.26166379 -0.2033558 0.2764191
0.2222887 -0.2092859 0.2413983
0.18130811 -0.20809729 0.32818279
0.1737742 -0.2065421 0.31494191
0.1593603 -0.21213029 0.26653549
0.26149049 0.097842418 0.50739568
0.22979 -0.2110108 0.2377373
0.37940651 -0.2173178 0.59820342
0.2406099 -0.2056113 0.31189901
0.2023498 -0.2059126 0.2443063
0.1759658 -0.2104665 0.25873089
0.1884695 -0.2066361 0.33512411
0.1805931 -0.2227606 0.46264699
0.15878481 -0.207091 0.30083349
0.1754923 -0.22778641 0.47541791
0.1886777 -0.117628 0.53442049
0.1673416 -0.2241783 0.49340469
0.14124919 -0.2087739 0.31042239
0.46515861 -0.21614499 0.50894701
0.23703711 -0.2046272 0.2019769
0.35883379 -0.080938242 0.4473955
0.2478597 -0.20055421 0.2485069
0.2260806 -0.20570479 0.2285625
0.2134131 -0.20696449 0.22546931
0.3247785 0.01967434 0.48155379
0.2070664 -0.20703299 0.32803619
0.229636 -0.2173001 0.51006222
0.25216499 -0.2235477 0.51847702
0.1638236 -0.20502821 0.3415598
0.1118374 -0.2084332 0.36705881
0.13229451 -0.1248433 0.57672691
0.098058678 -0.2087108 0.2893644
0.067096747 -0.2093439 0.285353
0.076870233 -0.2086937 0.38182721
0.072687313 -0.22067679 0.3795709
0.2178414 -0.2031558 0.20355549
0.22206961 -0.2047586 0.2115328
0.1984583 -0.2029231 0.21804599
0.2276905 -0.2052976 0.27359411
0.22332691 -0.2059482 0.28127161
0.1912521 -0.20315731 0.2368321
0.21255229 -0.2106434 0.2405735
0.22286759 -0.2048535 0.31777701
0.1801845 -0.2055867 0.23997331
0.1387053 -0.20712771 0.26890859
0.1411439 -0.2086166 0.3123554
0.128764 -0.20544951 0.3563889
0.089879587 -0.21030369 0.2622804
0.084623612 -0.21023829 0.27147719
0.1824431 -0.036950879 0.53437662
0.1028429 -0.2082293 0.30280209
0.073641397 -0.2092786 0.2977908
0.065214694 -0.211805 0.2802411
0.084441021 -0.20850161 0.26690599
0.085428298 -0.20956799 0.31202421
0.086237296 -0.2074085 0.3522079
0.065450557 -0.2122829 0.39103231
0.074308112 -0.2102121 0.30955231
0.082694411 -0.2147184 0.37925431
0.040992349 -0.2134243 0.29350749
0.083515048 -0.1180581 0.56532788
0.049777649 -0.22646891 0.39036739
0.039126109 -0.21333 0.30347779
0.1283094 0.053335302 0.56863052
0.058178179 -0.2160178 0.29446769
0.1141025 -0.2194581 0.75955909
0.097416013 -0.1209645 0.56762338
0.05505351 -0.2127859 0.3405855
0.050590038 -0.2154623 0.31202549
0.04763674 -0.21193419 0.32038
0.1004788 0.0092822537 0.56591558
0.37307629 -0.038433742 0.4580757
0.26423109 -0.2038773 0.29941639
0.1593063 -0.212292 0.26808479
0.1753483 -0.20884401 0.31801921
0.1867854 -0.2299172 0.47565711
0.1252443 -0.21498939 0.28453869
0.1068009 -0.2141256 0.29156721
0.14358149 -0.2151524 0.2777043
0.08815933 -0.214003 0.3616564
0.064715587 -0.20940541 0.27775449
0.077700421 -0.20860051 0.3830781
0.072422192 -0.21718439 0.376535
0.086154953 -0.2104172 0.31339091
0.06347774 -0.2102771 0.3859053
0.25460741 -0.12795959 0.54122913
0.1048399 -0.2108312 0.35086259
0.083764307 -0.21085081 0.34259191
-0.02642226 -0.2101713 0.28810599
0.0062119141 -0.032179601 0.426898
-0.0037503471 -0.045888819 0.43111259
-0.02367973 -0.22340921 0.33523601
-0.044220619 -0.1619398 0.37527791
-0.032101009 -0.2161075 0.2600987
-0.03680509 -0.2153125 0.23478089
0.2642993 -0.2043739 0.30099899
0.4850142 -0.2287859 0.53017312
0.3424927 -0.2047051 0.26920921
0.26434869 -0.2045079 0.30138639
0.40503979 -0.2210983 0.37124059
0.32413161 0.015757831 0.48677421
0.073371843 0.088952743 0.57163519
0.061458342 0.088582128 0.58150572
0.046166722 -0.0095772743 0.57902938
0.01224352 0.076398 0.59420431
0.1201656 -0.083089799 0.55429518
0.089698419 0.01101889 0.53967822
0.064960606 -0.20668 0.38216951
0.080864862 -0.2103471 0.37142959
0.034859721 0.098124407 0.6002776
-0.01058115 -0.044262022 0.43020189
-0.01236521 -0.05175221 0.4299655
0.0106505 -0.035570681 0.442247
0.32548311 0.016982229 0.49020511
0.1024778 -0.206393 0.344403
0.32749531 0.015742181 0.49411029
0.48603609 -0.2288035 0.53193778
0.098216027 -0.2111526 0.3516593
0.078668617 -0.2144362 0.3886162
0.16735061 -0.2131976 0.35173681
0.35178679 -0.025575129 0.46170589
0.48504639 -0.2286063 0.53244162
0.1217482 -0.2109794 0.28021011
0.32742569 0.01606309 0.4934403
0.48665589 -0.2292234 0.53266668
0.3947888 -0.1044939 0.45104349
0.32286301 0.01728913 0.487259
0.48754981 -0.229633 0.53429598
0.32260641 0.0175517 0.48689169
0.48788071 -0.2296434 0.53453958
0.51181591 -0.061943579 0.39861709
0.5669803 -0.072024263 0.40181759
0.32228279 0.017767901 0.48633969
0.4887346 -0.2305845 0.53594571
0.26606259 -0.2068779 0.3051877
0.193544 -0.2096395 0.25101301
0.32238349 0.01746268 0.4863193
0.48892289 -0.23034561 0.53599977
0.32171091 0.018252941 0.48532149
0.2666876 -0.2082251 0.30635589
0.32126391 0.01835224 0.48420399
0.4893918 -0.23016191 0.53622818
0.2668004 -0.2085056 0.3064464
0.38204509 -0.04100256 0.47269011
0.2284719 -0.1214142 0.52296263
0.18643481 -0.1195179 0.53108531
0.2169861 -0.1205939 0.52716893
0.1054737 -0.1227617 0.57932037
0.089045607 -0.1253233 0.58237797
0.1964646 -0.206889 0.2350667
0.1127302 -0.1179085 0.5546248
0.3437998 -0.21853 0.60837328
0.052442841 -0.2346416 0.25091401
