# .PCD v0.7 - Point Cloud Data file format
VERSION 0.7
FIELDS x y z normal_x normal_y normal_z curvature
SIZE 4 4 4 4 4 4 4
TYPE F F F F F F F
COUNT 1 1 1 1 1 1 1
WIDTH 666
HEIGHT 1
VIEWPOINT 0 0 0 1 0 0 0
POINTS 666
DATA ascii
0.36597261 0 0.22032569 -0 1 -0 0
0.38882929 0 0.2294489 -0 1 -0 0
0.18291411 0 0.23549166 -0 1 -0 0
0.19385836 0 0.2359494 -0 1 -0 0
0.2018601 0 0.2390704 -0 1 -0 0
0.2103868 0 0.2365552 -0 1 -0 0
0.22365586 0 0.23606026 -0 1 -0 0
0.246566 0 0.2300369 -0 1 -0 0
0.3718845 0 0.2376942 -0 1 -0 0
0.3828108 0 0.23542009 -0 1 -0 0
0.18434155 0 0.24502045 -0 1 -0 0
0.19467141 0 0.2424586 -0 1 -0 0
0.20324466 0 0.24299096 -0 1 -0 0
0.2129169 0 0.24349946 -0 1 -0 0
0.2222887 0 0.2413983 -0 1 -0 0
0.24569809 0 0.24620286 -0 1 -0 0
0.2539537 0 0.2400033 -0 1 -0 0
0.3330456 0 0.24831554 -0 1 -0 0
0.37882891 0 0.24677341 -0 1 -0 0
0.052442841 0 0.25091401 -0 1 -0 0
0.16016831 0 0.2565859 -0 1 -0 0
0.1759658 0 0.25873089 -0 1 -0 0
0.19497703 0 0.25262803 -0 1 -0 0
0.21916461 0 0.2574023 -0 1 -0 0
0.26257747 0 0.25546095 -0 1 -0 0
0.2849468 0 0.2593846 -0 1 -0 0
0.38105059 0 0.2572256 -0 1 -0 0
-0.032101009 0 0.2600987 nan nan nan nan
0.087160304 0 0.26459318 -0 1 -0 0
0.13456005 0 0.26782209 -0 1 -0 0
0.1423794 0 0.26379621 -0 1 -0 0
0.1573285 0 0.26714578 -0 1 -0 0
0.1649676 0 0.26652971 -0 1 -0 0
0.1783381 0 0.26154509 -0 1 -0 0
0.2267091 0 0.26602301 -0 1 -0 0
0.2577678 0 0.26093659 -0 1 -0 0
0.27688909 0 0.26138031 -0 1 -0 0
0.28556731 0 0.26284909 -0 1 -0 0
0.34194919 0 0.26846224 -0 1 -0 0
0.3595258 0 0.26171699 -0 1 -0 0
0.062571347 0 0.27819014 -0 1 -0 0
0.084623612 0 0.27147719 -0 1 -0 0
0.1161919 0 0.27945581 -0 1 -0 0
0.1341626 0 0.27330059 -0 1 -0 0
0.14361565 0 0.27671415 -0 1 -0 0
0.2276905 0 0.27359411 -0 1 -0 0
0.2458654 0 0.27103871 -0 1 -0 0
0.26166379 0 0.2764191 -0 1 -0 0
0.30336401 0 0.27580991 -0 1 -0 0
0.31699261 0 0.27827919 -0 1 -0 0
0.066155717 0 0.28279704 -0 1 -0 0
0.098058678 0 0.2893644 -0 1 -0 0
0.12329783 0 0.28217945 -0 1 -0 0
0.1565277 0 0.28570187 -0 1 -0 0
0.174155 0 0.2808052 -0 1 -0 0
0.18544909 0 0.28948671 -0 1 -0 0
0.21387251 0 0.28352451 -0 1 -0 0
0.22332691 0 0.28127161 -0 1 -0 0
0.2419358 0 0.28358629 -0 1 -0 0
0.040992349 0 0.29350749 -0 1 -0 0
0.058178179 0 0.29446769 -0 1 -0 0
0.073641397 0 0.2977908 -0 1 -0 0
0.092975162 0 0.29202721 -0 1 -0 0
0.103406 0 0.29130924 -0 1 -0 0
0.1206639 0 0.29719409 -0 1 -0 0
0.1530167 0 0.2948899 -0 1 -0 0
0.1770656 0 0.29567659 -0 1 -0 0
0.26423109 0 0.29941639 -0 1 -0 0
0.039126109 0 0.30347779 -0 1 -0 0
0.074308112 0 0.30955231 -0 1 -0 0
0.097461641 0 0.3048521 -0 1 -0 0
0.1047532 0 0.30252725 -0 1 -0 0
0.1586805 0 0.30091012 -0 1 -0 0
0.1702486 0 0.30016589 -0 1 -0 0
0.1917178 0 0.30894059 -0 1 -0 0
0.2131705 0 0.3018918 -0 1 -0 0
0.22716521 0 0.30396599 -0 1 -0 0
0.26563972 0 0.30407506 -0 1 -0 0
0.050590038 0 0.31202549 -0 1 -0 0
0.083984107 0 0.31496832 -0 1 -0 0
0.13560811 0 0.31651169 -0 1 -0 0
0.14107554 0 0.31173196 -0 1 -0 0
0.17431627 0 0.3158133 -0 1 -0 0
0.22286759 0 0.31777701 -0 1 -0 0
0.23460419 0 0.31449279 -0 1 -0 0
0.2406099 0 0.31189901 -0 1 -0 0
0.04763674 0 0.32038 -0 1 -0 0
0.05976386 0 0.32322109 -0 1 -0 0
0.1179119 0 0.3246575 -0 1 -0 0
0.18538734 0 0.32685906 -0 1 -0 0
0.19784376 0 0.32559651 -0 1 -0 0
0.2069262 0 0.3282252 -0 1 -0 0
0.083522521 0 0.33931831 -0 1 -0 0
0.1015519 0 0.3319509 -0 1 -0 0
0.15223759 0 0.33220729 -0 1 -0 0
0.18671261 0 0.33624163 -0 1 -0 0
0.05505351 0 0.3405855 -0 1 -0 0
0.069408543 0 0.3484318 -0 1 -0 0
0.07663399 0 0.34732091 -0 1 -0 0
0.086440742 0 0.34411567 -0 1 -0 0
0.096951239 0 0.3499299 -0 1 -0 0
0.1024778 0 0.344403 -0 1 -0 0
0.15890449 0 0.34867209 -0 1 -0 0
0.1638236 0 0.3415598 -0 1 -0 0
0.073730066 0 0.35792649 -0 1 -0 0
0.083517052 0 0.352406 -0 1 -0 0
0.098750599 0 0.35182059 -0 1 -0 0
0.1048399 0 0.35086259 -0 1 -0 0
0.12730497 0 0.35600793 -0 1 -0 0
0.14232589 0 0.3571243 -0 1 -0 0
0.16735061 0 0.35173681 -0 1 -0 0
0.08815933 0 0.3616564 -0 1 -0 0
0.1049169 0 0.3671805 -0 1 -0 0
0.1118374 0 0.36705881 -0 1 -0 0
0.1244099 0 0.36372811 -0 1 -0 0
0.072554752 0 0.37805295 -0 1 -0 0
0.081779636 0 0.37534195 -0 1 -0 0
0.059748229 0 0.3845101 -0.0011487958 0.99999911 0.00073351891 9.7854336e-06
0.064219177 0 0.38403741 0.00057973928 0.9999997 -0.0006016941 5.351348e-07
0.076164082 0 0.3840386 -0 1 -0 0
0.59067702 0 0.38332951 0.31076965 -0.080782995 0.9470461 0.014765916
0.049777649 0 0.39036739 -0.02009991 0.9961884 0.084879838 0.018181551
0.065450557 0 0.39103231 -0.00114801 0.99999899 0.00074883719 1.0728285e-05
0.51181591 0 0.39861709 0.34380138 -0.033776104 0.93843478 0.022699526
0.55607069 0 0.39141139 0.24357392 -0.016483502 0.9697423 0.018978441
0.51977682 0 0.40537721 0.38746518 -0.069772929 0.91924012 0.019896477
0.5669803 0 0.40181759 0.2348627 -0.066604249 0.96974397 0.02248041
0.52433711 0 0.41066429 0.38746518 -0.069772929 0.91924012 0.019896477
-0.011743136 0.00045061443 0.42842424 -0.55830687 0.013110986 -0.82953095 0.07209006
0.0017140494 -0.0008250543 0.43422794 -0.56544638 0.014131846 -0.82466394 0.038703032
0.44348061 0.0079034809 0.43687266 -0.24204203 0.96168423 0.12875968 0.098438427
0.47622582 0.0054784473 0.43749136 -0.031233059 0.99676418 0.07406491 0.064818382
-0.010115456 0.00033733639 0.42904809 -0.55830687 0.013110986 -0.82953095 0.07209006
-0.0036863571 1.173785e-05 0.43100831 -0.56544638 0.014131846 -0.82466394 0.038703032
0.38881838 -0.0022804027 0.45044523 0.3559584 -0.074248314 0.93154752 0.0071125091
0.40419418 0.00036967185 0.44319776 0.32892537 -0.025236214 0.94401872 0.009423852
0.44571275 0.0053816987 0.43895164 -0.24204203 0.96168423 0.12875968 0.098438427
0.011729388 0.00019790301 0.44048879 -0.57305658 0.01584181 -0.81936264 0.032099474
0.36303556 0.0040286537 0.45844322 0.34921324 -0.061029144 0.93505383 0.011003953
0.38873777 -0.00095688528 0.4509455 0.35551685 -0.072596505 0.93184632 0.0069894129
0.39371237 9.2923736e-05 0.4471626 0.36085135 -0.069714963 0.93001401 0.0066723065
0.40754536 0.00016636016 0.44321707 0.32420111 -0.028654765 0.94555408 0.010713642
0.40871328 0.00026291073 0.44274983 0.3107149 -0.01186043 0.9504292 0.011066178
0.16608286 0 0.4584229 0.045550331 0.99852306 -0.029612562 0.0037099638
0.32996121 -0.0053693801 0.4731268 0.34974906 -0.055802878 0.93518001 0.01122644
0.37531531 -0.00010395081 0.4570708 0.35533378 -0.052633137 0.93325651 0.0078251641
0.38364008 1.3525744e-05 0.45294261 0.34401482 -0.069574706 0.93638295 0.0079802005
0.39292932 -0.00020443206 0.44760355 0.35564503 -0.079238325 0.93125606 0.0083403001
0.46054778 0.0057349051 0.44964603 -0.12327991 0.99194372 0.029149286 0.062786289
0.16485345 0 0.4630664 0.032312959 0.99934226 -0.016456332 0.0030491618
0.1724098 0 0.46167001 0.035812836 0.9991523 -0.020300293 0.0031196235
0.1805931 0 0.46264699 0.0322414 0.9992736 -0.020319512 0.0027406197
0.3470583 -0.00029190831 0.47204572 0.35196751 -0.052593503 0.93453348 0.010119392
0.35521832 -3.0405892e-05 0.46577358 0.35196751 -0.052593503 0.93453348 0.010119392
0.1754923 0 0.47541791 -0.071428575 0.98959446 0.12490322 0.083153851
0.1867854 0 0.47565711 -0.088431403 0.98600733 0.14131314 0.079631209
0.1920395 0 0.47224739 -0.06819769 0.99151212 0.11069237 0.058014769
0.30639279 0.0011486644 0.47360528 0.38004407 -0.039476905 0.92412555 0.018269593
0.31539765 -0.00039761938 0.47863957 0.37129092 -0.049282979 0.92720777 0.015925182
0.32651979 -0.00046485884 0.47820643 0.36722773 -0.050600953 0.92875367 0.012852452
0.33524203 -0.00022704134 0.47693491 0.35634151 -0.055093896 0.93273014 0.011343231
0.34317121 0.00037086636 0.47442117 0.35463139 -0.054371007 0.933424 0.010520478
0.35478216 0.00028522545 0.46743217 0.3519581 -0.052599821 0.93453664 0.010133018
0.36551628 -0.0019575595 0.46098176 0.35180548 -0.053719308 0.93453038 0.0097950697
0.37607193 -0.0052306862 0.45833275 0.35440192 -0.047983676 0.9338612 0.0073437635
0.22380771 0 0.48770469 -0.050617252 0.99431467 0.093681201 0.029255323
0.29493958 0.00053106796 0.47912094 0.3432484 -0.087952562 0.9351176 0.030961744
0.30673912 0.0013080575 0.48009896 0.38159564 -0.041388057 0.92340231 0.019368231
0.31693521 0.0014851679 0.47927421 0.37339097 -0.03684729 0.92694205 0.016347535
0.32298344 0.0014384299 0.47962955 0.37710842 -0.046052814 0.9250235 0.014976422
0.15900916 0 0.49318025 0.033665765 0.99459714 0.098199993 0.071607992
0.16564299 0 0.4939675 0.010334389 0.9954859 0.094345354 0.072936393
0.2249717 0 0.49814191 -0.080713496 0.98501807 0.15239674 0.046234369
0.32533631 0.0033850984 0.48007718 0.36501566 -0.040655214 0.93011332 0.015558233
0.33160564 0.0022048701 0.47962695 0.34882808 -0.059842702 0.93527418 0.012061932
0.2132788 0 0.50554639 -0.063435324 0.99072087 0.12020074 0.059835941
0.2286184 0 0.50261122 -0.080713496 0.98501807 0.15239674 0.046234369
0.26405755 0 0.50761706 0.36002728 -0.24992284 0.89884311 0.026828442
0.27067581 0 0.5010379 0.35828364 -0.28935587 0.88764071 0.02791057
0.32800627 0.0042684632 0.48191369 0.36501566 -0.040655214 0.93011332 0.015558233
0.46515861 0 0.50894701 0.018355159 0.99781132 0.063527815 0.00040560818
0.20528455 -0.00021360886 0.51949054 -0.046569716 0.99319082 0.10678571 0.061679337
0.21697649 -0.00016128086 0.51389337 -0.063434631 0.9907217 0.12019402 0.059835229
0.22657926 0 0.51312011 -0.058872946 0.98969573 0.13052307 0.057541605
0.23559979 0 0.51506454 -0.068375565 0.98489469 0.15908207 0.039879534
0.2413663 0 0.51788861 -0.06830325 0.99023515 0.12152757 0.023395495
0.25428504 0 0.51702893 -0.11606916 0.99305308 -0.019326746 0.011402249
0.2603662 0 0.51828372 -0.29186839 0.82269865 -0.48783174 0.019021021
0.20567906 -0.00016706849 0.52657652 -0.046569716 0.99319082 0.10678571 0.061679337
0.21450423 -0.00015680851 0.5253734 -0.071935132 0.98658705 0.14653155 0.067778885
0.22900157 0 0.52482891 -0.057757109 0.98913443 0.13519265 0.070694178
0.09101554 0.0082097342 0.54331356 0.27837828 0.53532255 0.79745555 0.062272545
0.17072229 -0.00010769932 0.54230505 0.091483131 0.98292583 0.1596484 0.057363994
0.17592858 -1.5273046e-05 0.53897911 0.039339192 0.99456871 0.096361309 0.058397137
0.18529996 -2.1657432e-05 0.53536355 -0.005873003 0.99633598 0.085323989 0.06326212
0.1945338 -9.2970673e-05 0.53153896 -0.033203688 0.99462372 0.098087065 0.067520313
0.2175862 -0.00021837313 0.53120875 -0.065077342 0.98437059 0.16364415 0.074817427
0.47230029 0 0.5348326 -0 1 -0 0
0.4866378 0 0.53361362 -0 1 -0 0
0.15686998 0.0013278783 0.54876554 0.19276266 0.92895031 0.31605968 0.063238561
0.16495468 5.9527647e-05 0.54484564 0.15440923 0.95317823 0.26001725 0.058929984
0.17395084 2.3290613e-05 0.53982377 0.063745841 0.99114418 0.11648905 0.058219902
0.18793985 0.0017536756 0.53594977 -0.0087642111 0.99519747 0.097494841 0.068551779
0.25460741 0 0.54122913 -0.0041070101 0.99998575 0.0034194815 0.00044158826
0.47750661 0 0.54628628 -0 1 -0 0
0.4811466 0 0.54257601 -0 1 -0 0
0.092959911 0.0016784031 0.55750054 0.27686277 0.53082955 0.80097872 0.057417642
0.107954 0.00091684109 0.55845964 0.28426698 0.36100337 0.88818282 0.053376764
0.11272264 0.0015369162 0.55490816 0.20221187 0.86454248 0.46008345 0.055409607
0.12324966 0.0022447805 0.5556348 0.3748965 0.64414865 0.66672713 0.076831818
0.1330207 0.0022898503 0.55214173 0.36522758 0.60112858 0.71081173 0.069492891
0.14085056 0.001220818 0.55306804 0.34594321 0.57393688 0.74223965 0.070079029
0.1537821 -0.00069429586 0.55110562 0.23974165 0.87245858 0.42584032 0.067842491
0.084246062 0.00013379715 0.5676412 0.16042899 0.86766237 0.47055781 0.045323826
0.09740942 -0.00037355322 0.5675596 0.27686277 0.53082955 0.80097872 0.057417642
0.10423349 -0.00029842663 0.56536293 0.30349135 0.40383488 0.863024 0.048466086
0.11479121 0.00012135092 0.56264126 0.28796571 0.36927286 0.88357985 0.042574469
0.12887841 -0.00024572687 0.56466752 0.3748965 0.64414865 0.66672713 0.076831818
0.14355814 0.0006386388 0.56910229 0.36875835 0.6045239 0.70609355 0.075115673
0.046379194 -0.0024659471 0.57953292 0.036794409 0.98612994 0.16184528 0.0033036873
0.073268354 -0.0013027666 0.57126147 0.020069443 0.9896242 0.14227149 0.0022767324
0.1046955 -0.0015462022 0.57918149 0.30387649 0.40509909 0.86229569 0.051781025
0.1174794 -0.0009737736 0.57607025 0.28871471 0.37255704 0.88195533 0.045664102
0.13264078 -0.000378155 0.57715088 0.32955572 0.079401553 0.94079143 0.044525478
0.061594106 -0.0010721886 0.58169013 0.023951499 0.98856246 0.14889786 0.0025480972
0.085300401 -0.0022531759 0.58156419 0.15028034 0.90167785 0.40545392 0.048147742
0.32729936 0 0.5842979 -0 1 -0 0
0.33791941 0 0.58670878 -0 1 -0 0
0.36109331 0 0.58483618 -0 1 -0 0
0.376948 0 0.58317047 -0 1 -0 0
0.012238471 -0.00016100569 0.59424448 -0.030928459 0.98917317 -0.14345692 0.0030339488
0.32671148 0 0.59103841 -0 1 -0 0
0.33651054 0 0.5946309 -0 1 -0 0
0.342969 0 0.59554565 -0 1 -0 0
0.36523741 0 0.59084982 -0 1 -0 0
0.37733126 0 0.59623879 -0 1 -0 0
0.38496885 0 0.59492171 -0 1 -0 0
0.40433019 0 0.59630108 -0 1 -0 0
0.034675594 0.0020834054 0.59954381 0.040563211 0.98563439 0.16394982 0.0043818406
0.3437998 0 0.60837328 -0 1 -0 0
0.22358459 -0.12463018 0.48755178 -0.021917867 -0.99166793 -0.12694228 0.0056186905
0.15224406 -0.20893797 0.33220831 0.01800053 -0.99961078 0.021316908 0.0054201433
0.24560985 -0.20684081 0.27079144 0.043244939 -0.9989906 -0.012147878 0.0075112334
0.1859019 -0.20770498 0.23187079 0.040464271 -0.99915451 -0.0072684218 0.00054359768
0.18030262 -0.20984234 0.24671964 0.019497063 -0.99945307 -0.026711773 0.006282819
0.14367142 -0.21127665 0.27579445 0.028683882 -0.99948221 0.014579929 0.00032101446
0.30602881 0.019264216 0.47966024 0.37835422 -0.050971828 0.9242565 0.019927602
0.22725518 -0.20651263 0.30396271 0.036102008 -0.9993118 0.0085087521 0.0059064226
0.22701859 -0.20782305 0.26620761 0.036879838 -0.99931419 -0.003321497 0.0054947017
0.25737169 -0.20653422 0.26052123 0.046885438 -0.99841768 -0.031048421 0.0082152598
0.21860366 -0.20915999 0.25875798 0.037475962 -0.99928659 -0.004675936 0.00551057
0.21462689 -0.20823388 0.22844167 0.043843109 -0.99889964 -0.016650086 0.00052981963
0.25355941 -0.20749931 0.23992723 0.056229331 -0.99749446 -0.042930268 0.0086288294
0.2613883 -0.20658429 0.25504276 0.048904058 -0.99826431 -0.03281337 0.008760564
0.3033565 -0.20515721 0.27581465 0.003423854 -0.99945402 0.032864109 0.00066188956
0.28555787 -0.20602097 0.26278389 0.023211556 -0.99966937 0.011059822 0.00028943212
0.23239711 -0.20647758 0.20627598 0.046858381 -0.99842829 -0.030743407 0.00065021956
0.30635551 8.7856279e-05 0.47315875 0.37621987 -0.060303997 0.92456585 0.018456753
0.20424481 -0.20968264 0.24259867 0.034026451 -0.9991954 -0.021234781 0.0071263714
0.32608303 -0.21919359 0.59146392 0.0075380588 -0.99737376 -0.072032489 0.0036436955
0.22862525 -0.12251341 0.50263202 -0.03755869 -0.98060787 -0.19234744 0.012977207
0.21741877 -0.12203922 0.51547885 -0.086293772 -0.99054599 -0.1066395 0.0043351734
0.30657643 0.022668822 0.47902015 0.37918144 -0.052267406 0.92384499 0.020522993
0.32478407 -0.010253806 0.474251 0.36789581 -0.047347967 0.92866069 0.011986053
0.36109939 -0.21675718 0.58480632 0.0075125359 -0.9973917 -0.071786627 0.0036510616
0.21938361 -0.20911257 0.25604066 0.037732225 -0.99927217 -0.0055990582 0.0056091687
0.32627663 -0.21949151 0.58417082 0.0075380588 -0.99737376 -0.072032489 0.0036436955
0.29536548 -0.11356534 0.4803668 0.13034411 0.49458936 0.85929722 0.023746056
0.15094402 -0.21147856 0.26603851 0.029030999 -0.99951345 0.011402683 0.00040233074
0.1886341 -0.20988649 0.24459848 0.024726672 -0.99919319 -0.031647801 0.00680194
0.47576389 -0.23584671 0.54088783 0.30455813 -0.68309462 -0.66379678 0.0054141455
0.36480805 -0.050211396 0.46085387 0.3631241 -0.018249473 0.93156207 0.0068927528
0.30058268 -0.10000382 0.47883889 0.33111262 0.089862511 0.93930244 0.0094936593
0.19490999 -0.21021044 0.24351864 0.02862457 -0.99925649 -0.025828827 0.0075365044
0.3252061 -0.015085992 0.47293282 0.34595716 -0.060724817 0.93628317 0.010043468
0.2202687 -0.20857152 0.23716247 0.046357598 -0.99829537 -0.035459287 0.0087157786
0.21048644 -0.209039 0.23644246 0.032212097 -0.99826378 -0.049312808 0.0081518358
0.25657123 0.089656159 0.51620322 -0.13983275 0.89445186 -0.42473823 0.02970187
0.13409051 -0.21206996 0.27319133 0.02905328 -0.99946624 0.014936554 0.00037799904
0.1949501 -0.12208749 0.53235304 0.42781937 0.33039901 0.84131265 0.042037044
0.47196659 -0.23592886 0.53549236 0.30455813 -0.68309462 -0.66379678 0.0054141455
0.33047512 0.017702982 0.48119891 0.33756343 -0.066151999 0.93897539 0.013628534
0.20245714 -0.20991592 0.24447492 0.033886936 -0.99924439 -0.019037258 0.0070079654
0.29942179 0.0027390176 0.47292757 0.31526452 -0.072093464 0.94626147 0.023026176
0.18544157 -0.20954093 0.289444 0.032791201 -0.99944121 0.0064895605 0.0045567225
0.19750424 -0.20733467 0.32609326 0.029907206 -0.99927282 0.02364913 0.0073991269
0.18942276 -0.20804693 0.32555333 0.030130709 -0.99926108 0.023863032 0.0058268188
0.17020161 -0.20960812 0.29997075 0.025668567 -0.99958205 0.013302342 0.0046207323
0.22431046 -0.22540396 0.51585829 0.099732131 -0.99310845 -0.061554413 0.0069071921
0.20524664 -0.12253604 0.51953077 -0.085064255 -0.98898631 -0.1211203 0.0035668805
0.16960111 -0.22578515 0.45739883 0.08989872 -0.99371481 -0.066701792 0.0098927626
0.16244803 -0.22527173 0.45934194 0.062479459 -0.99795347 -0.013609274 0.007289337
0.1597769 -0.22799176 0.49407309 0.10838849 -0.99159074 -0.070709333 0.0083559221
0.10486493 -0.21098956 0.36718467 0.051946223 -0.99857783 -0.011999593 0.0015133495
0.10656905 -0.21201229 0.30239239 0.0416095 -0.99877328 0.026843628 0.0019934485
0.083437376 -0.21239415 0.33935928 0.049960062 -0.99867815 -0.012077755 0.0012941525
0.08036276 -0.21245834 0.31944293 0.059193447 -0.99820036 0.0095980931 0.0032590136
0.076726787 -0.21224286 0.34730351 0.052582689 -0.99856728 -0.0099232048 0.0013765525
0.32158834 -0.033744842 0.45718893 0.34907264 -0.040045787 0.9362396 0.0082969479
0.20370628 -0.20973366 0.24041623 0.02982375 -0.99907458 -0.030993238 0.0075033871
0.22053222 -0.20852023 0.23373163 0.042958438 -0.99726522 -0.060137503 0.010067226
0.11619154 -0.211538 0.27953082 0.044667177 -0.99849439 0.031841423 0.0022790318
0.12231672 -0.21011131 0.3562018 0.041079283 -0.99915546 0.0008711447 0.00019841417
0.10022785 -0.21189992 0.29127809 0.043292344 -0.99863243 0.029307222 0.0022259238
0.097475007 -0.21263054 0.30487007 0.04481839 -0.99871433 0.023686456 0.0020380956
0.09303876 -0.2117269 0.29212213 0.044891853 -0.99851298 0.030927597 0.0024947771
0.073574416 -0.21275789 0.3578451 0.058565941 -0.99821693 -0.011535893 0.0016049562
0.10794146 -0.12017016 0.55952644 0.3220104 0.20097576 0.92515844 0.038038794
0.062028643 -0.21491008 0.28011337 0.057012644 -0.99767703 0.037283264 0.0062984317
0.071529992 -0.2137682 0.3825956 0.069669232 -0.99716055 -0.028583435 0.0027814053
0.089031748 -0.212164 0.34566173 0.048323121 -0.99877173 -0.010945098 0.0012209915
0.059664495 -0.21300878 0.32325816 0.075081922 -0.99716187 0.0055495002 0.0042318464
0.093443744 -0.11738303 0.55916464 0.2671729 0.53524703 0.80132967 0.03361652
0.060467795 -0.21603501 0.38462436 0.079570092 -0.99638003 -0.029922018 0.0028531442
0.080768965 -0.21236894 0.35259444 0.054197699 -0.99847353 -0.010638762 0.0013852858
0.082516663 -0.12751283 0.58309752 0.18152671 0.5469228 0.81726581 0.049618732
0.069445312 -0.21235362 0.3484304 0.058624126 -0.9981944 -0.013079287 0.0015711059
0.1724955 -0.22643256 0.46174723 0.10839314 -0.9915902 -0.070709571 0.0083553772
0.33128029 -0.21863107 0.59088767 0.0075380588 -0.99737376 -0.072032489 0.0036436955
0.15883633 -0.20913601 0.34876561 0.041626658 -0.9989531 0.018971967 0.0001205178
0.13534355 -0.21096133 0.31649923 0.032429211 -0.99937522 0.014052364 0.00029922026
0.22969247 -0.12380113 0.52885407 -0.090715274 -0.99037063 -0.10457925 0.0048732902
0.21654218 -0.12217662 0.51218241 -0.086293772 -0.99054599 -0.1066395 0.0043351734
0.14263313 -0.21128453 0.35800079 0.042983085 -0.99904805 0.0074398234 0.00012349003
0.23660262 -0.12291176 0.51280689 -0.0013841429 -0.98097718 -0.19411817 0.011465819
0.2254848 -0.22396974 0.51453954 0.10056502 -0.99284047 -0.064454801 0.0064924019
0.11757116 -0.21086937 0.32447222 0.033482462 -0.99941909 0.0063540279 0.0003023764
0.12426857 -0.20954539 0.36319259 0.04139477 -0.99914283 -0.00023193441 0.00020137466
0.21332851 -0.2210283 0.50544524 0.10114089 -0.99238402 -0.070317008 0.0061981999
0.16503064 -0.225888 0.46367261 0.088948905 -0.99375951 -0.06730628 0.0085507678
0.10136306 -0.21165633 0.33177456 0.040053934 -0.9991852 -0.0049508759 0.00097213604
0.17907809 -0.12978026 0.54944199 0.24984305 0.84739465 0.46850911 0.018089047
0.099068709 -0.21136054 0.35189775 0.046181247 -0.99889994 -0.008144754 0.0011416862
0.15848774 -0.22773536 0.49250934 0.10838849 -0.99159074 -0.070709333 0.0083559221
0.1589331 -0.12129921 0.54549325 0.3635346 0.13986941 0.92102075 0.018335879
0.1621519 -0.22817585 0.49358699 0.10460265 -0.99195808 -0.07125587 0.0073139793
0.11777215 -0.1275555 0.57842678 0.27475855 0.53007764 0.80220032 0.029071299
0.10397615 -0.12833384 0.58108753 0.2671729 0.53524703 0.80132967 0.03361652
0.3652375 -0.21754728 0.59084833 0.0075125359 -0.9973917 -0.071786627 0.0036510616
0.32733423 -0.21908949 0.59061068 0.0075380588 -0.99737376 -0.072032489 0.0036436955
0.17021331 -0.027592734 0.54151899 0.48492089 0.090413086 0.86987203 0.092984289
0.1699435 -0.12117621 0.54094082 0.41051266 0.143305 0.90052372 0.024195503
0.17484245 -0.046279684 0.53639066 0.50622648 0.040885657 0.86143088 0.049122963
0.19230852 -0.22923535 0.47248977 0.10114089 -0.99238402 -0.070317008 0.0061981999
0.30893376 0.003599996 0.47810367 0.38004407 -0.039476905 0.92412555 0.018269593
0.27093306 0.099318177 0.50200164 -0.13983275 0.89445186 -0.42473823 0.02970187
0.30600256 -0.10569223 0.48339057 0.35928518 0.078444146 0.92992508 0.009223152
0.26038837 0.086690433 0.51836681 -0.13983275 0.89445186 -0.42473823 0.02970187
0.37433016 -0.21884754 0.59703118 0.0075125359 -0.9973917 -0.071786627 0.0036510616
0.16426787 -0.11576245 0.54408878 0.4014765 0.088980943 0.91153669 0.020736298
0.15279086 -0.12248021 0.55176824 0.37398928 0.20167269 0.90524042 0.021954307
0.13501288 -0.12041833 0.55671781 0.36229107 0.19768441 0.91086 0.026305309
0.21223357 -0.23520741 0.52313513 0.10056502 -0.99284047 -0.064454801 0.0064924019
0.10828693 -0.12012161 0.5593434 0.3220104 0.20097576 0.92515844 0.038038794
0.48081586 -0.24092759 0.54155147 0.30455813 -0.68309462 -0.66379678 0.0054141455
0.30700463 0.088505328 0.48138341 0.38262448 -0.029598355 0.92342973 0.011930865
0.30671433 0.080820382 0.47851303 0.3056452 -0.098210551 0.9470669 0.015748521
0.30451471 0.013154601 0.47810981 0.38168061 -0.03811774 0.92350793 0.020665955
0.30553427 0.0062103854 0.47804186 0.38222092 -0.043216489 0.92305988 0.020169083
0.31212994 0.096542373 0.48650122 0.41116551 -0.016913448 0.91140378 0.010089911
0.32813519 -0.011487528 0.47474542 0.34974906 -0.055802878 0.93518001 0.01122644
0.31088158 0.009672327 0.4808327 0.38194326 -0.038923454 0.92336571 0.01919491
0.3089391 0.0018328244 0.47675896 0.37940297 -0.038709432 0.92442143 0.017706899
0.22501606 -0.12273634 0.49827662 -0.066390388 -0.98820996 -0.13796169 0.0072588976
0.20841905 -0.12233917 0.5260312 -0.085064255 -0.98898631 -0.1211203 0.0035668805
0.16492531 -0.22579338 0.46268457 0.051072039 -0.9968968 -0.059902921 0.0072750254
0.16430962 -0.1150884 0.54387856 0.40081856 0.073291741 0.91322112 0.019903401
0.15229051 -0.121626 0.54943848 0.37539732 0.13583376 0.91685659 0.021286624
0.15941006 -0.11895449 0.54692221 0.36307856 0.091738559 0.92723143 0.019093793
0.14241569 -0.21230564 0.26389575 0.026999379 -0.99960005 0.0084066875 0.00043210585
0.14098212 -0.20995101 0.31249195 0.029508054 -0.99946558 0.014061634 0.00030377434
0.15187921 -0.20996884 0.29387653 0.017669901 -0.99980932 0.0083120223 0.0038942078
0.12288834 -0.21165544 0.28178135 0.029380931 -0.99947184 0.013886763 0.00032308864
0.13050036 -0.21267129 0.2668629 0.028216954 -0.99951732 0.012998275 0.000399285
0.12865736 -0.2099486 0.35517138 0.041681863 -0.99912673 0.002888778 0.00017605405
0.12083717 -0.21133712 0.29727775 0.030301001 -0.99945098 0.013400264 0.00029311265
0.12973192 -0.20980342 0.3569583 0.042202827 -0.99910522 0.0027784472 0.00016993373
0.14346832 -0.12563485 0.56860232 0.36229107 0.19768441 0.91086 0.026305309
0.13055885 -0.1279403 0.57648075 0.28802946 0.5500927 0.78386039 0.022791868
0.10882809 -0.12181791 0.56393075 0.27475855 0.53007764 0.80220032 0.029071299
0.31739759 0.0095093604 0.48140472 0.37226743 -0.039377928 0.92728978 0.016118366
0.16496989 -0.21126546 0.26645374 0.02429359 -0.9997049 2.1840373e-05 0.0048887273
0.1601613 -0.21107382 0.25657493 0.010842332 -0.99971557 -0.021242201 0.0051624486
0.15426579 -0.20969985 0.29610661 0.017823143 -0.99980831 0.0081047248 0.0040043015
0.15534376 -0.21049717 0.28300896 0.018131493 -0.99982488 0.0046316409 0.0044329306
0.15864556 -0.20946448 0.30111784 0.02032138 -0.99974102 0.010237317 0.0040827887
0.31881541 0.021437125 0.48337322 0.36854228 -0.054414019 0.92801708 0.020374741
0.23463412 -0.20652668 0.31448892 0.039513554 -0.99910748 0.014932529 0.0079443641
0.34267211 -0.21773826 0.5910812 0.0075380588 -0.99737376 -0.072032489 0.0036436955
0.37691373 -0.21343195 0.58292162 0.0075125359 -0.9973917 -0.071786627 0.0036510616
0.21383464 -0.20987262 0.2835058 0.034954358 -0.99938285 0.0034652743 0.0047078324
0.20679887 -0.20718716 0.32839495 0.03139336 -0.99923903 0.023148388 0.008890097
0.17828098 -0.21096535 0.2615591 0.030800641 -0.9995234 -0.0020943761 0.0052224752
0.21047895 -0.20879665 0.30252019 0.034431968 -0.9993543 0.010266721 0.0050054039
0.33875522 -0.2180557 0.59359789 0.0075380588 -0.99737376 -0.072032489 0.0036436955
0.17415497 -0.21021703 0.28080037 0.028980618 -0.99956667 0.005161976 0.0048368354
0.32760689 -0.21934208 0.58414763 0.0075380588 -0.99737376 -0.072032489 0.0036436955
0.1892468 -0.20858106 0.33562642 0.019718798 -0.99950385 0.024558218 0.010276493
0.15962315 -0.21126001 0.26780847 0.017814908 -0.99983746 -0.0027803234 0.0048365975
0.19175985 -0.20791727 0.30899194 0.031502821 -0.99940121 0.014313744 0.0047380761
0.19793491 -0.2069815 0.32500815 0.030014804 -0.99928987 0.022777235 0.0072444086
0.24118163 -0.12331937 0.51781446 0.056849319 -0.98539019 -0.1605442 0.0078353873
0.2369037 -0.22434652 0.51815486 0.12419982 -0.98994631 -0.067680739 0.0094875153
0.15776071 -0.21002945 0.28849757 0.01751839 -0.99981809 0.0075478796 0.0043550059
0.1770654 -0.2095951 0.29577205 0.027534503 -0.99956596 0.010479123 0.0046917317
0.17391042 -0.208638 0.31445715 0.02545161 -0.9995138 0.018009244 0.0051013138
0.19616273 -0.21009238 0.25379235 0.035076559 -0.99936682 -0.0059690848 0.0058463328
0.18245316 -0.2086633 0.33785516 0.017434029 -0.99950945 0.026019912 0.0093506323
0.1634535 -0.11989565 0.54041773 0.40011266 0.13966195 0.90576178 0.021096501
0.15337358 0.010510012 0.53668261 0.11688764 0.98427576 0.13243312 0.055222176
0.14208367 -0.048425023 0.55470961 0.3167769 0.013106459 0.9484095 0.015164781
0.09707839 -0.21130437 0.34993848 0.046593506 -0.99888229 -0.0079511581 0.0010891188
0.12978339 0.0016533987 0.55847609 0.37482601 0.64455575 0.66637331 0.076847166
0.12730384 -0.1163752 0.55771136 0.33679798 0.20527706 0.91892785 0.031065455
0.11483972 -0.1181341 0.56300867 0.33141875 0.20760831 0.92035884 0.033164885
0.10552739 6.2893479e-05 0.56330693 0.30349135 0.40383488 0.863024 0.048466086
0.10063213 -0.12160748 0.56456262 0.2671729 0.53524703 0.80132967 0.03361652
0.084800787 -0.12118885 0.56945574 0.22213896 0.54060525 0.81141865 0.044793464
0.10477781 -0.00085499202 0.57031918 0.30349135 0.40383488 0.863024 0.048466086
0.33106413 -0.20720291 0.24758865 0.0052638245 -0.99268371 0.12062884 0.00049328594
0.34140554 -0.20456782 0.26770812 0.010679556 -0.99042535 0.13763559 0.00064019806
0.4450641 0.018080126 0.43073243 0.30524328 -0.064288177 0.95010191 0.024000006
0.40367985 -0.21937788 0.36831832 -0.59886652 -0.76550823 -0.23527879 0.00067306333
0.31700075 -0.20492418 0.27825454 0.0010287988 -0.99864268 0.052074213 0.00076018338
0.41035396 -0.072619461 0.44650084 0.38231784 6.1721348e-06 0.92403084 0.0017547683
0.48607746 -0.22501132 0.53086978 0.30455813 -0.68309462 -0.66379678 0.0054141455
0.39390722 -0.028864227 0.44732615 0.33483368 -0.033661053 0.94167584 0.0080006449
0.38073763 -0.069000632 0.45390409 0.36281759 0.0077841268 0.93182766 0.0056389985
0.37317261 -0.037535574 0.45744514 0.37599447 -0.038616255 0.92581695 0.0071575702
0.38880858 -0.041515175 0.45055223 0.35541937 -0.025793968 0.93435097 0.0062794853
0.35655037 -0.07640183 0.46275258 0.34705642 -0.012047046 0.93776685 0.0060387873
0.3509537 -0.067585163 0.46661958 0.36464891 -0.024886616 0.93081242 0.0052852528
0.34277087 -0.046415299 0.46906307 0.35458651 -0.033622753 0.93441856 0.0080021508
0.34302723 -0.073909402 0.46946612 0.35131598 -0.025380069 0.93591291 0.0059824181
0.33500966 0.029017508 0.4781113 0.32534572 -0.073405102 0.94274169 0.014921733
0.33416685 -0.0013834035 0.4766894 0.35402334 -0.054719653 0.93363446 0.011315566
0.333597 -0.01471816 0.4733282 0.3539159 -0.053254358 0.93375987 0.010224592
0.31963548 0.019489579 0.48319256 0.37194458 -0.05392684 0.92668718 0.018757092
0.35726947 -0.06982287 0.46272963 0.36356968 -0.020511106 0.93134117 0.0054474887
0.35464144 -0.027074182 0.46750218 0.35558638 -0.038544931 0.93384832 0.0089467643
0.31558311 0.0116762 0.48179716 0.37012237 -0.041846875 0.92804009 0.018302808
0.34739673 -0.056563947 0.46578804 0.34942651 -0.025372269 0.93662018 0.0075883456
0.3134591 -0.096098818 0.47816947 0.29535532 0.040584475 0.95452511 0.013165967
0.30576161 -0.092224136 0.47547254 0.28872326 0.047403503 0.95623833 0.012914951
0.3785165 -0.2182972 0.59429348 0.0075125359 -0.9973917 -0.071786627 0.0036510616
0.33455718 -0.0075346939 0.47507843 0.3540433 -0.051998045 0.9337824 0.010549063
0.33712798 -0.035466079 0.47261816 0.35445219 -0.036358099 0.934367 0.008255939
0.31987891 0.031554904 0.47808737 0.34719402 -0.064094782 0.93560046 0.021794513
0.318124 0.0069858329 0.4808169 0.37262031 -0.042409554 0.92701429 0.017584434
0.3382571 -0.21750303 0.58406138 0.0075380588 -0.99737376 -0.072032489 0.0036436955
0.38768971 -0.22179155 0.59931755 0.0075125359 -0.9973917 -0.071786627 0.0036510616
0.26395974 0.097238623 0.50609446 -0.13983275 0.89445186 -0.42473823 0.02970187
0.30537924 -0.10698528 0.48416746 0.40497485 0.091951773 0.90969235 0.018952824
0.33914015 -0.21750116 0.59891629 0.0075380588 -0.99737376 -0.072032489 0.0036436955
0.2315677 -0.21906844 0.51060975 0.097979963 -0.99413455 -0.045786038 0.007810167
0.18067127 -0.037890658 0.53491533 0.53758001 0.014915205 0.84308082 0.11538826
0.16746496 -0.22879641 0.49493736 0.10460265 -0.99195808 -0.07125587 0.0073139793
0.4859221 -0.22658955 0.53249115 0.30455813 -0.68309462 -0.66379678 0.0054141455
0.32894328 -0.022981217 0.47384319 0.35298249 -0.04623666 0.93448687 0.0092127398
0.2158909 -0.2422753 0.30131599 0.034087628 -0.99935037 0.011700829 0.0066007436
0.55608684 -0.06775067 0.39143464 0.30245557 -0.062941238 0.95108312 0.014914386
0.52435565 -0.067147419 0.41069099 0.28576547 0.0041708173 0.95829052 0.021111455
0.44244844 0.020694617 0.42937016 0.30524328 -0.064288177 0.95010191 0.024000006
0.40607482 -0.22204719 0.37088463 -0.59886652 -0.76550823 -0.23527879 0.00067306333
0.37318119 -0.03742617 0.45744672 0.37599447 -0.038616255 0.92581695 0.0071575702
0.33510947 0.00044758053 0.47706413 0.35632628 -0.055103213 0.93273538 0.011349573
0.35567129 -0.029149098 0.46732518 0.35591134 -0.038056586 0.93374449 0.0086182682
0.33789372 -0.21779032 0.58871555 0.0075380588 -0.99737376 -0.072032489 0.0036436955
0.31484991 0.0076087252 0.48067018 0.36666149 -0.052396301 0.92887783 0.017804349
0.32122132 0.030709267 0.47879538 0.35037598 -0.062361591 0.93453074 0.020206045
0.26643184 0.094594494 0.50827199 -0.13983275 0.89445186 -0.42473823 0.02970187
0.23973027 -0.12316711 0.5152989 0.056849319 -0.98539019 -0.1605442 0.0078353873
0.33849174 -0.037092663 0.47138211 0.35725567 -0.033522755 0.9334048 0.0081234099
0.39354706 -0.028006349 0.44745114 0.33483368 -0.033661053 0.94167584 0.0080006449
0.20276408 -0.12238105 0.52621239 -0.17308286 -0.95737803 -0.2312351 0.020446427
0.40656191 -0.029718475 0.44149679 0.30922934 -0.013635323 0.95088971 0.0076513235
0.3551681 -0.039641239 0.46511811 0.35670239 -0.03682356 0.93349206 0.0080445679
0.34653956 -0.054747015 0.46674159 0.35445642 -0.033040714 0.93448865 0.0074981698
0.22898616 -0.12289891 0.52383345 -0.071784817 -0.98780614 -0.13815184 0.0064960695
0.21749531 -0.12316895 0.53102618 -0.086293772 -0.99054599 -0.1066395 0.0043351734
0.19245924 -0.12729228 0.54733372 0.18139839 0.93971014 0.28989583 0.015787533
0.35729957 -0.077837899 0.46231839 0.34161866 -0.0039245137 0.93983048 0.0059372876
0.35182473 -0.067179501 0.46643579 0.36464891 -0.024886616 0.93081242 0.0052852528
0.3241604 0.017170474 0.48241305 0.37519532 -0.051791057 0.92549783 0.015397243
0.34283468 0.043225538 0.46628058 0.33472547 -0.063172281 0.9401958 0.015140439
0.34344238 -0.21788491 0.59554219 0.0075380588 -0.99737376 -0.072032489 0.0036436955
0.23321582 -0.12278337 0.51607084 -0.067338385 -0.98812503 -0.13811067 0.0067373076
0.17791298 -0.12343964 0.54103816 0.39292455 0.33792952 0.85522741 0.032051366
0.16654266 -0.12364806 0.54793477 0.40011266 0.13966195 0.90576178 0.021096501
0.15391637 -0.12053426 0.5518564 0.36610889 0.14286683 0.91953975 0.01948314
0.1852864 -0.0030223872 0.53532326 -0.005873003 0.99633598 0.085323989 0.06326212
0.1410519 -0.12141262 0.55509782 0.36229107 0.19768441 0.91086 0.026305309
0.15327618 -0.039608441 0.54993755 0.37059745 0.046912104 0.92760807 0.057674568
0.48616391 -0.22265399 0.52837443 0.30455813 -0.68309462 -0.66379678 0.0054141455
0.38953823 -0.037665263 0.44863117 0.35430083 -0.030543106 0.9346326 0.0065094819
0.31132582 -0.1104596 0.48605824 0.40234131 -0.0076265787 0.91545796 0.0063002533
0.31912515 0.019893546 0.48329324 0.37019163 -0.05416353 0.92737502 0.019540366
0.34104186 -0.10063769 0.47145221 0.31290463 0.021743771 0.94953567 0.0087164892
0.1406465 -0.086015031 0.55097222 0.34750789 0.074408762 0.93471998 0.020101249
0.34769878 -0.02960702 0.47001842 0.35244247 -0.042684622 0.93485945 0.008411862
0.33598644 -0.098759927 0.47430182 0.3095957 0.021636462 0.95062208 0.0098089073
0.44251159 0.02049874 0.42947084 0.30524328 -0.064288177 0.95010191 0.024000006
0.33601928 0.028800327 0.47870699 0.32534572 -0.073405102 0.94274169 0.014921733
0.40267143 -0.21821876 0.36711329 -0.59886652 -0.76550823 -0.23527879 0.00067306333
0.40257961 -0.21854176 0.36851913 -0.59886652 -0.76550823 -0.23527879 0.00067306333
0.45635065 0.0082461834 0.43587145 -0.12327991 0.99194372 0.029149286 0.062786289
0.3353751 0.028445736 0.4768962 0.32534572 -0.073405102 0.94274169 0.014921733
0.38863099 -0.20668769 0.22939651 0.033073641 -0.98606497 0.16304015 0.0018781169
0.38276294 -0.20835508 0.23535398 0.038574375 -0.98659748 0.15854771 0.0014687721
0.3719056 -0.20889142 0.23784144 0.038755905 -0.98659295 0.15853149 0.0010971458
0.38106632 -0.2063645 0.25712305 0.038755905 -0.98659295 0.15853149 0.0010971458
0.5197441 -0.064968333 0.40533003 0.28576547 0.0041708173 0.95829052 0.021111455
0.36661133 -0.21266028 0.22049445 0.038574375 -0.98659748 0.15854771 0.0014687721
0.35944942 -0.20567192 0.26175782 0.01963919 -0.98916304 0.14550221 0.00083896238
0.47378862 0.021500254 0.42046517 0.27064884 0.60698235 0.74720925 0.033120073
0.37877053 -0.20690644 0.24669276 0.038574375 -0.98659748 0.15854771 0.0014687721
0.35785088 -0.21351814 0.21987961 0.038755905 -0.98659295 0.15853149 0.0010971458
0.33468887 -0.20700529 0.25018102 0.0099857282 -0.99130946 0.13117154 0.0004864948
0.28489509 -0.20608155 0.25972599 0.021889053 -0.99974161 0.006131697 0.00031111328
0.40424725 -0.21899812 0.59708059 0.007469933 -0.9974336 -0.07120876 0.0036518201
0.26385584 -0.20643236 0.25622168 0.046673641 -0.99841183 -0.031547215 0.0076263128
0.21754533 -0.20718601 0.21890187 0.044311814 -0.99869943 -0.025217474 0.00054039882
0.3470726 -0.056203667 0.46591553 0.35026684 -0.026650334 0.93627071 0.0075880568
0.32088605 -0.1062543 0.48333731 0.27203521 0.08726038 0.95832276 0.01349868
0.34404838 -0.21787617 0.59595245 0.0075380588 -0.99737376 -0.072032489 0.0036436955
0.21304919 -0.20897622 0.24650384 0.037930027 -0.99918604 -0.013735892 0.0062021879
0.38222235 -0.21682118 0.59081471 0.0075125359 -0.9973917 -0.071786627 0.0036510616
0.32889384 0.017406652 0.48378715 0.36002946 -0.056193672 0.93124706 0.01463285
0.21799201 -0.206918 0.21690653 0.044311814 -0.99869943 -0.025217474 0.00054039882
0.3269591 0.011585087 0.48286635 0.36365831 -0.043785337 0.93050289 0.015240884
0.19501555 -0.21029279 0.25322676 0.034524608 -0.99938881 -0.0054691676 0.005718038
0.34178159 -0.21814571 0.5995388 0.0075380588 -0.99737376 -0.072032489 0.0036436955
0.32104939 0.0084053157 0.48146191 0.3732056 -0.04942663 0.92643118 0.016190667
0.32462484 0.094704077 0.49132821 0.41076311 -0.00098086474 0.91174155 0.010564537
0.32320276 0.028300179 0.48010242 0.35399407 -0.060574807 0.93328387 0.01885161
0.2018095 -0.20959602 0.23933731 0.026548622 -0.99877471 -0.041764293 0.007647627
0.24635082 -0.20666374 0.23024033 0.047487102 -0.99875408 -0.015342914 0.00052408763
0.24364039 -0.2076475 0.24391901 0.060025971 -0.99752504 -0.036616269 0.0093828058
0.32284823 0.086858183 0.48774815 0.37964281 -0.033223841 0.92453629 0.011752824
0.276842 -0.20578367 0.26140636 0.027423998 -0.99959224 0.0079533858 0.00038653417
0.24202174 -0.20652342 0.28362104 0.037096377 -0.99931061 -0.0014505557 0.0064166561
0.33328873 -0.0011304534 0.47690445 0.35357046 -0.056840017 0.93367928 0.011731273
0.26164493 -0.20602962 0.27643096 0.042785939 -0.99900019 -0.012959201 0.0084926793
0.22226822 -0.20884027 0.24142116 0.045922477 -0.9986462 -0.024430834 0.0074923625
0.18131973 -0.20849927 0.32817617 0.023347383 -0.99943 0.024384588 0.007017022
0.17384449 -0.20864421 0.31492379 0.02537087 -0.99951094 0.018280489 0.0051969802
0.15934104 -0.21135671 0.26649508 0.017814908 -0.99983746 -0.0027803234 0.0048365975
0.26133558 0.097219616 0.50681531 -0.13983275 0.89445186 -0.42473823 0.02970187
0.22965772 -0.20809293 0.23789905 0.053940229 -0.99785393 -0.037120547 0.008454375
0.37933278 -0.21924692 0.59769225 0.0075125359 -0.9973917 -0.071786627 0.0036510616
0.24061854 -0.20603773 0.31190443 0.041835118 -0.99901891 0.014531297 0.0094329147
0.20254521 -0.20988731 0.24406871 0.033886936 -0.99924439 -0.019037258 0.0070079654
0.1759693 -0.21079439 0.25872904 0.029187277 -0.99956858 -0.0032824813 0.0054070628
0.18855509 -0.20820521 0.33509973 0.019718798 -0.99950385 0.024558218 0.010276493
0.1801706 -0.22720642 0.46226633 0.10461378 -0.99195611 -0.071267419 0.0073135849
0.15886098 -0.20946607 0.3009775 0.02032138 -0.99974102 0.010237317 0.0040827887
0.17548281 -0.22788629 0.47540936 0.10461378 -0.99195611 -0.071267419 0.0073135849
0.18813723 -0.12147918 0.5334971 0.41080394 0.34127632 0.84544104 0.038090028
0.16692315 -0.2285814 0.49302766 0.10460265 -0.99195808 -0.07125587 0.0073139793
0.14135273 -0.21002828 0.31047827 0.02895234 -0.99946964 0.014909917 0.00029010075
0.46403775 -0.21528246 0.51048487 0.30540839 -0.68258584 -0.66392952 0.0052151247
0.23695149 -0.20612842 0.20176671 0.046609309 -0.99819511 -0.037868433 0.00067059504
0.36464521 -0.08066193 0.45638758 0.33735755 0.018879481 0.94118726 0.0069523877
0.2483014 -0.20727548 0.24871258 0.060408819 -0.99744725 -0.038077798 0.0089512477
0.22613403 -0.20789643 0.22840555 0.044562973 -0.99883658 -0.018430179 0.00055974198
0.21340585 -0.20796227 0.22532761 0.044533513 -0.99887407 -0.016349258 0.00056038785
0.32497373 0.019468796 0.48259881 0.36135069 -0.056239221 0.93073243 0.015415687
0.20707066 -0.20715959 0.32802981 0.03139336 -0.99923903 0.023148388 0.008890097
0.22987115 -0.21826835 0.50921857 0.10023727 -0.99316835 -0.059741188 0.0068204016
0.25195867 -0.22273082 0.51942438 0.3284016 -0.91033965 -0.2518613 0.015151591
0.16382225 -0.20865093 0.34154269 0.019117221 -0.99952376 0.024222586 0.0068397904
0.11191075 -0.20972167 0.36712411 0.049791679 -0.99868923 -0.01186035 0.0013940955
0.13192382 -0.12793945 0.57588011 0.28802946 0.5500927 0.78386039 0.022791868
0.097899802 -0.211588 0.28920934 0.044223983 -0.998541 0.030986216 0.0023714588
0.067152455 -0.21114546 0.28522557 0.049572498 -0.99822861 0.032894015 0.004434871
0.077339433 -0.2130691 0.38174748 0.068985365 -0.99731964 -0.024385156 0.002739185
0.072004192 -0.21362352 0.37973639 0.068985365 -0.99731964 -0.024385156 0.002739185
0.21770966 -0.20468664 0.203325 0.044202641 -0.99834168 -0.036878526 0.00079329323
0.22197112 -0.206267 0.21135078 0.04690095 -0.99844491 -0.030133892 0.00062567426
0.19831014 -0.20604624 0.21751554 0.042220823 -0.99879086 -0.025183817 0.00053216144
0.22790936 -0.20749123 0.2737388 0.036243942 -0.99933988 -0.0024946935 0.0052797887
0.22351073 -0.2078975 0.28143868 0.03590348 -0.99935383 -0.0016901229 0.0056091943
0.19104639 -0.20872357 0.23584212 0.021813434 -0.99872851 -0.045448169 0.0081529403
0.21243961 -0.20899726 0.24064276 0.042313959 -0.99874836 -0.02666775 0.0072192745
0.22294235 -0.20576115 0.317808 0.035607252 -0.99921864 0.01715176 0.0076795258
0.18005016 -0.20805696 0.23940964 0.018074902 -0.99919176 -0.035904631 0.0072584394
0.13899602 -0.2121595 0.26937166 0.029304527 -0.99951774 0.010274031 0.00041967133
0.14125067 -0.20993142 0.31241384 0.029279578 -0.99946725 0.014415815 0.00029712889
0.12887073 -0.20984277 0.35668167 0.042202827 -0.99910522 0.0027784472 0.00016993373
0.089938402 -0.20933074 0.26236227 0.048247967 -0.99707466 0.05928015 0.0041401978
0.084631652 -0.21005206 0.27149233 0.048222292 -0.99788409 0.043611143 0.0035459993
0.18244056 -0.036950771 0.53437245 0.4611311 0.38046056 0.80162823 0.13824552
0.10286198 -0.21194482 0.30269998 0.043265294 -0.99869567 0.027111111 0.0020645242
0.073612541 -0.212061 0.29757848 0.048947293 -0.99842805 0.027304137 0.0036047248
0.065518364 -0.21430451 0.28055876 0.050724499 -0.99808943 0.035276134 0.0050251368
0.084418245 -0.20908409 0.26682863 0.048611555 -0.99764174 0.048455261 0.0040417514
0.085450441 -0.21230412 0.3120501 0.050784163 -0.9985795 0.016123185 0.0023978765
0.08652582 -0.21209435 0.35226938 0.051694304 -0.99863464 -0.0075274855 0.0012639682
0.065754026 -0.21301766 0.39124084 0.079644069 -0.99617648 -0.035907265 0.0035583717
0.074273258 -0.21231948 0.30949381 0.054542243 -0.99838126 0.016120402 0.0028160026
0.082423717 -0.21237457 0.37924427 0.068170093 -0.99744558 -0.021334572 0.002654854
0.040982019 -0.21332636 0.29351467 0.072667338 -0.99678648 0.03370836 0.0089972354
0.083403379 -0.11871841 0.56499702 0.22213896 0.54060525 0.81141865 0.044793464
0.04929731 -0.22613783 0.38945574 0.095527768 -0.99475825 -0.036476493 0.0042449939
0.039221771 -0.21423705 0.30341133 0.073430948 -0.99698764 0.024968522 0.0079009794
0.058005791 -0.21186306 0.29477358 0.056594204 -0.99790585 0.031319525 0.0059197987
0.097318128 -0.12231176 0.56712681 0.2671729 0.53524703 0.80132967 0.03361652
0.055054057 -0.21286801 0.34058726 0.065262012 -0.99774951 -0.01538621 0.001574434
0.05043903 -0.21339199 0.31216878 0.081642024 -0.9966498 0.0048718592 0.0051099081
0.047752954 -0.21349078 0.32041091 0.091932446 -0.99575776 0.0038685168 0.0050623217
0.10048567 -6.9643575e-05 0.56413674 0.30355293 0.4027251 0.8635208 0.048399046
0.37283304 -0.038406055 0.45761886 0.3755112 -0.037946794 0.92604065 0.0072084516
0.26416853 -0.2062766 0.29961252 0.051413484 -0.9986645 0.00508019 0.013954704
0.15928233 -0.21125636 0.26803109 0.017814908 -0.99983746 -0.0027803234 0.0048365975
0.17534177 -0.2085305 0.31801993 0.025004689 -0.99950677 0.018996976 0.0054106349
0.18687288 -0.22899672 0.47573593 0.10114089 -0.99238402 -0.070317008 0.0061981999
0.12504268 -0.2119581 0.28435984 0.029671421 -0.9994579 0.014262217 0.00030900014
0.10685977 -0.21181297 0.29166844 0.042145748 -0.99867952 0.029377708 0.0019856184
0.14343622 -0.2113637 0.27748033 0.028688578 -0.99948144 0.014623118 0.00031343751
0.08810588 -0.2119758 0.36164698 0.051809378 -0.9985494 -0.014662676 0.0014345049
0.0654535 -0.21464442 0.27860609 0.051735312 -0.99795175 0.037625268 0.0052711256
0.078181028 -0.21296248 0.38302284 0.069669232 -0.99716055 -0.028583435 0.0027814053
0.072012275 -0.21359293 0.37652957 0.069006152 -0.99732029 -0.02429584 0.0025745814
0.086171269 -0.21219699 0.31342229 0.050784163 -0.9985795 0.016123185 0.0023978765
0.064607561 -0.21498613 0.38608471 0.079570092 -0.99638003 -0.029922018 0.0028531442
0.25449166 -0.13030398 0.54031062 0.031427681 -0.99124932 -0.12820755 0.0072947084
0.10485683 -0.21116036 0.35087714 0.044099882 -0.99898249 -0.0094388127 0.0010124012
0.083846584 -0.21239074 0.34256315 0.050208941 -0.99868351 -0.010505059 0.0013032912
0.0032523363 -0.03205983 0.43433934 -0.55830687 0.013110986 -0.82953095 0.07209006
-0.0049709827 -0.044547446 0.4318808 -0.44096312 0.018198114 0.89734071 0.0016340623
-0.032101009 -0.2161075 0.2600987 nan nan nan nan
0.26426324 -0.2060159 0.30104479 0.051915936 -0.99863356 0.0059776329 0.014376954
0.48412982 -0.22690248 0.53192174 0.30455813 -0.68309462 -0.66379678 0.0054141455
0.34249276 -0.20460504 0.26921165 0.010679556 -0.99042535 0.13763559 0.00064019806
0.26431578 -0.20600636 0.3014282 0.051915936 -0.99863356 0.0059776329 0.014376954
0.40494198 -0.22121882 0.37120649 -0.59886652 -0.76550823 -0.23527879 0.00067306333
0.32361409 0.01654697 0.48236558 0.37177551 -0.05200839 0.92686468 0.01542758
0.061458342 0.088582128 0.58150572 nan nan nan nan
0.045408033 -0.0040324195 0.57716358 0.036794409 0.98612994 0.16184528 0.0033036873
0.12014252 -0.083099678 0.55418217 0.33962318 0.07968124 0.93718034 0.024058482
0.089232132 0.0056360411 0.53867233 0.25489748 0.47096267 0.84452438 0.070066065
0.06685891 -0.2146107 0.38206202 0.069669232 -0.99716055 -0.028583435 0.0027814053
0.081130341 -0.21245833 0.37142831 0.062240284 -0.99790055 -0.01790834 0.0022337153
0.034859721 0.098124407 0.6002776 nan nan nan nan
-0.0087118214 -0.046316255 0.42902541 -0.44096312 0.018198114 0.89734071 0.0016340623
-0.013029114 -0.051022634 0.43038332 -0.44096312 0.018198114 0.89734071 0.0016340623
0.011564717 -0.035721187 0.44083771 -0.55830687 0.013110986 -0.82953095 0.07209006
0.32523352 0.017784428 0.4826009 0.36081678 -0.055053033 0.93101048 0.014185322
0.10280175 -0.21082127 0.34453809 0.04334053 -0.99903834 -0.0066315215 0.00097432133
0.32825693 0.017794183 0.48443907 0.36037529 -0.057296056 0.93104601 0.015015149
0.48540896 -0.22746795 0.53317773 0.30455813 -0.68309462 -0.66379678 0.0054141455
0.098248146 -0.21145654 0.35167179 0.046181247 -0.99889994 -0.008144754 0.0011416862
0.078163281 -0.21196398 0.38849437 0.070432201 -0.99713159 -0.02770986 0.0029688876
0.16757961 -0.21030526 0.35210368 0.016802674 -0.99949867 0.026832044 0.0099957911
0.35327682 -0.025456861 0.46712658 0.35558638 -0.038544931 0.93384832 0.0089467643
0.48467401 -0.22781323 0.53317791 0.30455813 -0.68309462 -0.66379678 0.0054141455
0.1217575 -0.21141359 0.28021228 0.044802226 -0.99846536 0.032552272 0.0020668814
0.32813242 0.017967226 0.48446599 0.36037529 -0.057296056 0.93104601 0.015015149
0.48602107 -0.22787143 0.5339219 0.30455813 -0.68309462 -0.66379678 0.0054141455
0.39479381 -0.10449216 0.45107594 0.35769254 0.033271402 0.93324643 0.0019968122
0.32257131 0.018041687 0.48276001 0.36994708 -0.051494945 0.92762458 0.015928261
0.48706907 -0.22860916 0.53524655 0.30455813 -0.68309462 -0.66379678 0.0054141455
0.32234159 0.018234918 0.48280725 0.36997482 -0.051574443 0.92760915 0.016387032
0.48741359 -0.22864856 0.53546321 0.30455813 -0.68309462 -0.66379678 0.0054141455
0.51181591 -0.061943579 0.39861709 0.28576547 0.0041708173 0.95829052 0.021111455
0.32205623 0.018352402 0.4828454 0.37053773 -0.052066769 0.92735696 0.016909426
