# .PCD v0.7 - Point Cloud Data file format
VERSION 0.7
FIELDS x y z
SIZE 4 4 4
TYPE F F F
COUNT 1 1 1
WIDTH 1208
HEIGHT 1
VIEWPOINT 0 0 0 1 0 0 0
POINTS 1208
DATA ascii
-0.072879232 -0.18055201 0.82987922
-0.68620241 -0.1706492 1.088627
-0.64890128 -0.04603513 0.66892147
-0.63083339 -0.1595393 1.083068
-0.69351572 -0.1501954 1.266102
-0.6822269 -0.1682229 1.185518
-0.63311458 -0.17544229 0.84342802
-0.54372889 -0.061355609 0.78521138
-0.64922482 -0.1619381 0.88718599
-0.2010859 -0.20738161 1.0872771
-0.34912601 -0.2041343 0.85596812
-0.414184 -0.1303006 0.79610193
-0.2719658 -0.18737701 0.97790599
-0.60637832 0.01001474 0.88659889
-0.32620311 -0.15139841 0.91321123
-0.68207711 -0.1679202 0.92930079
-0.307659 -0.038789619 1.1346689
-0.40470761 -0.06629435 0.95497853
0.026130499 -0.1842576 0.53880721
-0.32584521 -0.25132599 0.66765648
-0.31308129 -0.29111829 0.62289178
-0.2868242 -0.38911229 0.85440218
-0.26999831 -0.35243961 0.94015259
-0.18999 -0.32482001 0.90324891
-0.2803655 -0.2784417 0.6877138
-0.13923571 -0.44097701 1.159034
-0.4138996 -0.072642893 0.94722962
-0.1912186 -0.35929081 0.89969927
-0.24859729 -0.25146571 0.69698101
-0.30330119 -0.34570581 0.77899909
-0.26090851 -0.184917 0.89048201
-0.426698 -0.1870358 0.63947833
-0.3491323 0.080463603 0.84927839
-0.40902641 -0.1767268 0.67633539
-0.50202829 -0.032690089 0.61743581
-0.46517721 -0.2304762 0.58590919
-0.38008431 -0.1524419 0.72289062
-0.4501951 0.064869203 0.70248681
-0.50246018 -0.026070241 0.61982858
-0.3229914 -0.14305981 0.8062951
-0.398839 0.075512268 0.76769269
-0.3584131 -0.1988394 0.74072641
-0.3798939 -0.2734881 0.67236829
-0.4508647 -0.1180932 0.6714769
-0.47726259 -0.2426949 0.56541443
0.1094387 -0.2942839 0.5852648
-0.44066629 -0.3141236 0.59344733
-0.3603408 -0.35671121 0.67580283
-0.48537689 -0.26010799 0.56769288
-0.35191241 -0.30766541 0.73494297
-0.49380991 -0.36275801 0.53588629
-0.46686441 -0.3659251 0.5420996
-0.41763249 -0.33534151 0.62357491
-0.47357851 -0.337989 0.55838138
-0.54338062 -0.02649427 0.6347391
-0.0094329119 -0.062562063 0.58224863
-0.1020846 -0.038520031 0.67650992
-0.063676178 -0.049760651 0.66098642
-0.6308701 -0.35457289 0.63200867
-0.57978368 -0.35630301 0.56961328
-0.47425669 -0.2467622 0.56758702
-0.44057241 -0.36131269 0.5810917
-0.67833018 -0.1359552 0.6992771
-0.58250731 -0.35291961 0.57092988
-0.67262143 0.038370349 0.72106159
-0.31718799 0.06488017 0.907175
-0.35522431 -0.2468228 0.70745552
-0.39900759 -0.26023361 0.65856582
-0.31941411 0.070903338 0.90153021
-0.48602921 -0.2135534 0.57670379
-0.59129471 -0.120437 0.74851471
-0.34658131 -0.26707381 0.74948728
-0.32778841 -0.30101529 0.74177748
-0.69667238 0.066131569 0.74563682
-0.66454542 -0.129669 0.68995059
-0.46257839 -0.1044342 0.6546976
-0.72941041 -0.1394556 0.73800099
-0.4326486 0.071736433 0.72120053
-0.39444569 -0.25298539 0.67229682
-0.57117301 0.032427799 0.66477692
-0.4889459 -0.2086717 0.56665432
-0.38802749 -0.26939729 0.64643657
-0.35724291 0.087768167 0.81789052
-0.44173339 -0.2556982 0.59629661
-0.29458049 -0.3070958 0.78178889
-0.20056839 -0.1045158 0.99734789
-0.34703219 0.061662029 0.81532401
-0.31935319 -0.14509571 0.79119372
-0.2088857 -0.14822111 0.9228875
-0.34632501 -0.1743888 0.74010563
-0.2186403 -0.23643731 0.87706268
-0.179911 -0.3412461 0.87210488
-0.36697039 -0.1134324 0.84583199
-0.2375825 -0.13201471 0.73357183
-0.25561839 -0.036279429 0.71874237
-0.29125369 0.0085174143 0.81800228
-0.23061951 -0.15327039 0.72773123
-0.20295919 -0.1029475 0.79248679
-0.24690939 -0.29214519 0.67109531
-0.2386615 -0.2731863 0.66509438
-0.091034472 -0.15713219 0.83673632
-0.071624398 -0.13631471 0.84167951
-0.1158582 -0.1738127 0.82553858
-0.00064384937 -0.1355 0.56757307
0.0084359646 -0.1505698 0.56132329
-0.2375994 -0.28824431 0.67318457
-0.1308904 -0.051935051 0.67658252
0.046882451 -0.111128 0.62661541
-0.073267341 -0.30925849 0.65691167
-0.0209291 -0.1601391 0.74982721
0.024513241 -0.1339546 0.70722628
0.017531039 -0.32104009 0.57568908
-0.01954818 -0.066572256 0.63584143
0.070434868 -0.2004813 0.59294027
-0.1252805 -0.16008259 0.80587327
-0.048851911 -0.2813465 0.64864171
-0.066786833 -0.2977097 0.63966548
-0.1726062 -0.32940501 0.69350851
-0.04522622 -0.2978645 0.6304059
0.0028939249 -0.29528159 0.60572767
-0.09855485 -0.33099541 0.64796197
0.02127075 -0.3403703 0.58930969
0.034923319 -0.27162939 0.59238261
-0.21981519 -0.2885533 0.7090801
-0.1143945 -0.28505439 0.66680682
-0.069851696 -0.152128 0.8157202
-0.00025296211 -0.26171699 0.60981637
0.0079936981 -0.116968 0.71029007
-0.20667019 -0.288118 0.70487398
0.003666759 -0.1895462 0.67298698
-0.0054357052 -0.136555 0.73381293
-0.0042005782 -0.039108191 0.65692192
-0.26737359 -0.2822932 0.73538691
0.0041752462 -0.1344028 0.71415907
-0.1004318 -0.1143895 0.8088038
0.005467236 -0.1632683 0.63435572
-0.1218441 -0.32618311 0.66069531
-0.052801009 -0.02741429 0.71283209
-0.095384032 -0.27379569 0.65025169
0.064914353 -0.34383851 0.56645709
0.0071895719 -0.0807283 0.6584388
-0.048477229 -0.1241735 0.80403137
-0.077757508 -0.1975572 0.72824568
-0.14094371 -0.19505911 0.73812258
-0.1312822 -0.32901651 0.66011888
-0.1371695 -0.31588551 0.66480482
-0.1465212 -0.32982531 0.66689742
-0.1176679 -0.3290121 0.65455067
-0.04341602 -0.18822961 0.71621048
-0.064641587 -0.19310451 0.69692057
-0.102722 -0.1237651 0.80245441
0.071947522 -0.26727229 0.57434702
-0.1080318 -0.044839621 0.69260162
0.075194299 -0.022703661 0.63417172
-0.086433887 -0.062330302 0.68889803
0.055894669 -0.33157751 0.56827283
-0.0873155 -0.2990436 0.64631617
-0.026309369 -0.3308869 0.60903448
-0.0073721409 -0.2186601 0.61401021
0.0261277 -0.22462989 0.59810859
0.045432869 -0.2180454 0.59137863
-0.05506039 -0.31961849 0.62495029
0.0029909611 -0.32358319 0.59332162
-0.1232831 -0.19771139 0.66591978
0.04033852 -0.20905539 0.59301978
-0.075511277 -0.3281745 0.63736331
0.066432357 -0.28130019 0.57170713
0.04172039 -0.337118 0.57662213
0.084291101 -0.2114708 0.58214402
-0.1215328 -0.2041451 0.66957003
0.02666926 -0.2133933 0.59821087
-0.27358061 -0.17704099 0.74332428
-0.2676672 -0.1738155 0.74611288
-0.32144901 -0.34032339 0.74494159
-0.31542271 -0.25142679 0.75659668
-0.1270007 -0.3138445 0.66302037
-0.1518914 -0.32021669 0.67976737
-0.26343599 -0.2667315 0.72401762
-0.2377331 -0.33872691 0.70268649
-0.1353149 -0.03457747 0.71559
-0.26441669 -0.31071731 0.71823448
-0.25070959 -0.32510069 0.71524721
-0.06243604 -0.2230742 0.63842708
0.01421213 -0.2197406 0.60369349
0.072932541 -0.217391 0.58251208
-0.076848693 -0.2229137 0.64950639
0.003971756 -0.218088 0.60496593
-0.0051709409 -0.30366731 0.59937203
-0.066316783 -0.26761279 0.63422132
-0.2421401 -0.028319979 0.74486047
0.053646449 -0.2090925 0.58443779
-0.058464881 -0.2106809 0.64126939
-0.0544101 -0.1996507 0.65666258
-0.1603625 -0.1954684 0.74628812
-0.0091100931 -0.1928812 0.63885152
0.016842371 -0.17235599 0.63953829
-0.02190721 -0.1628278 0.75406659
-0.04458278 -0.30775899 0.6207335
-0.1060874 -0.3264432 0.64638138
-0.060232159 -0.32707441 0.62731707
0.035827279 -0.2876499 0.58566582
-0.214958 -0.1426511 0.76540798
-0.1478198 -0.05591784 0.7060824
-0.1499569 -0.31506479 0.67211151
-0.1920325 -0.30788809 0.68192142
-0.190266 -0.32807469 0.68540299
-0.1835447 -0.34292299 0.67599767
-0.14530469 -0.31171 0.66697371
-0.304811 -0.2690984 0.75297201
-0.31896999 -0.3003771 0.76510298
-0.28055051 -0.29543969 0.72589427
-0.048774421 -0.19911259 0.63340187
-0.2949715 -0.1893021 0.75844163
-0.2422391 -0.22888011 0.71443969
-0.01105136 -0.27363881 0.60270762
-0.1051795 -0.19009531 0.72029448
-0.099235423 -0.3133705 0.65186173
-0.040299889 -0.2579321 0.62715793
-0.065713577 -0.21318489 0.64639992
0.017932709 -0.1117105 0.69561893
0.00095230341 -0.051196899 0.63678998
-0.017195581 -0.2049685 0.61765063
-0.1191353 -0.31164259 0.66036338
-0.080811203 -0.1920711 0.67986572
-0.041837569 -0.3248257 0.61702168
-0.038308501 -0.1992979 0.65787792
0.03823996 -0.2373279 0.59181982
0.055982411 -0.19038071 0.58590102
-0.019955641 -0.2246837 0.60975021
0.0042828321 -0.1969092 0.61589569
-0.1400158 -0.1969339 0.76528549
-0.1362236 -0.33096421 0.6652748
-0.2009519 -0.32483181 0.68662548
-0.1332581 -0.18728881 0.68685561
-0.20777109 -0.32817489 0.68780679
-0.2480814 -0.2198301 0.71962881
-0.195981 -0.2024402 0.74866199
-0.1360652 -0.1984853 0.72880691
-0.30591309 -0.29204261 0.73627841
-0.1629003 -0.2024812 0.6844871
-0.072377197 -0.238976 0.63887173
-0.043540601 -0.1267302 0.80822808
-0.03245848 -0.16984899 0.78504682
-0.26353049 -0.23110759 0.72524053
-0.26634559 -0.3118833 0.73756927
0.067286968 -0.29051509 0.5777117
-0.083710372 -0.2147679 0.64933848
-0.078376859 -0.18393791 0.75280011
-0.066440701 -0.2206399 0.6397562
0.04538548 -0.262995 0.58770072
0.034412742 -0.26083621 0.58772123
0.046103779 -0.314255 0.58042669
0.046855811 -0.1999639 0.58396691
-0.043599069 -0.26372379 0.62308282
-0.026525909 -0.18670189 0.72486228
0.0083006024 -0.2101174 0.60594529
-0.082569748 -0.26262459 0.64348239
-0.095363908 -0.2195446 0.65782207
-0.016320471 -0.025418591 0.87628329
-0.14192981 -0.04676095 0.70558172
-0.074366391 -0.1748251 0.798195
0.038566351 -0.3154397 0.57134628
0.05460453 -0.31942281 0.56629562
0.090468533 -0.33634421 0.55645138
0.04559755 -0.27998471 0.57668531
0.079360008 -0.1883049 0.58618438
0.09173131 -0.3426477 0.55877411
0.081399143 -0.33160889 0.55930072
-0.1005821 -0.3340714 0.60885471
-0.2249078 -0.04472331 0.72992831
0.0031937361 -0.033560269 0.63241249
-0.0563429 -0.043137189 0.65799183
-0.2088984 -0.047698401 0.73465681
-0.26390961 -0.34521359 0.70567888
-0.30951011 -0.2542716 0.76725137
-0.1197029 -0.1641735 1.059279
-0.27831241 -0.1008644 0.7737155
-0.2828092 -0.14950509 0.78386712
-0.2390943 -0.30997759 0.94049668
-0.28994289 -0.27080649 0.86066782
-0.2289158 -0.34786761 0.9602685
-0.23916809 -0.32885829 0.93955392
-0.2129482 -0.32788971 1.007183
-0.3039175 -0.29094931 0.82015848
-0.230718 -0.052159879 0.87245983
-0.1178988 -0.1165091 1.0401779
-0.1478202 -0.2007758 1.095083
-0.2416753 -0.05562789 0.85833281
-0.28003699 -0.28004849 0.8577261
-0.32199541 -0.34423509 0.74866372
-0.20206229 -0.30355719 1.0037071
-0.25906271 -0.33634019 0.91710472
-0.26572421 -0.3370114 0.9069984
-0.076759279 -0.1428044 0.95344561
-0.27012071 -0.120694 0.81410229
-0.098309398 -0.13359369 1.015805
-0.25731969 -0.23151369 0.8807869
-0.20939051 -0.20192429 0.94017673
-0.1797885 -0.2390269 1.051836
-0.2235132 -0.30851999 0.98427808
-0.22277381 -0.2016886 0.87046319
-0.2425997 -0.037771769 0.85356891
-0.19100221 -0.29694039 1.054774
-0.19996069 -0.29890099 1.004192
-0.22530749 -0.20145591 0.85256261
-0.2546612 -0.30924001 0.90565437
-0.31320149 -0.33230481 0.80205399
-0.28596061 -0.1256717 0.7788192
-0.094892196 -0.1309021 0.99456543
-0.23387671 -0.2783404 0.94196647
-0.27801311 -0.134516 0.79022998
-0.19203199 -0.318979 1.037176
-0.2267607 -0.3118723 0.9729293
-0.3103995 -0.29099569 0.76444978
-0.13004179 -0.2055476 1.075653
-0.23742761 -0.040447239 0.86289442
-0.2701245 -0.2513302 0.86211818
-0.2438937 -0.2007345 0.84248239
-0.27325889 -0.1379118 0.80531567
-0.1935852 -0.31830889 1.031734
-0.21190751 -0.25355479 0.98721462
-0.25977421 -0.13507649 0.81731957
-0.1879631 -0.1984119 0.9319706
-0.078984082 -0.116518 0.95419067
-0.1767371 -0.29180381 1.077841
-0.23259421 -0.054027341 0.87349361
-0.26947489 -0.1259371 0.81173879
-0.081525788 -0.1825106 0.89983982
-0.1041801 -0.13204411 1.020864
-0.2379666 -0.34569061 0.94391108
-0.229451 -0.2016741 0.90079838
-0.1874858 -0.2461728 1.0292979
-0.24373101 -0.054522101 0.8523103
-0.22741839 -0.19589169 0.84137982
-0.2402356 -0.34625459 0.93074572
-0.25561431 -0.092264488 0.82126081
-0.26801169 -0.234624 0.87030178
-0.1655156 -0.059112791 1.01459
-0.2129222 -0.34568119 1.000952
-0.082760237 -0.13541789 0.904984
-0.1972647 -0.2444317 1.0203919
-0.28654641 -0.27150339 0.84965628
-0.2087606 -0.1142785 0.83591098
-0.2054203 -0.114232 0.83890772
-0.1179817 -0.19869331 1.023501
-0.29045671 -0.194208 0.78419548
-0.2055413 -0.1365563 0.84066802
-0.083183654 -0.12839019 0.95394069
-0.1635046 -0.042608749 1.0180039
-0.1727784 -0.052746501 1.002305
-0.19446839 -0.19764531 0.84525841
-0.22474539 -0.2259526 0.95056218
-0.22312211 -0.057433821 0.89640802
-0.1355692 -0.19907629 1.041744
-0.1765437 -0.27791369 1.072835
-0.1757028 -0.2037055 1.029851
-0.185103 -0.24433529 1.0419
-0.2457512 -0.27088439 0.92427832
-0.2553671 -0.2738789 0.90873313
-0.2680116 -0.1266987 0.81838602
-0.2776168 -0.22184791 0.83996248
-0.2685073 -0.093662202 0.80994511
-0.2103117 -0.1441915 0.83574772
-0.21286739 -0.1594452 0.83752668
-0.28272519 -0.135717 0.76823533
-0.284758 -0.1530288 0.76699388
-0.3180694 -0.32350039 0.78814608
-0.25643221 -0.05384 0.82664353
-0.29463151 -0.284116 0.81986231
-0.24932329 -0.080101162 0.82289988
-0.238886 -0.061550058 0.85482562
-0.30696949 -0.34148601 0.79451919
-0.081358731 -0.1754493 0.90308481
-0.1807563 -0.20273601 1.015474
-0.21133889 -0.135693 0.83656222
-0.1600935 -0.097243667 0.85901499
-0.079003751 -0.1183206 0.95490152
-0.2499695 -0.039648011 0.8327297
-0.1360268 -0.057692099 1.087517
-0.1727165 -0.23778041 1.0546269
-0.1808134 -0.20643491 1.040044
-0.242007 -0.1282706 0.82988149
-0.2046957 -0.2202307 0.94191939
-0.1548665 -0.25915211 1.107442
-0.1307229 -0.043965701 1.078562
-0.1655934 -0.2025566 1.037555
-0.2589983 -0.19797119 0.82321548
-0.2350076 -0.062976301 0.87244052
-0.13855711 -0.049905799 1.067816
-0.28376541 -0.2251883 0.83182281
-0.1541338 -0.30726591 1.119233
-0.19700401 -0.12862331 0.83563662
-0.098233491 -0.084929571 1.002771
-0.090796411 -0.1582627 0.98712242
-0.25448751 -0.08979471 0.81790942
-0.2233476 -0.1700003 0.82971263
-0.30070069 -0.2470015 0.751872
-0.30424389 -0.34712839 0.8092066
-0.2938827 -0.325214 0.83978653
-0.28992799 -0.34681889 0.85328662
-0.23367999 -0.053636529 0.87862819
-0.1123626 -0.1163902 1.04357
-0.2045721 -0.043825231 0.93464792
-0.15758459 -0.2715604 1.102892
-0.2180616 -0.248715 0.9721058
-0.25831279 -0.2305672 0.8713733
-0.18561719 -0.29307699 1.056585
-0.2368197 -0.29307359 0.93684667
-0.2407283 -0.20646989 0.90238369
-0.21329521 -0.3381075 1.0057189
-0.2408977 -0.2006672 0.88955438
-0.270906 -0.1319077 0.7995193
-0.2949076 -0.1628253 0.81870061
-0.1912902 -0.050590731 0.96733397
-0.189386 -0.17285571 0.86004663
-0.2342006 -0.32078221 0.94168532
-0.1235597 -0.1985814 1.014197
-0.2219578 -0.28237441 0.96343052
-0.073913932 -0.13669319 0.96387202
-0.2884551 -0.34065381 0.85178292
-0.1701856 -0.28901699 1.086058
-0.2140899 -0.29932699 0.99220812
-0.1004045 -0.123686 0.88585091
-0.2314081 -0.26912799 0.9420076
-0.1734661 -0.1999256 0.88159579
-0.2445769 -0.29186651 0.92336029
-0.24740051 -0.3027589 0.92951888
-0.081767917 -0.1651932 0.90299338
-0.2209895 -0.061129581 0.89653867
-0.15038151 -0.1091694 0.85444927
-0.1108924 -0.1245474 1.048629
-0.1758015 -0.33586621 1.0891041
-0.18830331 -0.05962953 0.96643728
-0.1714467 -0.13071211 0.84764159
-0.120202 -0.1350576 0.87208712
-0.28714949 -0.20985921 0.74880558
-0.2325656 -0.28143021 0.94583482
-0.30781931 -0.29590601 0.76565051
-0.1211253 -0.1979869 0.98292518
-0.1588401 -0.190266 0.91014379
-0.1696527 -0.1151299 0.85129839
-0.30276611 -0.2353269 0.79025918
-0.2497935 -0.2083388 0.8876738
-0.078038633 -0.1672868 0.91626579
-0.1752746 -0.1337835 0.85393751
-0.2749508 -0.26996481 0.85418719
-0.3000176 -0.26714841 0.80003172
-0.27365109 -0.2348308 0.866808
-0.29977351 -0.30200359 0.81501341
-0.29880551 -0.25491691 0.7902317
-0.1559585 -0.27845481 1.108425
-0.1766597 -0.2031253 1.0258369
-0.28087661 -0.203867 0.7598626
-0.3018707 -0.25019729 0.7968114
-0.1903466 -0.1224759 0.84135813
-0.067671478 -0.1351707 0.96322179
-0.1755691 -0.29220921 1.076462
-0.20477811 -0.32920489 1.011142
-0.2493138 -0.2981286 0.91503328
-0.1514754 -0.060982939 1.046706
-0.1746013 -0.32838169 1.09312
-0.079871707 -0.1147429 0.98148477
-0.1029487 -0.1933513 0.91080832
-0.27329129 -0.09859626 0.79931688
-0.33713901 -0.3176007 0.75991821
-0.1040007 -0.1586874 0.88103098
-0.26222971 -0.033528239 0.77425158
-0.08978349 -0.15992589 0.89396942
-0.092099369 -0.08718954 0.99573213
-0.2000816 -0.2021379 0.9440732
-0.2756975 -0.14621501 0.77243638
-0.1706856 -0.33453381 1.098994
-0.18528891 -0.2431881 1.04272
-0.1698571 -0.057424638 1.006459
-0.1839778 -0.06231321 0.98477513
-0.087584853 -0.1460411 0.89490032
-0.2474324 -0.042103749 0.8436448
-0.28269029 -0.28241181 0.84607297
-0.29102051 -0.1972308 0.76834339
-0.1788795 -0.051959209 0.99989301
-0.1230564 -0.044679418 1.098379
-0.19758929 -0.20150261 0.84067178
-0.1885737 -0.2986545 1.060117
-0.2238259 -0.04630512 0.75189853
-0.20101909 -0.32263589 1.012382
-0.2496862 -0.34083951 0.91711438
-0.2982195 -0.25199941 0.80209601
-0.1443731 -0.27340421 1.126161
-0.2762197 -0.2160279 0.84633631
-0.28027159 -0.340633 0.86261803
-0.090974838 -0.18280829 0.89653409
-0.17168181 -0.043136019 0.99896628
-0.25517061 -0.29042789 0.89690048
-0.1737213 -0.3330951 1.096096
-0.040610489 -0.022038421 0.86363971
-0.2358973 -0.094906367 0.82199562
-0.1914461 -0.1225286 0.84436858
-0.279809 -0.23473769 0.83933789
-0.106268 -0.1237925 0.88053602
-0.1703219 -0.2303082 1.067295
-0.1711908 -0.23283949 1.069965
-0.15164299 -0.19917139 0.93868482
-0.17995299 -0.20948049 1.03944
-0.26482001 -0.26369709 0.8810401
-0.2476351 -0.29966009 0.88989192
-0.30202901 -0.24234089 0.74301302
-0.14025401 -0.065353967 1.0738699
-0.19058789 -0.20928819 1.017139
-0.171857 -0.04685666 1.010334
-0.30418149 -0.33616289 0.80894732
-0.28431591 -0.21546151 0.83468741
-0.1297911 -0.1991158 1.068536
-0.17976101 -0.27287871 1.066288
-0.1397942 -0.049468622 1.059994
-0.066820562 -0.15701421 0.91779947
-0.1662253 -0.27942511 1.085969
-0.1238264 -0.2008488 1.079404
-0.1696354 -0.065974571 0.99593472
-0.1671408 -0.28502709 1.095083
-0.14872269 -0.057502959 1.0546401
-0.1732641 -0.24979541 1.063441
-0.17947809 -0.3481313 1.065685
-0.15262879 -0.2263943 1.1049089
-0.1184531 -0.09770079 1.073954
-0.3025651 -0.26243311 0.79146677
-0.2397996 -0.2957305 0.94438082
-0.097038448 -0.042801481 1.126852
-0.098653607 -0.097359143 1.13604
-0.1120261 -0.27128619 1.168004
-0.1140556 -0.25046891 1.16096
0.040553391 -0.19964141 1.09094
-0.072972178 -0.3333793 1.1657341
-0.091176659 -0.1806113 1.148739
-0.01286039 -0.2249805 1.1292959
0.060627341 -0.2370584 1.083653
0.1698468 -0.1947621 0.99630332
-0.29550999 -0.2128592 0.77227873
0.086598277 -0.23454 1.072742
0.040886581 -0.2400203 1.096977
-0.01012462 -0.20291179 1.080716
0.01085508 -0.2317137 1.1106499
0.04596521 -0.3029581 1.113356
-0.046680719 -0.22642849 1.145084
0.1486941 -0.042145021 1.021633
-0.064400487 -0.040591829 1.109218
-0.0093031526 -0.21554691 1.1188411
0.049465179 -0.27300021 1.098814
-0.086292028 -0.30506581 1.1732301
0.1155689 -0.20233969 1.051259
0.1261062 -0.1180007 0.9527387
-0.039621711 -0.045071691 1.1018831
0.1306466 -0.17011049 0.95934898
-0.0219515 -0.2094004 1.088412
0.15202831 -0.26256841 1.045768
0.13471331 -0.1162134 0.95512348
0.1208716 -0.18990541 0.97369921
0.1165513 -0.13622729 0.94171232
0.1305065 -0.087363467 0.95095289
0.1242951 -0.1666038 0.94908148
0.084675312 -0.29196611 1.0776089
0.1069525 -0.13870621 0.9393816
0.13377041 -0.2599481 1.055796
-0.070122361 -0.18224861 1.131204
0.051104899 -0.05396485 1.058367
0.080699153 -0.28139541 1.087346
-0.05879974 -0.2599979 1.148887
0.0933671 -0.16287521 0.93908679
-0.05345932 -0.27455121 1.153582
0.093390577 -0.17096411 0.9400537
-0.07835409 -0.32212859 1.170643
0.067318201 -0.1190647 0.93039191
0.098767102 -0.2343985 1.072301
0.034737531 -0.30263129 1.106708
-0.1153351 -0.17920659 1.138
-0.0083564818 -0.051970441 1.0939209
0.071321309 -0.141019 0.93237889
-0.05195206 -0.24876469 1.145434
0.091447286 -0.05530813 1.0511841
-0.043739289 -0.30331799 1.153212
0.03000528 -0.03833811 1.065302
-0.1150997 -0.33047131 1.17668
0.1088494 -0.2191356 1.065802
0.1513956 -0.25508001 1.0534101
-0.0036109691 -0.2860643 1.127
-0.069776148 -0.3269051 1.171317
-0.01891428 -0.33202571 1.142844
-0.2141726 -0.31151479 0.99999309
-0.0094641447 -0.2378623 1.1253181
0.065068133 -0.14456619 0.94055021
0.2179428 -0.13113821 0.98797709
0.053750899 -0.047922451 1.0622489
0.2294793 -0.1733042 0.99220371
0.2452722 -0.17694511 0.98644137
0.1778111 -0.126146 0.96332222
0.03245613 -0.15997221 0.94128752
0.2310576 -0.1160933 0.98544389
0.064410761 -0.1718054 0.93906742
0.21931159 -0.34197271 1.037379
0.1936049 -0.2363245 1.031233
0.0029535589 -0.2017408 1.070576
0.2049017 -0.3477571 1.044409
0.048995908 -0.1769657 0.93610859
0.1892121 -0.1370896 0.97275722
-0.0046195388 -0.33691561 1.145957
0.2466718 -0.28375071 1.024941
0.043185171 -0.18298399 0.93673378
0.1830337 -0.09808787 0.96903491
0.085520633 -0.1172612 0.93192768
0.1884467 -0.14530919 0.97358972
0.14211071 -0.05372579 1.0062521
0.18723281 -0.2230752 1.0256031
-0.2672691 -0.1229738 0.81019437
0.1962548 -0.1058159 0.97616059
0.2288218 -0.03646607 0.97552389
-0.0001670718 -0.1695559 0.95668811
0.01112211 -0.1949403 1.048154
0.01355648 -0.1821425 0.94330138
0.12705199 -0.091573283 0.94310808
-0.064343087 -0.12911721 1.115988
0.18771809 -0.28207061 1.047091
0.23689049 -0.1750766 0.98904967
0.19927961 -0.2246906 1.020487
0.0073404908 -0.31339699 1.1287251
-0.01130044 -0.34087899 1.141102
0.01212585 -0.1961298 1.057904
0.1785758 -0.2372385 1.033049
-0.016395571 -0.057246581 1.093721
0.19658519 -0.048333619 0.99567688
0.1858664 -0.277729 1.046213
0.18274111 -0.095210098 0.97253001
0.1995236 -0.2424759 1.034202
0.1353725 -0.04420748 1.019878
-0.06216833 -0.04205605 1.1099631
-0.001625031 -0.22128139 1.123075
-0.060571428 -0.3399739 1.170198
-0.075706601 -0.3307775 1.170831
0.187611 -0.245196 1.03994
0.13946579 -0.1250193 0.9559691
0.115694 -0.26451999 1.073429
-0.0051518679 -0.33034441 1.1364501
0.017555529 -0.061092209 1.083285
-0.1190799 -0.2036543 1.148339
-0.096966803 -0.25472069 1.168147
0.1679572 -0.073201038 0.96552068
0.2367828 -0.1067947 0.98633027
0.13474859 -0.056479111 1.038572
0.17230751 -0.1394008 0.97325498
-0.093195863 -0.29086959 1.176282
0.2376177 -0.16347811 0.99544132
0.090110332 -0.1142064 0.93696332
0.2173363 -0.3291342 1.036621
0.1669143 -0.1254124 0.96501929
0.25393179 -0.2390101 1.004517
-0.043779101 -0.2006363 1.102417
0.1527407 -0.26181489 1.053794
-0.04499108 -0.081590377 1.0636621
0.1117652 -0.3158088 1.0814379
-0.1219179 -0.2085999 1.1453429
-0.04156509 -0.079244867 1.073236
-0.1026311 -0.24713179 1.168035
0.1126388 -0.2344563 1.06427
-0.1048088 -0.19859999 1.1464061
0.1977974 -0.2836481 1.040781
-0.031842649 -0.2549358 1.143721
-0.029133201 -0.1275132 1.037056
-0.036644701 -0.23325031 1.14176
-0.03210317 -0.1863208 1.065454
-0.027614949 -0.326114 1.1452169
0.1890889 -0.2396746 1.027014
0.165031 -0.3151229 1.06305
0.091890588 -0.1372702 0.94336039
0.096542023 -0.049441449 1.040359
0.0061199218 -0.1852365 1.0230941
-0.090479173 -0.051591951 1.143517
0.2722798 -0.31334901 1.007051
-0.0274795 -0.2276375 1.141883
0.21613739 -0.2872605 1.040491
0.05449215 -0.060698979 1.069
0.086273633 -0.05562244 1.054798
-0.02654836 -0.097021267 1.0361151
-0.05269343 -0.1616822 1.110068
-0.1164917 -0.2663945 1.16409
-0.076146252 -0.18270759 1.146299
-0.09801352 -0.18469881 1.147773
0.14622959 -0.03428762 1.011127
0.2335667 -0.074295484 0.98311502
0.200242 -0.1956255 0.99375868
0.03461365 -0.1877293 0.95471388
0.03457867 -0.320225 1.132018
-0.044466961 -0.29854009 1.157046
-0.01818553 -0.1041627 0.99359161
-0.1270141 -0.2292058 1.14149
0.186674 -0.070281573 0.97561687
-0.25904581 -0.092172943 0.79821843
0.1735616 -0.32722521 1.0589859
-0.051861111 -0.1201938 1.063134
0.01184979 -0.16263349 0.94311088
0.087992229 -0.2422218 1.086818
0.03950661 -0.19772729 1.075773
-0.047099888 -0.1040385 1.058359
-0.1187477 -0.33784431 1.17272
-0.053091168 -0.18047351 1.140818
-0.079725496 -0.1817686 1.144765
-0.039374989 -0.2198617 1.136032
-0.02623326 -0.116786 0.99800807
-0.028203189 -0.13084009 1.039215
-0.098783851 -0.1011137 1.137701
-0.1115426 -0.073312208 1.121873
0.1758329 -0.12938391 0.96636641
0.066229761 -0.16953219 0.9303844
0.05098911 -0.27397531 1.109665
0.1075748 -0.32362041 1.088001
0.2048597 -0.33713549 1.038123
0.1650563 -0.1935977 1.0007451
0.180785 -0.3192403 1.0548739
0.1374494 -0.32982779 1.078054
0.073170573 -0.28866571 1.0930001
-0.0087025166 -0.2024643 1.110347
-0.06423974 -0.1943426 1.140337
0.189386 -0.1998657 1.024652
-0.0220592 -0.1023962 0.99473089
0.1223871 -0.1085039 0.94905251
0.27134901 -0.2395674 0.99324173
0.2838659 -0.1958385 0.97228211
0.174061 -0.19857 1.01923
0.00047327581 -0.058337931 1.087552
-0.1150839 -0.2322581 1.155429
0.1631685 -0.1230398 0.97439861
0.1737107 -0.049592901 1.011688
0.1695005 -0.18401401 0.97959667
0.1786724 -0.113345 0.97052091
0.2619608 -0.14769299 0.96807772
0.3082259 -0.34789461 0.97987282
0.29214039 -0.2614269 0.97435772
0.1259826 -0.2527217 0.75960261
0.27939251 -0.2203628 0.91881698
0.1953586 -0.1952548 0.86368269
0.27334151 -0.2389296 0.92231989
0.08465451 -0.1052676 0.69634598
0.098626971 -0.13417991 0.6728521
0.21404301 -0.04983972 0.85969663
0.26023579 -0.117091 0.95103627
0.13843679 -0.1907279 0.83729482
0.017881211 -0.1059718 0.71144938
0.094367743 -0.1843179 0.69803959
0.023528039 -0.1820533 0.72092241
0.2510173 -0.2005 0.8775056
0.29890391 -0.31033519 0.93720019
0.20325769 -0.057401311 0.83682662
0.25463551 -0.080719218 0.94953251
0.025045929 -0.1259847 0.70285439
0.1547191 -0.197147 0.83864218
0.30201301 -0.30004391 0.97572172
0.25213411 -0.2024726 0.88249499
0.080325603 -0.1368759 0.70877528
0.1963176 -0.053351481 0.83170968
0.1966646 -0.26173991 0.74657512
0.082820714 -0.142572 0.70663267
0.16541269 -0.25898191 0.67149907
0.259096 -0.29717579 0.85331303
0.069638848 -0.1073786 0.73463613
0.1209936 -0.047627129 0.6642431
0.2599673 -0.2751174 0.85523862
0.21791831 -0.32437509 0.76225638
0.1965026 -0.34571201 0.71359921
0.2709544 -0.24637 0.89368552
0.073399313 -0.1275623 0.72589391
0.18766581 -0.038326729 0.81125742
0.2503036 -0.33030859 0.82440192
0.27222881 -0.2342066 0.90307963
0.2766422 -0.3164551 0.88133597
0.27134919 -0.25052181 0.89258713
0.15774301 -0.19075949 0.81426078
0.1758329 -0.046894159 0.78215092
0.1923594 -0.34000871 0.6938957
0.1502783 -0.19877709 0.66138172
0.1433858 -0.041902911 0.72853899
0.1594384 -0.31993061 0.64253777
0.1950793 -0.2630007 0.72735101
0.2580725 -0.3123495 0.84406263
0.1595241 -0.30232731 0.63225472
0.25906229 -0.2442119 0.87665522
0.065284252 -0.18349659 0.75793117
0.25327399 -0.2006249 0.87756717
0.15943301 -0.054912269 0.75126493
0.25657371 -0.30018851 0.84194797
0.2262665 -0.33682069 0.76185799
0.1925033 -0.34139669 0.68820947
0.2419011 -0.2006534 0.84628832
0.2274643 -0.034301009 0.89391428
0.063374043 -0.14404149 0.82879722
0.28811961 -0.32863641 0.9947232
0.30366239 -0.3132166 0.94854712
0.2059219 -0.31007871 0.73129839
0.1433259 -0.2396192 0.63219577
0.26448739 -0.30552319 0.85567492
0.1744452 -0.2373374 0.6850121
0.25039011 -0.32630271 0.82673073
0.2589556 -0.1193615 0.94820273
0.2143973 -0.068623044 0.90594971
0.2444341 -0.2072542 0.85227931
0.1871337 -0.2652823 0.71837813
0.26127729 -0.27819699 0.85259742
0.2396255 -0.2329447 0.8365593
0.2167072 -0.31678981 0.75789428
0.060367581 -0.1628235 0.79061627
0.1363955 -0.045006309 0.69702291
0.26252639 -0.30786839 1.003045
0.1774333 -0.0386215 0.80268598
0.18327489 -0.1179682 0.89248103
0.29220179 -0.274553 0.94017673
0.26409951 -0.097812027 0.93582791
0.06090492 -0.1209139 0.82852072
0.2167618 -0.048179708 0.86159867
0.16437051 -0.22158089 0.68826759
0.070231557 -0.12914731 0.73269868
0.1345267 -0.05547617 0.69563198
0.28384081 -0.30902049 0.89127421
0.20084541 -0.30251169 0.73245567
0.1547378 -0.046795469 0.74654257
0.250622 -0.061034329 0.95478678
0.28865689 -0.26405779 0.93199682
0.28399 -0.2493847 0.92958063
0.065920293 -0.18678349 0.82784522
0.2356471 -0.2255519 0.8304249
0.24898949 -0.21316829 0.85795528
0.15345261 -0.30921859 0.62023991
0.1861994 -0.055382449 0.80517763
0.2458428 -0.2024264 0.86008561
0.25905579 -0.18917321 0.92115569
0.1971488 -0.34778401 0.71633053
0.25241899 -0.078855813 0.93529218
0.29181921 -0.2482383 0.97167277
0.189063 -0.2497784 0.73216671
0.26818711 -0.1571338 0.95284158
0.2390438 -0.033152848 0.95582032
0.169723 -0.058004241 0.77641201
0.24933089 -0.2121869 0.84998828
0.2365956 -0.2272187 0.83735728
0.1591792 -0.3188979 0.63489449
0.23300029 -0.23050439 0.81857347
0.29017359 -0.28037429 0.9312067
0.1814232 -0.1050646 0.89430213
0.1604753 -0.26503211 0.65454262
0.25829169 -0.3182956 0.84562367
0.1885277 -0.2441297 0.73271447
0.24084701 -0.29029679 0.81492049
0.1434925 -0.25556731 0.61596161
0.29792431 -0.3345896 0.92910433
0.28066891 -0.28676879 0.99547547
0.2316581 -0.29714069 0.80863023
0.2569145 -0.1409291 0.93321627
0.2420325 -0.03624367 0.95425057
0.24596819 -0.056618601 0.95506632
-0.070914693 -0.2043107 1.138598
0.30399701 -0.31127921 0.95264208
0.1152979 -0.1614698 0.87189072
0.1747608 -0.2238839 0.69478178
0.28850189 -0.2397684 0.94516599
0.2161686 -0.097380698 0.91055602
0.27758911 -0.19503351 0.96490288
0.1557243 -0.3035191 0.63499862
0.2448173 -0.05623842 0.93226951
0.22663561 -0.082817636 0.91102892
0.2482561 -0.12515169 0.91575688
0.1396216 -0.2218245 0.627312
0.1102414 -0.18800759 0.8342402
0.22400001 -0.1783504 0.90799481
0.1034746 -0.13886569 0.64924788
0.2404978 -0.090420023 0.91910028
0.081529923 -0.1826058 0.73284519
0.124404 -0.25515589 0.58414119
0.26969111 -0.18013521 0.93992239
0.067635119 -0.1826404 0.81724292
0.2695125 -0.163192 0.9569813
0.1115604 -0.15376849 0.61558032
0.16295069 -0.21557949 0.68675071
0.19348881 -0.1248131 0.89763308
0.2344144 -0.055195492 0.89884079
0.2539202 -0.084234022 0.95107323
0.1830065 -0.1286891 0.89012909
0.29783291 -0.29645541 0.97769988
0.27704409 -0.23644421 0.91355979
0.1100743 -0.040629901 0.6487878
0.1094633 -0.13063981 0.63675362
0.111479 -0.13809779 0.63854557
0.1122786 -0.16600759 0.87001997
0.21892241 -0.28251621 0.78174782
0.1994421 -0.21844479 0.76440829
0.1377119 -0.24796019 0.61971772
0.1502682 -0.2397965 0.6452266
0.2181842 -0.2367259 0.78521681
0.2199121 -0.31175381 0.77643323
0.177187 -0.24208669 0.70374382
0.18178479 -0.25966841 0.70561439
0.2154077 -0.2413813 0.78579938
0.19860519 -0.21156441 0.76472878
0.1832567 -0.25551429 0.70517981
0.25989419 -0.2431979 0.87122673
0.1951372 -0.2193114 0.75686961
0.1635063 -0.31084329 0.63864732
0.1154125 -0.27754891 0.56646383
0.1787453 -0.2471855 0.71456552
0.2188921 -0.2363231 0.80041349
0.1924189 -0.30856711 0.70523739
0.1709117 -0.23912729 0.69085002
0.029080391 -0.3055934 1.110142
0.086783588 -0.1179318 0.70599002
0.1238866 -0.040913928 0.68308038
0.2201868 -0.2267192 0.77364987
0.1952882 -0.33060279 0.70691413
0.25717321 -0.29885659 0.84387898
0.156875 -0.26283699 0.65033698
0.195623 -0.2059081 0.77959877
0.1503119 -0.1991948 0.66247922
0.19428539 -0.3118782 0.70719898
0.29232621 -0.2402824 0.92798752
0.22548001 -0.29458499 0.7909711
0.2171351 -0.29900819 0.78087068
0.22550739 -0.054670561 0.88870209
0.1564071 -0.076535143 0.88354552
0.1907085 -0.1414222 0.89008152
0.12675451 -0.1920387 0.78137672
0.2200385 -0.2294942 0.80045289
0.15876541 -0.32404 0.62137252
0.2923499 -0.25736761 0.94696683
0.145987 -0.2093803 0.69720048
0.1969028 -0.1130673 0.90104359
0.20636781 -0.2158014 0.77844661
0.1586035 -0.32850039 0.62212479
0.2165889 -0.33991441 0.7493844
0.26472881 -0.18114769 0.93375498
0.1170005 -0.28980511 0.56871122
0.1058817 -0.02973477 0.66087162
0.1330757 -0.29221031 0.59721237
0.1535807 -0.34585491 0.60774869
0.2955372 -0.22043639 0.96190119
0.24175911 -0.1969053 0.89544499
0.13567591 -0.26354751 0.59215242
0.2165979 -0.28058881 0.76983672
0.26270989 -0.1899123 0.97318172
0.1079159 -0.1280302 0.6202594
0.1510935 -0.2348358 0.65536457
0.2710495 -0.18221679 0.96195078
-0.070373647 -0.18166751 1.127619
0.20460171 -0.1416719 0.9036628
0.2328463 -0.073342383 0.96697128
0.016827291 -0.290555 1.118222
0.28864411 -0.269288 0.98769963
0.1053116 -0.14788669 0.60304958
0.07680279 -0.031037619 0.61680251
0.13450751 -0.34230319 0.57514238
0.18385489 -0.1098483 0.89198738
0.090457439 -0.17371079 0.71228993
0.1773584 -0.29622599 0.69576597
0.2979455 -0.34098089 0.99371409
0.1830468 -0.2285077 1.027872
0.1097178 -0.2404971 0.5699451
0.1685244 -0.337946 0.64330482
0.16002481 -0.27333161 0.6499086
0.2029237 -0.1221302 0.90587318
0.1273177 -0.2604959 0.58730429
0.1967158 -0.054140039 0.82798612
0.2766473 -0.31544361 0.88152963
0.27629399 -0.3130177 0.883834
0.2768234 -0.30519149 0.88613391
0.16845611 -0.05580001 0.76646101
0.141441 -0.055246931 0.70569062
0.1586758 -0.054450419 0.73410958
0.07992661 -0.1063725 0.7092582
0.1148587 -0.1774243 0.6137585
0.060383439 -0.13467979 0.81927848
0.28469181 -0.2130903 0.9515624
0.1631013 -0.042597599 0.76299608
0.14215089 -0.039492711 0.70727313
0.085201681 -0.3437064 0.66196728
0.1199585 -0.38085401 0.75736189
0.17304219 -0.3546128 0.84932888
0.091554403 -0.34456721 0.67025381
0.094868839 -0.34552521 0.67719817
0.03892285 -0.27389759 0.59051418
0.044882361 -0.2862018 0.57222402
0.060463551 -0.33054119 0.60742408
0.036277171 -0.382799 0.54095399
-0.1113439 -0.38400501 0.54440242
-0.1167521 -0.3859424 0.56359982
-0.08526355 -0.38699991 0.53828818
0.081551127 -0.29828519 0.65271521
0.018915299 -0.28281149 0.58451557
0.071553111 -0.38944611 0.54263812
0.047847629 -0.38911811 0.5421266
0.066934533 -0.036828261 0.74125183
0.082338333 -0.33734491 0.60012478
0.1273042 -0.28130081 0.74295402
0.090431392 -0.2672936 0.70760739
0.040299062 -0.037340611 0.68893892
0.048769891 -0.043040842 0.70336318
0.1728093 -0.2729964 0.89323437
0.04727662 -0.2654295 0.60734558
0.1322532 -0.047194298 0.89931577
0.1106397 -0.037567139 0.84837681
0.064233303 -0.04889233 0.73439461
0.01978719 -0.12780289 0.71660882
0.1601312 -0.32102701 0.86750251
0.1141852 -0.34250489 0.74124187
0.1396357 -0.34421399 0.80800283
0.14289629 -0.37475729 0.77205497
0.043559249 -0.28078511 0.61016488
0.1119578 -0.2984423 0.74416941
0.1377078 -0.33960459 0.79221958
0.04094154 -0.3774322 0.59532428
-0.027133049 -0.1188779 0.85424632
0.1693836 -0.29075271 0.89211887
0.01131636 -0.097547524 0.73037308
0.092487283 -0.1946528 0.87221253
0.05948871 -0.1856605 0.87077862
0.097913563 -0.04152428 0.81559223
0.1129926 -0.188759 0.89919788
0.088240623 -0.24842671 0.70858163
0.01459485 -0.1076842 0.72444421
0.1036245 -0.032894179 0.83679622
0.14798529 -0.2256532 0.85786152
0.1172912 -0.25218821 0.78521663
0.1650089 -0.19550011 0.91443068
-0.01690739 -0.17344031 0.84700137
0.1580773 -0.1993732 0.89781749
0.082511961 -0.3145884 0.66181582
0.01125032 -0.1364373 0.73983407
0.15373109 -0.28404421 0.85347879
0.04209429 -0.1306843 0.66740799
0.098930784 -0.29007509 0.72626579
0.1579278 -0.25004759 0.87302428
0.13802791 -0.36128959 0.76695639
0.1696917 -0.2387369 0.91525239
0.2018012 -0.38752869 0.89665312
0.1985238 -0.38845751 0.89938748
0.20167699 -0.37816489 0.91692621
0.2019154 -0.36860001 0.93305939
0.1947031 -0.21422151 0.9544968
0.18693981 -0.24633729 0.92778492
0.085288703 -0.29672849 0.69230688
0.01538253 -0.171078 0.74992013
0.1623466 -0.35850349 0.82606298
0.1832076 -0.24135929 0.93006629
0.079400003 -0.34000221 0.6467551
0.072060823 -0.33246729 0.6486854
0.1595168 -0.03796329 0.98710072
-0.01200783 -0.18358339 0.79192549
0.063495398 -0.18618339 0.87055802
0.062151551 -0.2382016 0.65390068
0.055794179 -0.33571929 0.61329359
0.081761658 -0.28682661 0.67652899
0.13673 -0.025636939 0.99364418
0.1447899 -0.03310762 0.92750382
0.094227433 -0.03391007 0.82133633
0.1657728 -0.080262199 0.98326141
0.1612004 -0.059200581 0.98794729
-0.091850221 -0.1898061 1.101873
-0.1485649 -0.1908171 1.11843
0.093895853 -0.052984569 0.81172389
0.019686401 -0.19310731 1.066861
0.13271379 -0.27646539 0.81585252
0.1949165 -0.282359 0.96661502
0.1080776 -0.25811899 0.76195413
0.2123902 -0.30641979 0.98738903
0.1221015 -0.2513015 0.77297539
0.1330023 -0.30411011 0.8107186
0.2111166 -0.34521461 1.014775
0.1723336 -0.1450651 1.001892
0.1800978 -0.238115 0.95795703
0.1967537 -0.26106051 0.9680056
0.1227679 -0.29821339 0.81337237
0.077256858 -0.1940262 1.044426
0.06877172 -0.2340821 0.67918772
0.081411958 -0.2160396 0.71873498
0.1043164 -0.32973781 0.74271351
0.1014744 -0.2509833 0.74090451
0.1057383 -0.38131431 0.69236678
0.1064789 -0.39596909 0.69758493
0.1103571 -0.33050019 0.72952592
0.15196911 -0.2166903 0.87958938
0.1340408 -0.044961382 0.87449318
0.1080541 -0.38436919 0.67841369
0.1614214 -0.19590589 0.91028267
0.1498381 -0.045896661 1.000165
0.1041824 -0.04746886 1.024057
0.1797123 -0.153119 0.9876374
0.1290091 -0.039495751 1.010437
-0.1372077 -0.17872681 1.08429
-0.1251926 -0.17665941 1.064279
-0.05395931 -0.1910634 1.100192
0.1998779 -0.25916839 1.0090671
0.2039616 -0.29114491 1.012816
0.21391089 -0.34997499 1.015406
0.1078988 -0.1904154 1.026364
0.1634865 -0.24449719 0.90870142
0.197127 -0.2126254 0.95967102
0.20619421 -0.2963827 1.011127
0.2157647 -0.35613161 1.016122
0.1082455 -0.1883992 0.88015002
0.2007329 -0.25067869 1.013
0.050762299 -0.1934464 1.029055
0.085903473 -0.19468699 1.047485
0.1350569 -0.37573549 1.067294
0.089283653 -0.231943 1.05672
-0.050995231 -0.26442039 1.123421
0.151026 -0.1921673 0.88049698
0.2013142 -0.37641841 1.0351681
0.058292571 -0.25528651 1.0743411
0.096836448 -0.23691189 0.73694289
0.077668607 -0.31206501 0.67218721
0.094933331 -0.23188829 0.72468591
0.1854551 -0.2266081 0.94100142
0.1296095 -0.35297811 1.0644619
0.093196392 -0.1913828 1.0344
0.19320489 -0.19112191 0.9995622
0.1905465 -0.1907195 0.9989413
0.033427421 -0.021001959 0.83767462
0.081529558 -0.26478949 0.68773699
0.2033425 -0.3066572 0.97381222
0.1993902 -0.2352933 0.98018229
0.14482 -0.3808631 1.0676121
0.1547218 -0.231509 1.037317
0.1077078 -0.2444444 0.76950282
0.21659949 -0.34481511 0.99753708
0.088101149 -0.1913804 0.85304552
0.08748734 -0.188567 0.88655418
0.1979313 -0.24566939 1.00722
0.1602526 -0.2983174 1.041098
0.2098961 -0.32082459 0.97667372
0.1719701 -0.30853331 1.03723
0.087923408 -0.36768121 0.6936667
0.0083947182 -0.129676 0.73993379
0.053893391 -0.042327121 1.039829
0.1474231 -0.38852549 1.068369
-0.05773538 -0.23272561 1.120699
0.01260489 -0.02073827 0.89436018
0.04916906 -0.2471998 1.077809
0.1950877 -0.25782281 1.004351
0.096812733 -0.041152399 0.82807922
-0.1228628 -0.023905501 0.72324258
0.1109223 -0.2132628 0.79298198
0.133297 -0.2301705 0.82431138
0.097916603 -0.29874009 0.72143328
0.1494623 -0.24866261 1.032118
0.04992706 -0.2952089 1.081751
0.01209784 -0.19894961 1.076586
0.14220241 -0.35836509 0.82118058
0.1651395 -0.1685317 1.008132
0.083793461 -0.04528667 0.79271078
-0.0079461336 -0.1211375 0.7551173
0.1785243 -0.2184986 1.019959
0.007028461 -0.18496411 0.72663867
0.090968549 -0.1887311 1.0200779
-0.0038306119 -0.1198552 0.76163739
0.044618551 -0.0441815 0.71602619
0.1383927 -0.21306559 0.84949642
0.1700598 -0.1423085 0.99895042
-0.01551062 -0.02037531 0.97674
0.1139621 -0.044914261 1.0223891
0.1710922 -0.35773501 0.8631261
0.1566963 -0.1674004 1.021103
0.1937459 -0.3305144 0.95370531
0.085371263 -0.33631721 1.074448
0.070060067 -0.039890289 0.76319242
0.1807694 -0.30750191 0.91912562
0.037967499 -0.25238109 1.084097
0.070995927 -0.2473391 0.67260611
0.2088878 -0.37880179 0.92790461
0.1458251 -0.180369 1.0238431
0.035126511 -0.3061904 0.60775548
0.1491649 -0.2079052 0.87019521
0.1491591 -0.2918812 1.046888
-0.04490811 -0.3044236 1.122785
0.1080582 -0.28848389 1.05948
0.0054160361 -0.1744426 0.76517957
0.1051471 -0.3291119 1.066395
-0.059460279 -0.1921196 1.0163
0.1323172 -0.053034171 0.90656358
-0.13039491 -0.074199602 1.091421
0.16985971 -0.35900581 0.89313579
0.1009225 -0.22057711 1.051453
0.003764868 -0.12510499 0.62711531
0.1372958 -0.3256568 0.80244923
0.1216524 -0.3193174 0.78951818
0.1406806 -0.2253101 0.84802872
0.1430016 -0.01763691 0.95875973
0.03244406 -0.094143547 0.66019028
-0.1551725 -0.1011018 1.077389
0.056328058 -0.19480971 1.015852
0.068611443 -0.35204169 1.083581
0.1143834 -0.39077231 1.071629
0.089233823 -0.22152141 1.056265
0.1545105 -0.2867294 1.038191
0.097946636 -0.27624479 0.75307357
0.1463286 -0.2386702 1.036338
0.08511132 -0.28327879 1.066798
0.1558128 -0.057970211 0.96474558
0.081762247 -0.23352709 1.065263
-0.076988757 -0.3897832 0.28029951
0.1500638 -0.27031609 0.85207063
0.087474883 -0.05863215 0.82354128
0.19340371 -0.32442221 0.94674712
-0.059080541 -0.047826659 1.091975
0.16375729 -0.23731139 1.026469
0.2088124 -0.2938453 0.97675228
0.190862 -0.33057189 0.92775321
-0.2140768 -0.024759039 0.85615069
