# .PCD v0.7 - Point Cloud Data file format
VERSION 0.7
FIELDS x y z normal_x normal_y normal_z curvature
SIZE 4 4 4 4 4 4 4
TYPE F F F F F F F
COUNT 1 1 1 1 1 1 1
WIDTH 609
HEIGHT 1
VIEWPOINT 0 0 0 1 0 0 0
POINTS 609
DATA ascii
-0.22419205 -0.40984759 0.96147829 -0.17985339 -0.98366761 0.0071230195 0.0020509316
-0.1912249 -0.41513428 0.96732646 -0.1725648 -0.98499823 8.9155299e-05 0.00063396204
-0.18825671 -0.41537395 0.96643192 -0.18980637 -0.98166716 0.017409774 0.00041669988
-0.073913932 -0.41597101 0.96387202 9.2896815e-05 -1 2.5196552e-05 0
-0.067671478 -0.41597101 0.96322179 0.000205088 -0.99999976 -0.00060099829 0.00023034241
0.15576972 -0.41503996 0.96477628 0.045351654 -0.99861616 -0.026627095 0.00032526613
0.16738512 -0.4146437 0.96532214 0.043884598 -0.99903429 -0.0021398847 0.0005841002
0.17677294 -0.41421947 0.96492589 0.06453681 -0.99785149 0.011282993 0.00082123233
0.18299994 -0.41415963 0.96907812 0.069486067 -0.99740428 0.018878818 0.00076751952
0.19580236 -0.41341969 0.96734804 0.059178028 -0.99784124 0.028473532 0.00062910729
0.23290603 -0.41361991 0.96696061 -0.039128024 -0.99542618 0.087153383 0.00070349476
0.26196218 -0.41589689 0.96807891 0.065311044 -0.98991936 0.12567458 0.0086633516
0.27416185 -0.41348001 0.96335202 0.17854114 -0.97130758 0.15711366 0.0092592798
0.2947025 -0.41050798 0.96158975 0.24393706 -0.92931402 0.27725452 0.0055776807
-0.25721416 -0.39334747 0.97044158 nan nan nan nan
-0.22285232 -0.40656278 0.97083229 -0.089790933 -0.99527371 0.03698257 0.0097360415
-0.21645109 -0.40966195 0.97145611 -0.18996994 -0.97911793 0.072384648 0.0055942079
-0.01551062 -0.41597101 0.97674 0 -1 0 0
0.1208716 -0.41597101 0.97369921 0.0090279989 -0.9999575 -0.0018584207 8.1405247e-05
0.16625723 -0.41435486 0.9770537 0.058801536 -0.99826926 -0.00090211898 0.00060248468
0.17544396 -0.41444919 0.97191387 0.066898264 -0.99774516 0.0054185977 0.00079279544
0.186703 -0.41382185 0.97363383 0.076819181 -0.99665511 0.027881345 0.00081076054
0.19609666 -0.41248697 0.97608548 0.05543581 -0.99767518 0.039637543 0.00038688714
0.20728089 -0.4122667 0.97565752 0.018863514 -0.99755722 0.067259081 0.00057558576
0.22892642 -0.41234383 0.97541004 -0.010049667 -0.99621803 0.086305223 0.00015610977
0.2627095 -0.41599002 0.97318131 0.16897441 -0.98055208 0.099825948 0.014037856
0.28175884 -0.40781492 0.97087985 0.29136547 -0.92201108 0.25495416 0.0049424372
0.29054576 -0.40468207 0.9726699 0.28619903 -0.91667986 0.27890506 0.0048466474
0.29951778 -0.40026295 0.97452158 0.35156029 -0.87172455 0.34132329 0.0045782826
-0.22182779 -0.40907156 0.98336935 -0.29268312 -0.94488376 0.14673561 0.0077692429
-0.21119386 -0.41155851 0.98701072 -0.20374559 -0.97586501 0.078582749 0.0045677018
-0.18392316 -0.41509366 0.98475409 -0.17434314 -0.98232108 0.068188727 0.0024525926
-0.1211253 -0.41597101 0.98292518 nan nan nan nan
-0.090796411 -0.41597101 0.98712242 -0.0019086539 -0.99999756 -0.0011138424 0
-0.079871707 -0.41597101 0.98148477 -0.00026015381 -0.99999994 -0.00020786628 3.6551719e-05
0.15951437 -0.41578653 0.98709846 0.041201219 -0.9991073 0.0093266005 0.00060976134
0.16348369 -0.41575161 0.98560166 0.044788737 -0.9989776 0.0061417245 0.00063364755
0.17951234 -0.4134441 0.98763812 0.094526052 -0.99469692 0.04053326 0.001066546
0.1991808 -0.41177276 0.98003447 0.050648738 -0.99728268 0.05349759 0.00049267843
0.21506767 -0.4115459 0.98746049 0.010341448 -0.9929896 0.11774818 0.0023385619
0.23466411 -0.41147542 0.98569602 -0.020332284 -0.99751318 0.067483179 0.00067058916
0.24533564 -0.41230625 0.98619074 -0.030179411 -0.99319458 0.11248919 0.0086860452
0.2847552 -0.40347013 0.98498476 0.42120257 -0.89591891 0.1411304 0.031728849
-0.20729755 -0.40729833 0.99268955 -0.21182472 -0.97489846 0.06858059 0.0066950754
-0.19977053 -0.41191486 0.99696565 -0.17424347 -0.98462248 0.012556762 0.0063882573
-0.17522213 -0.41479468 0.99941999 -0.15040928 -0.98844087 0.019017762 0.0010834225
-0.1696354 -0.41597101 0.99593472 -0.086629458 -0.99608475 0.017616404 0.00069120841
-0.093495786 -0.41597101 0.99514878 -0.00038134365 -1 -0.000186223 0
-0.024146229 -0.41597101 0.99636948 -0.0023892464 -0.99999636 -0.0012119963 0
-0.01818553 -0.41597101 0.99359161 -0.0023892464 -0.99999636 -0.0012119963 0
0.13673 -0.41597101 0.99364418 -0.0012143477 -0.99922544 0.03933423 0.00013872152
0.16981003 -0.41515446 0.99628353 0.086558349 -0.99450797 0.058835331 0.001264674
0.17001294 -0.41480291 0.99890661 0.086498939 -0.99445462 0.059815802 0.0012810642
0.19314161 -0.41232941 0.99779296 0.11767999 -0.98490924 0.12690632 0.0025352752
0.19990045 -0.41140944 0.99361789 0.056088973 -0.9915691 0.11681055 0.0034753785
0.21638885 -0.41113493 0.99719286 0.011170204 -0.99077177 0.13507976 0.0027546166
0.22945404 -0.41139022 0.99181825 -0.031665117 -0.99286509 0.11496242 0.002147929
0.23753898 -0.41063845 0.99469745 -0.067469381 -0.97727311 0.20096044 0.012099484
0.26970339 -0.40740636 0.99177676 0.31905806 -0.94368035 0.087574303 0.027639549
0.2808969 -0.40351361 0.99253637 0.43035719 -0.90129668 0.049566988 0.021380961
0.29100707 -0.39870754 0.98921394 0.3652685 -0.89872342 0.24264205 0.0013936524
-0.20865427 -0.40673912 1.0024853 -0.22832003 -0.97280282 0.039047103 0.012987289
-0.2007497 -0.4109391 1.0030826 -0.17512043 -0.98426008 0.023767937 0.0055280835
-0.19876559 -0.41138956 1.0036235 -0.18200175 -0.98320252 0.013715101 0.0052120285
-0.1727784 -0.41597101 1.002305 -0.14125584 -0.9898718 0.014164854 0.0010042629
-0.1698571 -0.41597101 1.006459 -0.13490437 -0.99047005 0.027748594 0.0013257047
-0.098233491 -0.41597101 1.002771 0.00031029337 -0.99999988 0.00036324977 3.7126181e-05
0.14596672 -0.41486898 1.0031432 0.029628297 -0.99720472 0.068592094 0.00034750905
0.16503851 -0.41448358 1.0043632 0.096841805 -0.99160218 0.085713558 0.0019505312
0.17219548 -0.41378745 1.0017459 0.09798678 -0.99167997 0.08348345 0.0017548662
0.19696848 -0.41044736 1.0062113 0.15361676 -0.94834006 0.27758434 0.0084193237
0.25392529 -0.41170165 1.0040809 -0.11632146 -0.96535158 0.23359287 0.031882901
0.26255628 -0.41322812 1.0028709 0.018368866 -0.98100871 0.1930919 0.053132094
0.2722798 -0.41597101 1.007051 -0.026910439 -0.85178941 -0.52319288 0.010337927
-0.20163071 -0.41034874 1.0112567 -0.1732243 -0.98471272 -0.018281404 0.0071943025
-0.19044635 -0.4139483 1.017128 -0.16449319 -0.98627442 -0.014310642 0.0025279454
-0.18067777 -0.4144572 1.0154713 -0.12950195 -0.99157155 0.003878915 0.0014432954
-0.171857 -0.41597101 1.010334 -0.11167056 -0.99330318 0.029638816 0.0013433682
-0.1645101 -0.41597101 1.016297 -0.10136278 -0.9943763 0.030682117 0.001272484
-0.1235597 -0.41597101 1.014197 -0.00033635576 -0.99999899 -0.0013713025 0.00018543536
-0.098309398 -0.41597101 1.015805 -5.8184727e-05 -1 -3.7863192e-05 5.0656126e-05
-0.059460279 -0.41597101 1.0163 nan nan nan nan
0.056328058 -0.41597101 1.015852 -0.044215254 -0.99884963 -0.018559143 4.1050331e-05
0.12900558 -0.41500694 1.010389 0.041415278 -0.99734545 0.05988957 0.0003153334
0.13531826 -0.41418159 1.0197139 0.045657713 -0.99648899 0.070179395 0.00012766839
0.14621042 -0.41476172 1.0110512 0.046934128 -0.99596149 0.076536492 0.00078279403
0.17475009 -0.4110119 1.0161599 0.19833322 -0.96259171 0.18461083 0.0060836175
0.20211555 -0.40758792 1.0104164 0.21892303 -0.90862775 0.35562378 0.0064252256
0.21203656 -0.40594754 1.013015 0.18274462 -0.91331714 0.36394531 0.0068117678
-0.19705731 -0.41340247 1.0203657 -0.18006486 -0.9836145 -0.0088987211 0.0036021112
-0.1869784 -0.41218984 1.0290539 -0.12269247 -0.99244469 0.00031941407 0.0014071943
-0.17614302 -0.41487688 1.0278012 -0.080258362 -0.99647379 0.024466123 0.00094775506
-0.1179817 -0.41597101 1.023501 7.3018397e-05 -1 4.2005329e-05 4.1760835e-05
-0.1041801 -0.41597101 1.020864 -0.00017041741 -0.99999994 -0.00021274171 4.6073117e-05
0.0061199218 -0.41597101 1.0230941 nan nan nan nan
0.050762299 -0.41597101 1.029055 -0.024425862 -0.99960405 0.013966597 0.00033701365
0.09102577 -0.4168435 1.0201399 0.04999036 -0.99704373 0.058350522 0.0010912635
0.1060314 -0.41584623 1.0251974 0.080507874 -0.9925074 0.091910899 0.00054901803
0.11392447 -0.41509971 1.0223131 0.075309746 -0.99516809 0.06299796 0.00037346891
0.14721556 -0.4135859 1.0225284 0.078002796 -0.99388576 0.078145795 0.0015652924
0.15666127 -0.41406968 1.0209682 0.068095073 -0.99351358 0.091070376 0.0012717791
0.16357055 -0.41267782 1.0261664 0.14114851 -0.98326582 0.11517556 0.0023878294
0.18595394 -0.40814725 1.0246922 0.25792703 -0.93781626 0.232324 0.01104515
0.19731012 -0.40652618 1.0181661 0.27368316 -0.90773141 0.31799564 0.011169122
0.24480455 -0.40082017 1.0192437 -0.24071229 -0.87339509 0.4233658 0.00092657097
-0.19270217 -0.41381252 1.0343448 -0.094097517 -0.99556231 -0.0010949873 0.0014941879
-0.17987908 -0.41430968 1.0393702 -0.057348445 -0.99815482 0.019952375 0.00054449239
-0.16555873 -0.41488519 1.0375204 -0.057290688 -0.99785978 0.031519469 0.00089265843
-0.027961582 -0.41597101 1.037462 -0.00016355183 -0.99999994 -0.00026342805 0
0.053905126 -0.41630825 1.0398513 -0.0029825382 -0.99969769 0.024405768 0.00027430017
0.093299091 -0.41696262 1.0345505 0.07014595 -0.99245924 0.1005195 0.0010538494
0.13458577 -0.41307652 1.0381788 0.038846854 -0.99499667 0.092046566 0.00019426031
0.14779544 -0.41280752 1.0338904 0.083348311 -0.99213946 0.093339637 0.0016318045
0.15449849 -0.41222975 1.0373546 0.13227405 -0.98403126 0.11910477 0.0027151585
0.17414817 -0.40862602 1.033754 0.25313357 -0.9573738 0.13913539 0.0066048531
0.18528067 -0.40479007 1.037169 0.34130928 -0.920573 0.18987703 0.0087422095
0.19310938 -0.40298912 1.0286617 0.32208157 -0.90174276 0.28831148 0.014283283
0.19837259 -0.40014899 1.0307074 0.50526947 -0.7345432 0.45293385 0.094284192
0.21296595 -0.39722481 1.0278517 0.42659718 -0.61510509 0.66306907 0.11925066
-0.18363479 -0.41400069 1.0414649 -0.059079576 -0.99813384 0.015441722 0.00053728535
-0.15144806 -0.41510054 1.046689 -0.036629412 -0.99916607 0.018041335 7.8253724e-05
-0.1355692 -0.41597101 1.041744 -0.02633157 -0.9996509 0.0021706668 0.00012885265
-0.11371794 -0.41597101 1.0441257 0 -1 0 0
0.01112211 -0.41597101 1.048154 0.025809349 -0.99966598 -0.0013712412 4.5736873e-05
0.077238306 -0.41569528 1.0443897 0.03993943 -0.99190885 0.12050536 0.0009327546
0.085827015 -0.4152751 1.0473417 0.051765632 -0.98665643 0.15436821 0.0019378338
0.096521772 -0.41574222 1.0403264 0.079293616 -0.98871952 0.12706766 0.0011635274
0.14896923 -0.41151536 1.0462841 0.11095052 -0.98494518 0.13256323 0.0021983564
0.15183967 -0.41154429 1.045168 0.13714309 -0.9786517 0.15307681 0.001870004
0.16013609 -0.41154346 1.040592 0.1699926 -0.97525471 0.14135332 0.0021831265
0.18488689 -0.4048582 1.0441607 0.35138649 -0.91651207 0.19113651 0.0078184307
0.19166166 -0.39900464 1.0330155 0.50526947 -0.7345432 0.45293385 0.094284192
0.19758442 -0.39684203 1.035096 0.6069386 -0.5273003 0.59462583 0.087347798
0.20877324 -0.3955116 1.0293882 0.61833888 -0.5563122 0.555134 0.10307878
-0.19087371 -0.41331473 1.0546718 -0.038322929 -0.99923319 0.0080211405 0.0012252339
-0.18548882 -0.41345391 1.0564908 -0.053073708 -0.9985134 0.01241713 0.0011251171
-0.17617317 -0.41416633 1.053176 -0.048516516 -0.99866271 0.017862244 0.00063165062
-0.14869013 -0.41509715 1.0546225 -0.041519083 -0.99901253 0.015821382 0.00012629064
-0.13976549 -0.41523984 1.0599838 -0.039754231 -0.99920297 0.0035950465 0.00042350098
-0.1197029 -0.41597101 1.059279 -0.029287426 -0.99957043 0.0011275921 0.00027338581
-0.047099888 -0.41597101 1.058359 0.00023127838 -0.99999994 0.00033359966 0
0.01212585 -0.41597101 1.057904 0.025655905 -0.99966794 -0.0024121415 0.00010881388
0.051077571 -0.41521472 1.0583282 0.014475387 -0.99914551 0.038714666 0.00016499702
0.088012025 -0.41345033 1.055436 0.046913266 -0.97798109 0.20335229 0.00062764861
0.091271371 -0.41431955 1.0508425 0.060846698 -0.98262191 0.17536215 0.0015302097
0.10418514 -0.41236389 1.0546824 0.088906899 -0.95995742 0.26566401 0.047176979
0.11538246 -0.41295409 1.050858 0.063117772 -0.96897995 0.23894364 0.045411814
0.13355565 -0.41160312 1.0551438 0.046619061 -0.98653561 0.15676154 0.00058979949
0.15178072 -0.41032195 1.0527149 0.14869054 -0.94926697 0.27709818 0.081300095
0.17216429 -0.40437108 1.0558344 0.20530832 -0.96463007 0.1653399 0.0021001443
0.17912832 -0.40475646 1.0522763 0.29662105 -0.94426912 0.14272979 0.0071551059
-0.18843912 -0.41328177 1.0600257 -0.094352178 -0.99390298 0.057048898 0.00027627771
-0.17468041 -0.41367823 1.0664607 -0.046909995 -0.99828446 0.035038657 0.00011895302
-0.13852641 -0.41531682 1.0678062 -0.032905582 -0.99943852 -0.0063085016 0.00039675974
-0.12749185 -0.41597101 1.0664074 -0.036616929 -0.99932337 -0.0034756064 0.00021854496
-0.051861111 -0.41597101 1.063134 0.00049957854 -0.99999964 0.00068547332 0
-0.04499108 -0.41597101 1.0636621 -0.0003313648 -0.99999887 0.0014548787 0.00044326464
-0.03210317 -0.41597101 1.065454 -0.00014091341 -1 0.00033673018 3.8694114e-05
0.019686401 -0.41597101 1.066861 0.032845974 -0.99944794 0.0050011138 0.00016388013
0.029984977 -0.41523853 1.0652832 0.031270068 -0.99943292 0.012491259 0.00021897172
0.054077242 -0.41478088 1.0655694 0.05712812 -0.99748111 0.042045597 0.00071054854
0.082970507 -0.41201529 1.065217 0.10258882 -0.98714966 0.12252005 0.0021972652
0.10650904 -0.41028488 1.0649469 0.05740473 -0.94009387 0.33604777 0.054241795
0.11222526 -0.41017368 1.0630462 0.038104922 -0.94560272 0.32308447 0.053642452
0.12931094 -0.41040182 1.0635393 -0.013443394 -0.96190763 0.27304375 0.057915695
0.13472225 -0.40964237 1.066228 0.22538957 -0.8997727 0.37364239 0.095564708
0.1456182 -0.4080832 1.0665171 0.29142922 -0.78669053 0.54423052 0.15767001
0.16468513 -0.40766639 1.0615636 0.19478031 -0.96551853 0.17272694 0.0019108028
-0.17610089 -0.41311422 1.0756165 -0.090229422 -0.99412495 0.059785701 0.00019804954
-0.15508285 -0.41439059 1.0773605 -0.070490457 -0.99745655 -0.010562477 0.0007238398
-0.14021464 -0.41520402 1.0738584 -0.044146586 -0.99901521 -0.0044342452 0.00042782389
-0.13038234 -0.41597101 1.0771074 -0.032535207 -0.99939102 -0.012607411 0.00031080539
-0.1238264 -0.41597101 1.079404 -0.021410955 -0.99967307 -0.013978247 0.00032278168
-0.1184531 -0.41597101 1.073954 -0.030366199 -0.99949628 -0.0092247296 0.0003792581
-0.04156509 -0.41597101 1.073236 1.777424e-05 -1 4.4907952e-07 0.00011392241
0.0029535589 -0.41597101 1.070576 0.012154538 -0.99992394 0.0021140762 0.00013137631
0.01209784 -0.41597101 1.076586 0.025293007 -0.99963808 0.0091645336 0.00025941542
0.039461035 -0.41475359 1.0757343 0.038129091 -0.99881947 0.030094303 0.00027521545
0.049102403 -0.41440946 1.0777435 0.042022742 -0.99818826 0.043061513 0.00025337058
0.058251083 -0.41443241 1.0742794 0.094410501 -0.9951455 0.027782809 0.0017774241
0.084461369 -0.40870178 1.0729187 0.15176699 -0.97514868 0.16140586 0.0036056465
0.098117925 -0.40986356 1.0710098 0.25005487 -0.9359228 0.24803433 0.073262341
0.11432462 -0.40791044 1.0703869 0.021982821 -0.93395734 0.35670775 0.086649895
0.13690363 -0.40698892 1.0761911 0.023351923 -0.9752425 0.21990187 0.0016873858
-0.20043638 -0.40956357 1.0869826 -0.11770745 -0.99034774 0.073187128 0.00018668376
-0.17273787 -0.41274264 1.0874876 -0.11956844 -0.99278712 0.0087789511 0.00095033704
-0.16605739 -0.41347072 1.0859112 -0.082825474 -0.9964897 -0.012174997 0.0012950986
-0.13661724 -0.41597101 1.0859035 -0.045175854 -0.99869806 -0.023689995 0.000670554
-0.0219515 -0.41597101 1.088412 0.0077033462 -0.99969119 0.023629066 0.00043138937
-0.01012462 -0.41597101 1.080716 -8.5032734e-06 -0.99999994 0.00034261297 4.6967216e-05
0.00047327581 -0.41597101 1.087552 0.016726673 -0.99889612 0.043893676 0.00043478367
0.017555529 -0.41597101 1.083285 0.032701146 -0.99906659 0.028225599 0.00013931851
0.037941828 -0.41489524 1.0840746 0.03802767 -0.99860513 0.036630385 0.00011615708
0.049852423 -0.41423768 1.0816802 0.044674791 -0.9982605 0.03847225 0.00019689329
0.064557895 -0.41386527 1.083523 0.10499159 -0.99374992 0.037918769 0.0015145035
0.083817787 -0.41031811 1.0863982 0.18510877 -0.98008716 0.071859784 0.0038458935
0.10562667 -0.40376458 1.0838645 0.46939993 -0.70552778 0.53093725 0.14021803
0.11048669 -0.40571451 1.0784019 0.079455368 -0.96442568 0.25213081 0.085913353
-0.17273302 -0.41257811 1.0960056 -0.12039966 -0.99271488 -0.0045948927 0.00079832296
-0.16692072 -0.41301268 1.0950329 -0.11432678 -0.99342501 -0.0060137566 0.00080084696
-0.1478202 -0.41597101 1.095083 -0.072728522 -0.99675101 -0.034611508 0.00067725562
-0.13039491 -0.41597101 1.091421 -0.029415661 -0.99928814 -0.02362068 0.00051012752
-0.1230564 -0.41597101 1.098379 -0.0063041374 -0.99997187 -0.0040758923 0.00014964503
-0.059080541 -0.41597101 1.091975 2.9899416e-05 -1 6.0694151e-06 4.251553e-05
-0.016395571 -0.41597101 1.093721 0.024448266 -0.99792856 0.059505112 0.00027255368
-0.0083564818 -0.41597101 1.0939209 0.012849359 -0.99885499 0.046082988 0.00037574602
0.043535817 -0.41398901 1.095498 0.051311422 -0.99790913 0.039301012 0.0002292166
0.072946176 -0.41209435 1.0927577 0.11717309 -0.99227852 0.040665258 0.0019936559
-0.15525959 -0.41597101 1.105917 -0.086831585 -0.99571484 -0.0318176 0.00069812965
-0.091850221 -0.41597101 1.101873 -0.00011803934 -0.99999988 -0.00041202837 0
-0.063284412 -0.41597101 1.1095905 2.1273861e-05 -1 -0.00018975268 0.00021648417
-0.05395931 -0.41597101 1.100192 -9.2272188e-05 -1 -0.00016794025 0.00016490115
-0.043779101 -0.41597101 1.102417 -0.00016779777 -0.99999994 -0.00038878899 0.00018479288
-0.039621711 -0.41597101 1.1018831 -0.00016779777 -0.99999994 -0.00038878899 0.00018479288
0.034660537 -0.41408154 1.1066618 0.062858164 -0.99802226 0.00060857099 0.0010867055
0.050844345 -0.41311479 1.1095673 0.050156891 -0.99874127 0.00052853185 0.0011325285
-0.1541338 -0.41597101 1.119233 -0.13277319 -0.99113202 -0.0053450246 0.0010251016
-0.1485649 -0.41597101 1.11843 -0.12310243 -0.99237132 -0.0067034308 0.0014698301
-0.064343087 -0.41597101 1.115988 -0.00041460988 -0.99999976 -0.00059143419 0.00024740127
-0.05269343 -0.41597101 1.110068 -1.5441128e-05 -1 -0.00018264282 0.00022729278
-0.0090442887 -0.41405082 1.1144751 -0.088552617 -0.97943002 0.18131524 0.0086625526
0.013841186 -0.41597101 1.1144359 -0.062375579 -0.99348497 0.095377326 0.010081097
0.028974717 -0.4138951 1.1101105 0.017638477 -0.9995482 0.024336856 0.0032779942
0.045883287 -0.41377574 1.1133049 0.039606944 -0.99787492 -0.051739413 0.0014639464
-0.1443731 -0.41597101 1.126161 0.0016154533 -0.99999744 -0.0015844601 0.00010806273
-0.1115426 -0.41597101 1.121873 0 -1 0 3.4359797e-05
-0.097038448 -0.41597101 1.126852 1.8500647e-05 -0.99999982 -0.00051747542 0.00011148884
-0.070373647 -0.41597101 1.127619 -5.51794e-05 -0.99999988 -0.00038601051 0.0001291462
-0.054365307 -0.41597101 1.1220601 0.030992955 -0.99939817 0.015577177 0.0011542736
-0.04490811 -0.41597101 1.122785 0.049235396 -0.99852836 0.022738157 0.0013733879
-0.012942779 -0.41330498 1.1291285 0.21252552 -0.91356176 0.34675327 0.013834056
-0.0049767485 -0.41326475 1.124957 0.14301103 -0.91664404 0.3732447 0.018871471
0.0072196894 -0.41206408 1.1283408 -0.066557325 -0.96642631 0.24817415 0.013323658
-0.1153351 -0.41597101 1.138 0.0076597827 -0.99182266 0.1273941 0.017479682
-0.098718733 -0.41597101 1.1368705 -0.00010711419 -0.99999976 -0.00069844379 0.0001788092
-0.070518523 -0.41597101 1.134901 0.017150771 -0.99909985 0.038798902 0.0021088684
-0.039374989 -0.41597101 1.136032 0.10680883 -0.98988646 0.093363546 0.0078204656
-0.0062327264 -0.40720406 1.134402 0.18272391 -0.90521133 0.38367236 0.014994448
0.03457867 -0.41597101 1.132018 -0.0053003123 -0.99973601 -0.022355577 0.0057498906
-0.124466 -0.41597101 1.1434164 -0.017244061 -0.99099869 0.13275637 0.014312523
-0.1190799 -0.41597101 1.148339 -0.098885253 -0.97220904 0.21220595 0.029409748
-0.1048088 -0.41597101 1.1464061 -0.057482451 -0.98086685 0.1859998 0.022746874
-0.093223117 -0.41597101 1.1466764 0.0027285751 -0.9954623 0.095117889 0.012675363
-0.077935874 -0.41597101 1.145532 0.059051152 -0.99314737 0.10085267 0.0069656372
-0.06423974 -0.41597101 1.140337 0.029845301 -0.993164 0.11284785 0.0047009927
-0.054614324 -0.41597101 1.1450464 0.035820074 -0.98716497 0.15563489 0.0041046254
-0.046680719 -0.41597101 1.145084 0.044738494 -0.99248177 0.11392293 0.0055619995
-0.034421362 -0.41293994 1.1425344 0.18231384 -0.97087663 0.15543553 0.009828222
-0.02772373 -0.41266438 1.1433116 0.19874258 -0.94310433 0.26656258 0.0084023736
-0.016260412 -0.40729275 1.1399752 0.21252552 -0.91356176 0.34675327 0.013834056
-0.0067117927 -0.40336618 1.141855 0.21128914 -0.91367513 0.34720972 0.017699799
-0.1150839 -0.41597101 1.155429 -0.093431868 -0.95553511 0.27968386 0.031273983
-0.053655121 -0.4116863 1.1529633 0.051571213 -0.97172827 0.23040098 0.0024604707
-0.04433031 -0.41104576 1.1544166 0.089839302 -0.95964348 0.26648325 0.0030498814
-0.11334048 -0.40760696 1.1626849 -0.2241209 -0.93512821 0.27441746 0.034210026
-0.10209196 -0.40828991 1.1665903 -0.092843331 -0.96638763 0.23973967 0.041863747
-0.096966803 -0.41597101 1.168147 -0.069537327 -0.97649068 0.2040357 0.036661536
-0.073255114 -0.41044322 1.1648246 0.070166215 -0.98654044 0.14769769 0.01783607
-0.11510597 -0.40336436 1.1711211 -0.40729734 -0.82975179 0.38160282 0.036959641
-0.093195863 -0.41597101 1.176282 -0.08799275 -0.98930782 0.11630698 0.050094683
-0.086292028 -0.41597101 1.1732301 0.10598429 -0.98932707 0.099996209 0.034528267
-0.077409968 -0.40943971 1.1695303 0.095053501 -0.9898591 0.1055643 0.02387601
-0.065513782 -0.40925401 1.1696497 0.17025167 -0.96320409 0.20797212 0.010336013
-0.065639786 -0.16205025 0.83316833 0.63885009 0.75868481 0.1275461 0.017462593
-0.16391143 -0.22226189 1.0672691 -0.90648401 0.22431286 0.35772976 0.013210468
-0.34929261 -0.20432046 0.85549784 nan nan nan nan
-0.2719658 -0.18737701 0.97790599 nan nan nan nan
0.031150358 -0.16749348 0.5672484 nan nan nan nan
-0.32796517 -0.26750207 0.6745975 nan nan nan nan
-0.31308129 -0.29111829 0.62289178 nan nan nan nan
-0.28572071 -0.38798901 0.85388172 -0.77277434 -0.57134384 0.27638057 0.12551124
-0.2462849 -0.35374627 0.93146193 -0.84789336 0.20862681 0.48739272 0.016101662
-0.21956176 -0.33757582 0.89676929 nan nan nan nan
-0.26525941 -0.28040388 0.70764756 -0.88671631 0.33892968 -0.31442145 1.2416119e-05
-0.21355779 -0.37975106 0.9105401 nan nan nan nan
-0.24480698 -0.25161281 0.70071959 nan nan nan nan
-0.30467179 -0.34581918 0.77916747 -0.96346098 -0.23228814 0.13336124 0.0014393545
-0.24601324 -0.2027358 0.89167744 -0.48150632 0.54499662 0.68638933 0.22432561
-0.38008431 -0.1524419 0.72289062 nan nan nan nan
-0.32385343 -0.14072312 0.80353522 nan nan nan nan
-0.3542062 -0.19850524 0.73249447 nan nan nan nan
-0.380909 -0.27191785 0.6734907 nan nan nan nan
0.10492515 -0.29576832 0.5982371 0.33163688 -0.6415711 -0.6916672 0.0075469385
-0.34319943 -0.30894479 0.72727799 nan nan nan nan
-0.0065026912 -0.062364958 0.58208871 nan nan nan nan
-0.10009541 -0.04810214 0.68110365 -0.18406679 0.88622731 -0.42511243 2.8140473e-06
-0.063443117 -0.05197148 0.66194767 nan nan nan nan
-0.35262316 -0.24636169 0.70553851 nan nan nan nan
-0.33067718 -0.26649633 0.73856473 nan nan nan nan
-0.30405539 -0.30126593 0.74548882 -0.85306168 0.47775263 -0.20985271 0.0078633977
-0.30420241 -0.30589089 0.78260064 -0.96819264 0.20242792 0.14705762 9.6109346e-05
-0.1974321 -0.1058072 0.99588645 nan nan nan nan
-0.31692848 -0.14981335 0.79745251 nan nan nan nan
-0.19742735 -0.18664518 0.90115583 nan nan nan nan
-0.34819332 -0.17697801 0.74495673 nan nan nan nan
-0.23482528 -0.22501764 0.88657254 -0.45527822 -0.3308441 0.82659787 0.043967891
-0.18056886 -0.34125948 0.87189639 nan nan nan nan
-0.36706892 -0.11404032 0.84611893 nan nan nan nan
-0.23123857 -0.14549142 0.74839115 nan nan nan nan
-0.25475425 -0.033598159 0.71873331 nan nan nan nan
-0.2897771 0.009561534 0.81772745 nan nan nan nan
-0.22501317 -0.15963842 0.74411404 nan nan nan nan
-0.21154766 -0.091665156 0.80896866 nan nan nan nan
-0.23213221 -0.2883935 0.69489706 -0.30709663 -0.07559263 -0.9486714 0.017261533
-0.22321475 -0.27289689 0.69213521 -0.30709663 -0.07559263 -0.9486714 0.017261533
-0.086468749 -0.14559039 0.83921081 0.30984908 0.77439725 -0.55163616 0.1263915
-0.074100122 -0.15023494 0.83963281 0.59119272 0.79339176 0.14498517 0.033864409
-0.10770779 -0.15542935 0.82048851 -0.67601925 0.46463001 0.57194144 0.0091277845
0.0083789797 -0.13474444 0.56701159 nan nan nan nan
0.013353489 -0.14803232 0.56265289 0.64799082 0.446201 -0.61726213 3.9910203e-05
-0.22704948 -0.28474832 0.69296104 -0.30709663 -0.07559263 -0.9486714 0.017261533
-0.12843774 -0.058589716 0.6813001 nan nan nan nan
0.04288318 -0.12509473 0.63600439 nan nan nan nan
-0.081341669 -0.3060807 0.64052206 -0.46612725 0.17668104 -0.86689633 9.2937385e-05
-0.023112003 -0.15830827 0.74856406 -0.54537791 -0.48173317 -0.68592715 0
0.025522012 -0.13020983 0.71247739 -0.89430827 -0.040126879 -0.44564852 0.1117883
0.023357162 -0.3230961 0.5902257 -0.36318427 0.22440681 -0.90428913 0.029697115
-0.013621237 -0.060622454 0.63741839 -0.48988524 0.85737062 -0.15788612 0.045782004
0.070907205 -0.20109642 0.59598774 0.10474246 0.17317532 -0.97930551 0.010906175
-0.12520152 -0.15957396 0.80558121 nan nan nan nan
-0.057353124 -0.28002185 0.63263071 -0.44229829 0.14178361 -0.88559002 0
-0.068969324 -0.29708439 0.63532817 -0.45530248 0.15065359 -0.87749821 1.5611242e-05
-0.17729571 -0.32817858 0.67935681 -0.29729992 -0.17053407 -0.93943107 0.0060915789
-0.047959857 -0.29693484 0.62497061 -0.44024312 0.160942 -0.88333666 0.00014832898
0.0021070759 -0.29516748 0.60396999 -0.41744989 0.048847258 -0.90738612 0.00012420246
-0.10052977 -0.32975522 0.64403886 -0.41971093 0.28057858 -0.86320233 3.2756543e-05
0.022952216 -0.34052357 0.59310406 -0.42759788 -0.12739441 -0.89494729 0.0011050191
0.03502465 -0.27166733 0.59275234 -0.12013412 0.11494582 -0.98608083 0.16914865
-0.22618592 -0.28889072 0.69647205 -0.30709663 -0.07559263 -0.9486714 0.017261533
-0.11685799 -0.2843399 0.66188282 -0.4918645 0.14787665 -0.85802203 0
-0.069847278 -0.15304166 0.81605041 -0.90609831 0.069962837 -0.41724226 0.12818953
-0.00063935027 -0.26157215 0.60896212 nan nan nan nan
0.0079187276 -0.11784931 0.70929593 -0.45546365 0.10401022 -0.88415766 0.16100289
-0.21381509 -0.29163536 0.6898427 -0.39067906 -0.025530394 -0.92017287 0.0053086774
0.00151398 -0.1819208 0.66904962 nan nan nan nan
0.0015925224 -0.13785467 0.74066383 -0.89671648 0.061335061 -0.43833503 0.056942448
-0.0066790846 -0.051133581 0.66052181 0.21924721 0.87754154 -0.42644054 0
-0.27354807 -0.28106886 0.73015469 -0.76111805 0.36196512 -0.53821969 0.025156198
0.0050393874 -0.13652155 0.71248758 -0.78099591 -0.27151215 -0.56242907 0.094536319
-0.096867278 -0.14083254 0.82985264 -0.52818114 0.14509004 0.83664429 0.042426333
0.0050457651 -0.16300119 0.63394147 nan nan nan nan
-0.12378383 -0.32501715 0.65672946 -0.39238346 0.29407123 -0.87152582 0.00046654622
-0.053265594 -0.024681967 0.71157271 nan nan nan nan
-0.094960928 -0.27390406 0.6511308 -0.43264338 0.14367557 -0.89004332 0.001286447
0.066613391 -0.34477359 0.57466042 -0.22440335 -0.24267381 -0.94379693 0.015221613
0.0030280661 -0.081585139 0.65999758 0.021242302 -0.49710789 -0.86742866 0
-0.057186682 -0.13547091 0.79609811 0.26167017 0.63586438 0.72608894 8.6539367e-05
-0.079431273 -0.18754366 0.72626525 -0.215832 0.96076334 -0.1742138 0
-0.14127183 -0.19238932 0.73763025 0.36047035 0.91881734 -0.160735 7.2680223e-06
-0.13203134 -0.32835516 0.65854377 -0.39093733 0.30897522 -0.86700773 0.00060391135
-0.13707229 -0.31594715 0.66501427 -0.39288613 0.30997056 -0.86577058 0.00098421448
-0.14741114 -0.32899562 0.66499412 -0.39518306 0.32352328 -0.85974592 0.00086047046
-0.11841781 -0.32853317 0.65312356 -0.39269248 0.28039226 -0.87588406 0.00070496812
-0.044749219 -0.18364373 0.71489143 0.71841246 -0.34001365 -0.60685611 6.9821167e-06
-0.064547278 -0.19405051 0.69726694 -0.68144226 0.61094451 0.40296799 0
-0.087560333 -0.13650498 0.82748121 0.09262383 0.88948792 -0.4474729 0.11910441
0.072844617 -0.26826954 0.58311689 -0.18884957 0.05165014 -0.98064673 0.0054337149
-0.10813 -0.044366583 0.69237483 -0.27456456 0.80733198 -0.52233064 0.00062476366
0.075649992 -0.0342291 0.63252807 nan nan nan nan
-0.089826182 -0.045989297 0.68106401 -0.18406679 0.88622731 -0.42511243 2.8140473e-06
0.057255529 -0.33318815 0.57427591 -0.33163857 0.080656081 -0.93995237 0.019870756
-0.087910898 -0.29883143 0.64512575 -0.44421139 0.106996 -0.88951004 0.00012493484
-0.027057797 -0.33050323 0.60749477 nan nan nan nan
-0.005095446 -0.22005396 0.61868471 -0.44159889 0.011824558 -0.89713466 0.0071042906
0.02756013 -0.2250323 0.60090488 -0.5112403 0.027837768 -0.85898679 0.0043028132
0.045962643 -0.2181527 0.59246796 -0.20710579 0.07408905 -0.97550911 0.014839779
-0.055415083 -0.31946149 0.62426621 -0.43565246 0.16665322 -0.88455284 0.00020465103
0.0058211037 -0.32389316 0.60015517 -0.48989627 -0.0081949756 -0.87174219 0.0018720689
-0.12227481 -0.21154669 0.672557 -0.66708499 -0.74490643 -0.010589643 4.3104983e-06
0.040362641 -0.20905484 0.59306455 -0.3412424 0.15564634 -0.92699945 0.011875872
-0.077344522 -0.32727483 0.63370341 -0.42762828 0.24181768 -0.87100995 0.00036846107
0.068538509 -0.28247315 0.58362716 -0.088010632 -0.040685903 -0.99528825 0.0010957324
0.045142278 -0.33799326 0.58325744 -0.39705011 0.02306122 -0.91750723 0.01429984
0.082772203 -0.21324176 0.59582406 0.16385555 0.10916839 -0.98042524 0.013341572
-0.1182755 -0.21521996 0.67783409 -0.66708499 -0.74490643 -0.010589643 4.3104983e-06
0.027428787 -0.21343358 0.59958971 -0.46624628 0.10335676 -0.87859648 0.0053387899
-0.26780614 -0.18171567 0.75181884 -0.61485893 0.26700506 -0.74206257 0.0070968573
-0.26384184 -0.17791186 0.75450391 -0.62263978 0.36123687 -0.69413805 0.0038425175
-0.30791607 -0.34146267 0.75606608 -0.95099962 -0.28719068 0.1145478 0.0010869605
-0.30678606 -0.25339538 0.75389487 -0.87555361 0.17712848 -0.44947901 0.088557541
-0.12764195 -0.31345168 0.6616686 -0.3984513 0.2987659 -0.86716521 0.00069593202
-0.15479618 -0.31894094 0.6728465 -0.40179986 0.33173048 -0.85352904 6.3878579e-05
-0.26511532 -0.26651484 0.72243041 -0.88407201 0.34481177 -0.3154704 0
-0.23746252 -0.3386735 0.70326078 -0.4100022 0.21559602 -0.88623726 0
-0.13492943 -0.035804529 0.71648395 -0.081422836 0.76356286 -0.64057946 0.00098360202
-0.26432493 -0.31071094 0.71835065 -0.68633938 -0.2614426 -0.67866492 0.00080215174
-0.25192061 -0.32566091 0.7131139 -0.48244613 0.14537421 -0.86377788 0.0088642044
-0.059374865 -0.22439764 0.64420187 -0.41022342 0.49310577 -0.76717889 0.02901415
0.01728414 -0.22090304 0.60903716 -0.49903336 -0.063293003 -0.86426824 0.0033348843
0.073782027 -0.2182983 0.59068245 0.075662062 0.079552911 -0.99395502 0.01031383
-0.075143136 -0.2236837 0.65280086 -0.44929954 0.31741995 -0.8350895 0.0099859526
0.0080436021 -0.21960358 0.61280423 -0.48099783 0.016525429 -0.87656599 0.0050435145
-0.0024242306 -0.30425808 0.60546106 -0.42651188 0.064681217 -0.90216625 0
-0.064508617 -0.26819286 0.63776791 -0.46809679 0.17654216 -0.86586273 0.00025300382
-0.24484237 -0.036704548 0.74488872 0.39084786 0.90959853 0.1409556 0.021898178
0.055362217 -0.20921901 0.59013224 -0.041066393 0.098181158 -0.99432087 0.020745605
-0.054239288 -0.21538773 0.64853704 -0.36587325 0.56115019 -0.74246025 0.028433453
-0.051403962 -0.20526786 0.66078407 -0.38002509 0.72066224 -0.57985073 0.0089950506
-0.15868993 -0.18474236 0.7427513 0.36047035 0.91881734 -0.160735 7.2680223e-06
-0.012651503 -0.18985356 0.63221943 -0.69691783 0.24405384 -0.67434645 0
0.016365839 -0.17172506 0.63886595 nan nan nan nan
-0.025956193 -0.15920332 0.75143939 -0.54537791 -0.48173317 -0.68592715 0
-0.044576097 -0.30776137 0.62074637 -0.41806173 0.16127509 -0.89398813 0.00012175515
-0.10552862 -0.32679409 0.6474914 -0.40882954 0.28285599 -0.86766988 0.00047710026
-0.06119879 -0.32663208 0.62546897 -0.42876258 0.13783978 -0.89283979 0.0001498222
0.037068691 -0.28794226 0.58951575 -0.27325088 0.022735398 -0.96167403 0.083758168
-0.22188857 -0.15900274 0.77491742 nan nan nan nan
-0.14945574 -0.050710045 0.70228827 -0.25320259 0.78497899 -0.56541705 0.0001071892
-0.15001084 -0.31503823 0.67197412 -0.41015017 0.32757005 -0.85116082 0.00052301149
-0.19276939 -0.30892402 0.67977661 -0.48588389 -0.23944196 -0.84058571 0.0026763
-0.19015694 -0.32794541 0.68574423 -0.47974616 -0.25202042 -0.84043407 0.0042641009
-0.18109941 -0.34270191 0.68277377 -0.39944759 -0.10341431 -0.91090453 0.0004214496
-0.14396331 -0.31288171 0.6699183 -0.39930043 0.31864691 -0.85966468 0.00055071921
-0.30056494 -0.2701624 0.75362772 -0.91600913 0.035154864 -0.39961419 0.017952658
-0.30571678 -0.30211458 0.76646864 -0.93084025 0.36458787 0.024740661 0.028910236
-0.27836701 -0.29572287 0.72831941 -0.7051931 -0.14764975 -0.69347119 0.027041696
-0.0414491 -0.20759498 0.64490151 -0.48148915 0.73637921 -0.47530398 0.006809291
-0.28629935 -0.19211297 0.76554471 -0.78184336 0.45642957 -0.42472699 0.017578224
-0.24064131 -0.2302264 0.71744311 -0.56676894 0.50798482 -0.64863265 0.0055434396
-0.0079904152 -0.27435672 0.60918409 -0.24343921 0.12302005 -0.9620828 7.7160439e-05
-0.10489117 -0.19421625 0.72100866 nan nan nan nan
-0.10059466 -0.31264135 0.64921582 -0.43754503 0.22273672 -0.8711732 0.0003470853
-0.040141668 -0.25797397 0.62745053 -0.44147575 0.13124807 -0.88762212 0
-0.062580764 -0.21738982 0.65271759 -0.41022342 0.49310577 -0.76717889 0.02901415
0.018180087 -0.10688867 0.69929641 0.94568199 0.30694273 0.10710654 0.13183837
-0.0011258527 -0.059086002 0.64700371 0.93074065 0.30339077 0.20414674 0.13677455
-0.012996037 -0.20912284 0.62559938 -0.54658771 0.16358051 -0.82126933 0.011606243
-0.11981614 -0.31122917 0.65894735 -0.4093093 0.21627778 -0.88639152 0.001578378
-0.079881854 -0.20258462 0.68419951 nan nan nan nan
-0.041837484 -0.32482573 0.61702186 -0.44284219 0.17223756 -0.87990052 0.00020905033
-0.037566565 -0.20039417 0.6587218 -0.46427366 0.78839457 -0.40358898 0.0061361413
0.038572222 -0.23735502 0.59269518 -0.39275989 0.019025251 -0.9194442 0.0041335835
0.057821866 -0.19266614 0.59614474 0.012947215 0.14111768 -0.98990816 0.0090218913
-0.014242533 -0.2278908 0.62149596 -0.42507961 0.2216292 -0.87760341 4.9756381e-05
0.0029302235 -0.19670822 0.61362398 -0.54126 0.086091697 -0.83643639 0.014678863
-0.1410649 -0.18803783 0.76343149 0.35756961 0.92042011 -0.15802148 0
-0.13833795 -0.32899299 0.66075283 -0.39288613 0.30997056 -0.86577058 0.00098421448
-0.20022479 -0.32394278 0.68879086 -0.47974616 -0.25202042 -0.84043407 0.0042641009
-0.13333327 -0.20189629 0.68945724 0.076237693 0.83631241 -0.54292661 0.011167505
-0.20539322 -0.32509306 0.69380397 -0.4752765 -0.31743348 -0.82057798 0.0019408928
-0.24581616 -0.22159237 0.72347879 -0.55034029 0.23177031 -0.80212718 0.00020025042
-0.19546233 -0.19347863 0.73542726 nan nan nan nan
-0.1362986 -0.19602184 0.72867423 0.35096413 0.91923809 -0.1783969 0
-0.29519361 -0.29229981 0.7411049 -0.78898764 0.12354124 -0.60186046 0.040959809
-0.16281542 -0.20383576 0.68468875 nan nan nan nan
-0.068101779 -0.24043941 0.64666015 -0.44206712 0.22911817 -0.8672263 0.0052885269
-0.053799734 -0.14003776 0.79888326 0.26135921 0.63606584 0.72602451 4.812871e-05
-0.03892896 -0.16079801 0.78033572 nan nan nan nan
-0.25969464 -0.23301189 0.7297014 -0.55034029 0.23177031 -0.80212718 0.00020025042
-0.27360386 -0.31299809 0.72939938 -0.68645716 -0.26160473 -0.67848325 0.0008385884
0.068342604 -0.29137611 0.58481205 -0.088010632 -0.040685903 -0.99528825 0.0010957324
-0.078356005 -0.21809463 0.6584323 -0.37877187 0.51232624 -0.77074879 0.02354946
-0.078561038 -0.18258949 0.75250518 nan nan nan nan
-0.062925063 -0.22246131 0.64632463 -0.41022342 0.49310577 -0.76717889 0.02901415
0.046129838 -0.26325855 0.5904873 -0.28981265 0.0094082756 -0.95703721 0.087952465
0.036072299 -0.26145852 0.59230089 -0.10571031 0.034419108 -0.99380112 0.099866845
0.048023876 -0.31461141 0.58702123 0.10647182 0.19379614 -0.97524703 0.16103768
0.049986605 -0.2006993 0.59252554 -0.10781344 0.15013987 -0.98276871 0.019633779
-0.041562106 -0.26416978 0.62673104 -0.44147575 0.13124807 -0.88762212 0
-0.033924554 -0.17470051 0.72267258 nan nan nan nan
0.010913627 -0.21043497 0.6107657 -0.51761109 -0.063958392 -0.85322219 0.0027296129
-0.080547862 -0.26323387 0.64789265 -0.43205327 0.22594631 -0.87308544 0.00049124996
-0.092155479 -0.22312441 0.6648584 -0.5062055 0.45162803 -0.73470265 0
-0.14208683 -0.046261087 0.70521754 -0.25320259 0.78497899 -0.56541705 0.0001071892
-0.075231694 -0.16360953 0.79249769 nan nan nan nan
0.042158857 -0.31801644 0.58244962 -0.40636745 0.32653335 -0.85337067 0.037199996
0.057662766 -0.3219924 0.57583606 -0.33163857 0.080656081 -0.93995237 0.019870756
0.091392271 -0.33916569 0.56945735 -0.0073374384 -0.53285539 -0.84617448 0.011401856
0.048590705 -0.28075787 0.5861814 -0.25281835 0.085167244 -0.96375799 0.073905356
0.080191009 -0.19279279 0.59452182 0.020644231 0.12795249 -0.99156541 0.013716107
0.089730591 -0.34442422 0.57598877 -0.0073374384 -0.53285539 -0.84617448 0.011401856
0.082839482 -0.33451205 0.57004106 -0.13945687 -0.12654966 -0.98210847 0.015939279
-0.088199787 -0.34203079 0.63362336 -0.41398281 0.30906904 -0.85620946 0
-0.22445711 -0.043324944 0.72992361 0.31105146 0.73250526 0.60554361 0.049942456
0.00556023 -0.050360985 0.63124365 -0.36046562 0.87241238 0.33009261 1.3281729e-05
-0.055481583 -0.051307607 0.6615442 nan nan nan nan
-0.20856138 -0.041097011 0.7339803 -0.22480886 0.89291364 0.39008495 2.5201452e-05
-0.26017669 -0.34498858 0.71223956 -0.4100022 0.21559602 -0.88623726 0
-0.30261293 -0.25533342 0.76571631 -0.93518567 0.32767022 0.13438755 0.04055563
-0.12612407 -0.16089261 1.0569521 nan nan nan nan
-0.25985953 -0.11728881 0.79144895 -0.81099933 0.047285814 0.58313298 0.057100341
-0.27558118 -0.15333658 0.78745008 -0.97306472 0.22394508 0.054713935 0.016428133
-0.23558715 -0.30986476 0.93903607 -0.88153458 0.0058124117 0.47208369 0.0023766793
-0.27745375 -0.27236938 0.85455322 -0.85645372 0.21609296 0.46881855 0.003045256
-0.2249573 -0.34753117 0.95857096 -0.87805837 0.061689723 0.47456074 0.00015500122
-0.23479421 -0.32847777 0.9379046 -0.86383647 0.0321455 0.50274563 0.0085950978
-0.20913942 -0.32808599 1.0054624 -0.94776291 -0.0032119311 0.31895956 0.0026415144
-0.29591233 -0.29182228 0.81727648 -0.32534096 -0.18334916 0.92765099 0
-0.23045808 -0.05204358 0.8723194 -0.89115143 -0.23265193 0.38951549 0.011116805
-0.11238329 -0.11473773 1.0433131 -0.52681035 0.32131729 0.78690922 0
-0.13834034 -0.20718126 1.0902969 -0.88844252 0.41626891 0.19336499 0.027072558
-0.2384491 -0.05435437 0.85604995 -0.86067355 -0.20926508 0.46416509 0.0042992304
-0.2769478 -0.28055006 0.85611582 -0.88114548 0.14005904 0.45162606 0.0058277808
-0.30814809 -0.34585297 0.75550616 -0.95099962 -0.28719068 0.1145478 0.0010869605
-0.2072901 -0.30314252 1.0060365 -0.90324169 0.061431844 0.42471242 0.00022717517
-0.25040889 -0.33629131 0.91183263 -0.87073982 0.042498928 0.48990414 0.015794303
-0.25708771 -0.33732492 0.90162474 -0.8355931 -0.026776649 0.54869586 0
-0.08239463 -0.13916136 0.95229065 -0.6197651 -0.17794132 0.76434821 0.038964074
-0.26522088 -0.11968432 0.80519313 -0.84693229 -0.028537635 0.53093433 0.05775144
-0.090524942 -0.13931644 1.0174612 -0.9440695 0.23220888 -0.23411933 0.00047881555
-0.25025472 -0.23576643 0.87632495 -0.72051996 0.21460265 0.65939116 0.0023891511
-0.20483267 -0.20913026 0.93712908 -0.73039478 0.67450529 -0.10754595 0.026172817
-0.1740478 -0.24182251 1.0488008 -0.85277694 0.37264451 0.36593381 0.0074064899
-0.21912202 -0.30901694 0.98215252 -0.91370785 0.073076099 0.39974716 0.00051200943
-0.22657359 -0.1977659 0.87276357 -0.40691766 0.77995867 0.4754813 0.055486623
-0.24451759 -0.038261168 0.85470873 -0.83194286 0.06662114 0.55084723 0.017809277
-0.18576412 -0.29756495 1.0524427 -0.90246499 0.092990465 0.42060632 0.00021416401
-0.20657355 -0.29829222 1.0071065 -0.90298516 0.062415816 0.42511418 0
-0.23081224 -0.19533607 0.85957474 -0.47546348 0.71826679 0.50796396 0.0027413631
-0.25516927 -0.30918503 0.90593892 -0.88121766 0.040229842 0.47099575 0.0013992882
-0.30593348 -0.33309618 0.79967225 -0.96172577 -0.2337895 0.14291975 0.0030624683
-0.27372819 -0.1378234 0.789689 -0.94484794 0.13575275 0.2980496 0.035300516
-0.085647374 -0.13564837 0.99888271 -0.92389774 0.329429 -0.19465221 0.0013813217
-0.23021124 -0.2789835 0.94046324 -0.88857931 0.2031855 0.41126934 0.0044680098
-0.26974115 -0.13733922 0.79038572 -0.94484794 0.13575275 0.2980496 0.035300516
-0.19481142 -0.31868252 1.0383871 -0.91721082 0.15951875 0.36507255 0
-0.22296351 -0.3122336 0.97115612 -0.91832221 0.06480106 0.39049345 0.0008939667
-0.30423975 -0.2917898 0.76508653 -0.98598319 0.068265624 -0.15223972 0.019017287
-0.13645057 -0.19945931 1.0782487 -0.81783408 0.42556167 0.38735604 0.057997968
-0.23546229 -0.040454157 0.86208689 -0.83137685 0.066297233 0.55174017 0.024145886
-0.2671217 -0.25234747 0.86050129 -0.83772302 0.31050465 0.4492293 0.0028961557
-0.24851508 -0.19639719 0.84847349 -0.58263189 0.59431398 0.55437434 0.0058185263
-0.26724693 -0.1371837 0.79728204 -0.94384003 0.13811027 0.30015263 0.047536295
-0.19698617 -0.31794614 1.0332159 -0.92454064 0.053083539 0.37736818 0
-0.20773493 -0.25441882 0.98544019 nan nan nan nan
-0.25552633 -0.13624738 0.80987281 -0.72345322 0.046394184 0.68881273 0.057089355
-0.18684375 -0.20062608 0.93105811 -0.66522688 0.74654388 -0.012059289 0.055145323
-0.077195838 -0.12987053 0.95865375 0.4130387 0.84268039 -0.34538206 0.054831591
-0.17391212 -0.29212674 1.0766268 -0.9048267 0.088547193 0.41647086 0.00039012183
-0.23014253 -0.05293037 0.87216902 -0.89115143 -0.23265193 0.38951549 0.011116805
-0.26521963 -0.12574574 0.80375373 -0.81922334 -0.099126749 0.56484258 0.05949967
-0.099869393 -0.17116085 0.90016395 -0.41371432 0.77695918 0.47452599 0.034112725
-0.092688985 -0.13903457 1.0229617 -0.9440695 0.23220888 -0.23411933 0.00047881555
-0.23368482 -0.34553689 0.94218159 -0.84327871 0.098121122 0.52844423 0.016788559
-0.22114351 -0.21000145 0.8965078 -0.48310035 0.54480797 0.68541825 0.22442362
-0.1874702 -0.24617553 1.0292919 -0.79858667 0.41937721 0.43171987 0.00027689731
-0.24209991 -0.053878237 0.85115612 -0.85292733 -0.17766567 0.49086642 0.0034351929
-0.2339277 -0.18786007 0.85280794 -0.48297402 0.5387758 0.6902585 0.013018067
-0.23836155 -0.34614375 0.92977172 -0.87605387 0.11848893 0.46742904 0.014747068
-0.25413781 -0.091530196 0.81957501 -0.59450299 -0.55479598 0.58203757 0.072593451
-0.2601873 -0.23763943 0.8656956 -0.76050544 0.24945015 0.59950495 0.0060095936
-0.16569105 -0.059201866 1.0146812 -0.97743219 -0.15502726 0.14350227 0.047255889
-0.2087463 -0.34532791 0.99890149 -0.88051885 -0.15883569 0.44660699 0.0019314256
-0.080083743 -0.13635164 0.90493888 -0.78018123 0.13120367 0.6116395 0.027064478
-0.19258358 -0.24527018 1.0184469 -0.81499064 0.40777585 0.41171485 0
-0.28050962 -0.27209133 0.84690064 -0.85645372 0.21609296 0.46881855 0.003045256
-0.21054898 -0.11589959 0.83900011 -0.26382267 -0.13879168 0.95453358 0.010354818
-0.20718889 -0.11597238 0.84188282 -0.26382267 -0.13879168 0.95453358 0.010354818
-0.13120769 -0.18264927 1.0257642 -0.61445987 0.78742689 0.048969306 0
-0.2888931 -0.19442043 0.78378141 -0.91419023 0.26814026 -0.30390289 0.037067425
-0.20455436 -0.13706952 0.83837104 -0.23969762 0.038341366 0.97009021 0.031366862
-0.082449615 -0.13330065 0.9559719 0.4130387 0.84268039 -0.34538206 0.054831591
-0.16885588 -0.054573409 1.0218956 -0.97743219 -0.15502726 0.14350227 0.047255889
-0.17249867 -0.052858509 1.0021614 -0.92134804 0.10752766 0.37357143 0.071297988
-0.20939553 -0.18112326 0.86332977 -0.58402443 0.6421684 0.49652317 0.011052633
-0.21712139 -0.22882821 0.94726741 -0.0041258996 0.45972377 0.8880524 0.0001827869
-0.22384702 -0.057067573 0.89675689 -0.83735824 -0.49680191 0.22807685 0.011802522
-0.14250383 -0.19257544 1.0436474 -0.69266295 0.71634007 0.084112495 0.0016963171
-0.17528121 -0.27799273 1.0723102 -0.90524322 0.15951861 0.39381269 0.0011772079
-0.1650243 -0.21577527 1.028657 -0.46465045 0.87820971 0.1133476 0.0062220674
-0.18141052 -0.24524102 1.0401895 -0.80553645 0.41259867 0.42529204 0.00041915802
-0.24093927 -0.27188441 0.92171836 -0.8610875 0.14882059 0.4861899 0.0019678783
-0.25035354 -0.2748436 0.90603137 -0.87123376 0.1015854 0.48024163 0.00031492862
-0.26131463 -0.12639754 0.80581909 -0.72350556 0.046925589 0.68872172 0.057064846
-0.27272934 -0.22390321 0.83717674 -0.79634523 0.33487919 0.50367671 0.0020209455
-0.26765302 -0.093500815 0.80890709 -0.85859865 0.048196547 0.51037759 0.049020771
-0.21088064 -0.14391018 0.83705407 -0.16828856 0.067678288 0.98341173 0.021965684
-0.21529703 -0.15539807 0.84367299 -0.36954466 0.44324294 0.81668377 0.0026797445
-0.27274209 -0.14668018 0.77950847 -0.911659 0.38395742 -0.14647344 0.024934784
-0.27701101 -0.15960763 0.77346659 -0.66926086 0.42849314 -0.60702842 0.016614979
-0.30788207 -0.32425141 0.78531349 -0.99848258 -0.0056892801 0.054773044 0.005377837
-0.25666904 -0.053883057 0.82679719 -0.86116153 -0.13460688 0.4901855 0.0010289772
-0.29354635 -0.28423703 0.81950742 -0.91826308 0.17830306 0.35355473 0.00036836468
-0.25150886 -0.081132866 0.82546389 -0.60305005 -0.19010495 0.77471983 0.0005471796
-0.23750153 -0.060680266 0.85347068 -0.85423666 -0.21310939 0.47419834 0.0060810009
-0.30349109 -0.34146369 0.79379743 -0.96172577 -0.2337895 0.14291975 0.0030624683
-0.096632168 -0.1677669 0.9033345 -0.45082805 0.77152336 0.44889396 0.027620668
-0.17187829 -0.21542396 1.0129794 -0.46415102 0.87854493 0.11279469 0.0062378482
-0.21082798 -0.13594593 0.83538151 -0.23969762 0.038341366 0.97009021 0.031366862
-0.1561531 -0.12186645 0.85024768 -0.54833347 0.14808421 0.823044 0.037638325
-0.07745707 -0.12986943 0.95876169 0.4130387 0.84268039 -0.34538206 0.054831591
-0.2526902 -0.040044539 0.83411676 -0.86342752 -0.15553091 0.47989905 0.0040395516
-0.1232449 -0.05842673 1.0776287 -0.58441615 0.065828808 0.80877948 0.020445542
-0.17103133 -0.23867235 1.0536394 -0.86813706 0.35732496 0.34446612 0.008125551
-0.16879253 -0.21675144 1.0353215 -0.72352082 0.5633195 0.39898476 0.015538839
-0.23721641 -0.12736361 0.82316738 -0.57431358 -0.18246427 0.79804176 0.0013082591
-0.20604187 -0.21942858 0.94244635 -0.73039478 0.67450529 -0.10754595 0.026172817
-0.15192553 -0.25985572 1.1056758 -0.79484463 0.18273146 0.57864594 0.00049998693
-0.12344918 -0.052457597 1.0725359 -0.58441615 0.065828808 0.80877948 0.020445542
-0.1585069 -0.21053213 1.0363593 -0.70416051 0.6962232 0.13939619 0.0074067097
-0.26387471 -0.19597499 0.82694054 -0.74499905 0.44916621 0.49317947 0.0021293305
-0.22863606 -0.059752762 0.8681559 -0.89115143 -0.23265193 0.38951549 0.011116805
-0.14041579 -0.050575096 1.0687481 -0.62965333 -0.45971286 0.62625933 0.04615723
-0.27857336 -0.22711436 0.82940537 -0.83006841 0.38381764 0.40456203 0.00084378675
-0.15191928 -0.30751908 1.117813 nan nan nan nan
-0.19828597 -0.12820065 0.83870554 0.2245159 0.14588018 -0.96348929 0.0069033732
-0.1060978 -0.10042145 1.0075333 nan nan nan nan
-0.092180572 -0.15795483 0.98653519 nan nan nan nan
-0.25543427 -0.09026555 0.81899035 -0.59450299 -0.55479598 0.58203757 0.072593451
-0.22909726 -0.16286482 0.84096056 -0.37486503 0.47362623 0.79696572 0.00084304466
-0.29562631 -0.24799301 0.75498539 -0.87555361 0.17712848 -0.44947901 0.088557541
-0.29925156 -0.34664437 0.80739635 -0.92177707 -0.34551853 0.17590928 0.0005060251
-0.28958133 -0.32554162 0.83791465 -0.85468638 0.036162913 0.51788366 0
-0.2831558 -0.34666753 0.84992927 -0.91894114 -0.062303666 0.38944247 0.00017388035
-0.22875863 -0.051434528 0.87596929 -0.89115143 -0.23265193 0.38951549 0.011116805
-0.11018693 -0.11629438 1.0454527 -0.52681035 0.32131729 0.78690922 0
-0.20478317 -0.043832827 0.93474698 nan nan nan nan
-0.15680027 -0.27170524 1.1023953 -0.82220227 0.14698783 0.54988921 0.00093134405
-0.2121117 -0.25045708 0.96969861 nan nan nan nan
