# .PCD v0.7 - Point Cloud Data file format
VERSION 0.7
FIELDS x y z normal_x normal_y normal_z curvature
SIZE 4 4 4 4 4 4 4
TYPE F F F F F F F
COUNT 1 1 1 1 1 1 1
WIDTH 580
HEIGHT 1
VIEWPOINT 0 0 0 1 0 0 0
POINTS 580
DATA ascii
0.12217744 -0.24928284 0.45466208 0.47540987 0.11398059 -0.87234968 0.070156299
-0.10108987 -0.23887721 0.45866418 -0.88340122 -0.018421229 -0.46825534 0.036620297
-0.099341817 -0.23447137 0.45301336 -0.86674583 -0.02446289 -0.49814987 0.041891858
0.088605747 -0.23573482 0.45068255 0.2411553 0.060186606 -0.96861845 0.009653708
0.10955582 -0.23261911 0.45218149 0.44658393 0.066857412 -0.89224041 0.077174589
0.11895322 -0.2371943 0.45450523 0.48751038 0.070153601 -0.87029427 0.083676703
-0.10033906 -0.22491509 0.45792431 -0.89052778 -0.029228935 -0.45398897 0.037633352
-0.098913148 -0.22293103 0.4540078 -0.86016887 -0.014119363 -0.50981379 0.04813239
0.097485885 -0.22252311 0.45237473 0.33866122 0.067271456 -0.93850046 0.039927967
0.11924084 -0.22729382 0.45628285 0.52384442 0.082198344 -0.8478387 0.0811169
0.12241767 -0.2220583 0.45711648 0.55927449 0.065337986 -0.82640362 0.085475668
0.051278345 -0.21520935 0.45627752 0.1765956 0.032195881 -0.98375678 0.0033161743
0.11097858 -0.21495487 0.45487013 0.4523713 0.028152542 -0.89138526 0.059169997
0.12445623 -0.21201636 0.45735541 0.56613737 0.013973816 -0.82419246 0.071007729
0.10212903 -0.20518133 0.45334658 0.35597101 0.047265749 -0.93330091 0.036044467
0.11498116 -0.20861349 0.45522708 0.45559153 0.038064566 -0.88937479 0.05362685
-0.0974667 -0.19456737 0.4522613 -0.85757232 0.020799939 -0.51394272 0.055105738
0.09994892 -0.19151106 0.45290509 0.36917415 0.017130896 -0.92920232 0.03822083
0.11844885 -0.19583562 0.45377594 0.43305576 0.025744231 -0.90099943 0.046932094
-0.098646857 -0.18205555 0.45622882 -0.89032346 0.0046495083 -0.45530483 0.048701361
0.12775172 -0.18593693 0.45761314 0.53721678 0.033427857 -0.84278154 0.049023937
0.11752207 -0.171279 0.454741 0.45015821 -0.012434388 -0.89286226 0.055716932
0.11506628 -0.16573212 0.45446733 0.48696452 0.021800483 -0.87314969 0.058932524
0.10752334 -0.15755168 0.4513559 0.38804024 0.022554016 -0.92136639 0.034051821
-0.097682245 -0.14139861 0.4522213 -0.84907645 0.060601976 -0.52478248 0.062301267
0.094395615 -0.14296241 0.45246583 0.37915373 0.031150198 -0.92480928 0.03871968
0.10941619 -0.143316 0.45237184 0.45220932 0.045282558 -0.89076161 0.049965993
-0.098432288 -0.13537902 0.45468116 -0.86825645 0.052290149 -0.49335226 0.05897468
-0.013053207 -0.13754687 0.45113781 0.14208257 0.03675542 -0.98917222 0.009957538
0.10614881 -0.13518521 0.45155066 0.44262624 0.032309964 -0.89612395 0.050954826
0.11428858 -0.13512181 0.45244968 0.50108111 0.043996152 -0.8642813 0.058072463
0.12156722 -0.13645144 0.4549278 0.57865727 0.066821285 -0.81282878 0.061218899
0.11606744 -0.1208474 0.45309603 0.49696338 0.034187268 -0.86709785 0.064838775
-0.027450183 -0.1140672 0.45005384 -0.05235219 -0.028630618 -0.99821824 0.043795586
0.10950524 -0.11931263 0.45087513 0.42973822 0.016442547 -0.90280384 0.056612153
0.12329905 -0.11124631 0.45977956 0.65923476 0.078229785 -0.74785674 0.082033098
-0.09771397 -0.10319606 0.45483884 -0.84323847 0.035608698 -0.53635889 0.075976968
-0.031970795 -0.10803141 0.45360088 -0.078175917 -0.036467165 -0.99627244 0.054509256
0.09378659 -0.1007998 0.45037815 0.25597557 0.034589265 -0.96606421 0.019846154
0.11454104 -0.10863504 0.45360944 0.46242544 0.015445164 -0.88652366 0.062744871
-0.09668979 -0.099822521 0.4525108 -0.82678699 0.037526809 -0.56126195 0.080357581
0.078566208 -0.090491563 0.45416415 0.18313326 0.09053997 -0.97891003 0.016637033
0.098386064 -0.091761962 0.45200765 0.2594316 0.073408082 -0.96296757 0.024830371
0.1044433 -0.091646202 0.45435816 0.38554764 0.074361026 -0.91968662 0.054530475
-0.094284289 -0.087439865 0.45574877 -0.81711942 0.06498953 -0.57279336 0.09718205
0.011641221 -0.084140167 0.45562705 0.14505373 0.17038481 -0.97464275 0.037562728
0.0740453 -0.083096355 0.45251098 0.16881354 0.14097705 -0.97551394 0.026199382
0.086544231 -0.088870853 0.45218953 0.20627703 0.084456243 -0.97484201 0.021167196
0.10574443 -0.084256165 0.45394146 0.32604605 0.090754934 -0.94098753 0.042965066
0.11660973 -0.081154898 0.45650533 0.3380045 0.097062707 -0.93612599 0.043316294
0.12833659 -0.083318137 0.4592163 0.58545834 0.067356385 -0.80789953 0.082780704
0.074119464 -0.071611628 0.4517062 0.15160781 0.1896711 -0.97007215 0.036377545
0.080658972 -0.073594958 0.451662 0.17362942 0.17441113 -0.96924382 0.035189241
0.095682338 -0.074378803 0.45220453 0.23100728 0.15973261 -0.95975059 0.035412289
0.12659317 -0.072246589 0.4567765 0.3217642 0.11158826 -0.94022119 0.048801549
-0.097041763 -0.062058516 0.4537555 -0.80565453 0.26941621 -0.52757531 0.096400805
0.067769326 -0.069842994 0.45074809 0.15099417 0.19842014 -0.96841633 0.03660072
0.076377109 -0.064473279 0.45413393 0.15407541 0.21157379 -0.96514112 0.041821495
-0.095980749 -0.058020148 0.45007771 -0.78396469 0.29311642 -0.54724962 0.10170968
0.10972894 -0.058120683 0.4528625 0.23522092 0.20354483 -0.95038974 0.057490434
0.11888308 -0.058348976 0.45543572 0.23988056 0.19727823 -0.9505465 0.064905651
0.12857249 -0.057980012 0.45658055 0.24471192 0.16898292 -0.95475698 0.062877864
-0.094222188 -0.043313138 0.45684695 -0.74754345 0.4621236 -0.47709596 0.10447699
0.10541854 -0.048234656 0.45387271 0.18378936 0.21653879 -0.95881826 0.049228378
0.11867815 -0.043974459 0.45548469 0.17043491 0.28036064 -0.94464278 0.083361909
-0.09299463 -0.038064335 0.45936051 -0.723867 0.51483947 -0.45930049 0.10543051
-0.088696375 -0.031225396 0.45990339 -0.63407785 0.63352638 -0.44338438 0.1104499
0.093584448 -0.031107364 0.45895821 0.17749792 0.35600623 -0.91747159 0.084191591
0.1072263 -0.038719364 0.45812315 0.25610924 0.31629172 -0.91343719 0.084258556
0.12567832 -0.03359241 0.45736653 0.23795603 0.36981443 -0.89811701 0.1251815
-0.084641248 -0.026489273 0.45126137 -0.54442102 0.68400246 -0.4855372 0.10997418
-0.011467632 -0.02418975 0.45342141 0.080017053 0.6472711 -0.75804836 0.1080308
0.0010554119 -0.024508692 0.45974952 0.040764704 0.66121089 -0.7490918 0.10566314
0.018855518 -0.022090022 0.45521918 0.1558059 0.51769197 -0.84126073 0.06033219
0.068559267 -0.026875749 0.45582098 0.15737823 0.36092463 -0.91922009 0.058517791
0.07119865 -0.026099095 0.45987186 0.14208889 0.32977465 -0.93330568 0.064840212
0.080529086 -0.029162014 0.45326602 0.12349366 0.31816092 -0.93995899 0.067813702
0.12317686 -0.028742658 0.45939341 0.25213772 0.38741195 -0.88675737 0.13440742
-0.097864121 -0.33118314 0.46518236 -0.77585149 -0.4643898 -0.42707914 0.11052492
-0.02072409 -0.33240771 0.46513271 0.028840328 -0.87928295 -0.4754259 0.11061244
-0.019616431 -0.33240771 0.46631619 0.047497343 -0.89504534 -0.44343877 0.10985985
0.0010511605 -0.33219376 0.46007547 -0.0041141543 -0.80883181 -0.58802569 0.13106622
0.01975457 -0.33235255 0.46903193 0.44394046 -0.26720002 0.85529006 0.11806355
0.038792681 -0.33194408 0.4611508 0.10456291 -0.54411036 -0.83247256 0.10286728
0.066207469 -0.33237031 0.46912128 0.18848628 -0.65982074 -0.72739917 0.091068663
0.072390132 -0.3324284 0.46320593 0.20573471 -0.63733041 -0.74261922 0.095617041
0.080858953 -0.33249518 0.46600059 0.27284399 -0.654908 -0.70473516 0.10855584
0.093728408 -0.33262861 0.46565405 0.3076354 -0.68215585 -0.66334295 0.12870835
0.10359717 -0.33196411 0.46419343 0.38858044 -0.62265891 -0.67919153 0.13515241
0.11777654 -0.33041137 0.46214443 0.51427907 -0.53146672 -0.67309749 0.13679275
-0.10223176 -0.3298687 0.46364754 -0.84119558 -0.34672493 -0.41493592 0.095114142
0.12706397 -0.32914084 0.46387011 0.55341101 -0.53239703 -0.64053857 0.14561592
0.13218634 -0.326493 0.46359313 0.57217199 -0.51659328 -0.63698554 0.15275523
0.12833905 -0.29079705 0.46012884 0.62513942 -0.11768175 -0.77159041 0.11026195
-0.099170893 -0.28577796 0.46612316 -0.88000864 -0.081766047 -0.4678666 0.057422366
0.13146219 -0.28843507 0.46175918 0.66472787 -0.10129343 -0.74018687 0.10346953
-0.10003078 -0.27999663 0.46501794 -0.87451959 -0.048607577 -0.48254833 0.052744422
-0.099662349 -0.27669525 0.46093905 -0.86689669 -0.041512273 -0.49675637 0.051180352
0.13133295 -0.27663106 0.46060908 0.63379824 -0.055884317 -0.77147704 0.091424473
-0.1016287 -0.2611846 0.46142602 -0.87898952 -0.00012884634 -0.47684115 0.035502076
0.12423509 -0.26609522 0.46542877 0.61524326 0.026098166 -0.78790522 0.083492853
0.13586384 -0.26237866 0.46164781 0.70843142 0.073864989 -0.70190376 0.065284468
-0.10351966 -0.25551188 0.4690856 -0.89705026 -0.0057027321 -0.44189179 0.02851708
0.13571131 -0.2538875 0.46220335 0.79415166 0.14148968 -0.59101927 0.069057293
0.13568848 -0.24606563 0.46340966 0.79254943 0.11831227 -0.59822035 0.091791973
-0.1026466 -0.23081489 0.46620455 -0.89951187 -0.015330761 -0.43662736 0.035105459
0.13364016 -0.22882675 0.46498349 0.83396685 0.024336418 -0.55127764 0.09422671
-0.10108297 -0.21195979 0.46314564 -0.92129976 -0.009803853 -0.38872939 0.032503616
0.13578528 -0.21390963 0.4667612 0.89355302 0.00054015132 -0.44895738 0.078499556
-0.1015665 -0.2074506 0.46589059 -0.93363726 -0.010848459 -0.35805559 0.030138256
0.098997705 -0.2051398 0.46299979 0.40068528 0.032790054 -0.91562879 0.047509823
-0.10100424 -0.19446336 0.46489015 -0.9183957 0.034069706 -0.39419371 0.038939241
-0.10045601 -0.18766627 0.46326113 -0.91780037 0.04858163 -0.39405888 0.041815761
-0.099686146 -0.17294438 0.46553528 -0.92937875 0.023274131 -0.36839327 0.03548941
0.13264543 -0.17351139 0.46313933 0.77110088 0.076840654 -0.63205934 0.065896109
-0.10032119 -0.16925703 0.46942192 -0.93767625 0.025311748 -0.34658721 0.031714287
0.12691216 -0.1653422 0.46321878 0.71584642 0.047490913 -0.69664097 0.073242754
0.13087165 -0.16235916 0.46883136 0.8580398 0.082292899 -0.5069474 0.064354531
-0.099259272 -0.14385058 0.4609611 -0.92018914 0.050317019 -0.38822699 0.039789248
-0.10022119 -0.13037945 0.46434805 -0.91600299 0.047996521 -0.39829004 0.046294801
-0.099737071 -0.13459437 0.46222317 -0.91237617 0.052983679 -0.40590951 0.046040647
-0.10036764 -0.12494221 0.46862972 -0.92676455 0.043720029 -0.37308997 0.041742906
-0.099442944 -0.11246037 0.46186432 -0.89397466 0.034355748 -0.44679862 0.057684336
0.09407261 -0.1021354 0.4683865 0.51809996 0.078371748 -0.851722 0.08058285
0.12860914 -0.105661 0.46520627 0.72959328 0.079341322 -0.67926329 0.093369022
-0.097963706 -0.092407323 0.46819466 -0.89499676 0.017432742 -0.44573197 0.071433268
0.080902033 -0.092307068 0.46510062 0.25803459 0.08946275 -0.96198469 0.047565196
-0.094564855 -0.082544804 0.46826947 -0.86398196 0.11735974 -0.4896549 0.087956734
-0.095789224 -0.048533317 0.4606581 -0.78967345 0.40269801 -0.4628717 0.096113242
0.11223469 -0.032041699 0.46022043 0.29986125 0.34971848 -0.88756984 0.10473059
-0.021718062 -0.021929812 0.46491966 0.05944657 0.77229983 -0.63247067 0.096560195
0.019754531 -0.021307079 0.46903029 0.097243756 0.70672661 -0.70077187 0.077829078
0.038700365 -0.022900471 0.46118024 0.14232518 0.47322714 -0.86936736 0.06152954
0.067059323 -0.023146549 0.46846652 0.16012736 0.43330115 -0.88691002 0.073424138
0.074112915 -0.026053412 0.46177322 0.16646105 0.38646641 -0.90715736 0.082535118
0.080072746 -0.02615664 0.46595445 0.16646922 0.38651159 -0.90713662 0.082563236
0.094306812 -0.028061297 0.46624395 0.27279413 0.47903869 -0.83432925 0.10746042
0.10650878 -0.026896499 0.46693113 0.27658939 0.47476721 -0.83552045 0.12863049
0.1268228 -0.02003425 0.46587399 0.38806832 0.62715244 -0.6753391 0.1578003
-0.095589451 -0.3315562 0.47489959 -0.72858405 -0.5953474 -0.33871356 0.11726354
-0.087378494 -0.33172116 0.47604701 -0.6431331 -0.69250894 -0.32681972 0.1206378
-0.058478389 -0.33240771 0.47501519 -0.28894675 -0.90282196 -0.3184686 0.17134291
-0.040750951 -0.33240771 0.4738172 -0.11230349 -0.93265253 -0.34285155 0.088334776
-0.025686812 -0.33240771 0.47764593 0.025958411 -0.96697134 -0.25356007 0.078066513
-0.013351355 -0.33240771 0.47180814 0.01451051 -0.90695107 -0.42098609 0.1285128
0.0051725283 -0.33244282 0.47308093 -0.020773066 -0.87436515 -0.48482373 0.11910775
0.074405439 -0.33242884 0.47106004 0.22847551 -0.731022 -0.64296639 0.10319789
0.084507473 -0.33244631 0.47695282 0.25190109 -0.81001359 -0.52955061 0.11525503
0.094014414 -0.33227417 0.47913358 0.27463561 -0.81978893 -0.50251514 0.12654461
0.10379241 -0.33167434 0.47084624 0.39728346 -0.69089055 -0.60401672 0.13661872
0.12728937 -0.33053187 0.47457528 0.56523383 -0.62056214 -0.54351956 0.1577594
0.13392335 -0.33146974 0.47928166 0.61119217 -0.63868487 -0.46746749 0.16914012
0.14189911 -0.33242059 0.47838101 0.65508002 -0.6085574 -0.44780371 0.17506495
0.15823025 -0.33453804 0.47903925 0.49560851 -0.77181816 -0.39833266 0.1465264
-0.10166301 -0.32497454 0.478113 -0.86582339 -0.37720022 -0.32873991 0.090375885
-0.10371707 -0.31312352 0.47758269 -0.89620066 -0.24977595 -0.36665577 0.078077547
-0.10354435 -0.30565372 0.47686318 -0.90695024 -0.16049998 -0.38946253 0.065338008
-0.10490713 -0.25551668 0.4749749 -0.91736442 -0.0045993617 -0.39802191 0.024512431
-0.10461169 -0.23231763 0.47579378 -0.93403077 -0.0038238745 -0.35717219 0.023045406
-0.10419492 -0.21637334 0.47537285 -0.94062382 0.017049585 -0.33902234 0.02461919
-0.10416786 -0.2046345 0.47620928 -0.95062131 0.0055114618 -0.3103044 0.021512687
-0.10280574 -0.19342783 0.47233465 -0.94800204 0.027812304 -0.31704676 0.023697928
-0.10363138 -0.18707669 0.47699988 -0.95261294 0.044046815 -0.30097932 0.02195723
-0.10152743 -0.1752436 0.47271538 -0.93948674 0.036965571 -0.34058499 0.031986091
-0.10164983 -0.16721372 0.4763093 -0.94965881 0.034111109 -0.31142357 0.030922282
-0.10118224 -0.1555526 0.47377503 -0.94418228 0.039781626 -0.32701275 0.025035895
0.13178295 -0.15183988 0.47582722 0.90179461 0.12375925 -0.41406542 0.060377132
-0.10110999 -0.14659332 0.47280356 -0.94711316 0.044910699 -0.31774175 0.025637392
0.1319107 -0.14863023 0.47467929 0.89998913 0.10426702 -0.42325887 0.064456925
-0.10099201 -0.13709426 0.47086495 -0.93782103 0.050725181 -0.34339294 0.032220334
0.13343883 -0.13400853 0.47897428 0.93022877 0.14779644 -0.33590269 0.068788476
-0.10051689 -0.12086736 0.47001806 -0.93054181 0.03784525 -0.36422488 0.041496161
-0.10090353 -0.1115486 0.47873294 -0.94927353 0.023332333 -0.31358477 0.030472698
-0.099949427 -0.062260702 0.47638839 -0.90094393 0.24064392 -0.36109632 0.062857047
-0.099474244 -0.059267528 0.47516891 -0.88595033 0.27092895 -0.37641683 0.07719253
-0.093811415 -0.041032124 0.47175834 -0.75811863 0.54370034 -0.36006385 0.096847095
-0.093849376 -0.03900367 0.47677258 -0.76056314 0.54848516 -0.34743032 0.09424039
0.0044174744 -0.030089542 0.47603422 0.047404874 0.70172346 -0.71087062 0.10564847
-0.085934177 -0.027641963 0.47656196 -0.64855725 0.69957763 -0.29994088 0.097222507
-0.058592115 -0.022838736 0.47502643 -0.37948006 0.86315179 -0.33311239 0.090504095
-0.040780537 -0.021542847 0.47414571 -0.13840082 0.92377537 -0.35704944 0.082965985
-0.025437389 -0.02242339 0.47794691 0.052192569 0.90344381 -0.4255175 0.097821362
-0.014329668 -0.024666578 0.47109079 0.053593915 0.77658653 -0.62772697 0.11096235
0.074859709 -0.02478411 0.47089544 0.16709255 0.4139244 -0.89484453 0.087116405
0.084624887 -0.024784168 0.47699741 0.27068889 0.50184661 -0.8215093 0.10898931
0.093537711 -0.025130726 0.47864288 0.35732535 0.54678494 -0.75719541 0.1232871
0.10334626 -0.026309865 0.47143793 0.33205017 0.5161761 -0.78949672 0.13221991
-0.097627752 -0.33034128 0.4867911 -0.77636492 -0.57663018 -0.25447047 0.11115268
-0.087692872 -0.33171397 0.48392224 -0.65812784 -0.70772392 -0.25689438 0.11203004
-0.070134461 -0.33233738 0.48088378 -0.40131816 -0.89261067 -0.20540182 0.10307086
0.03542592 -0.33240771 0.48556381 0.00013777352 -0.91452062 -0.40453935 0.085158043
0.08077883 -0.33237928 0.48536175 0.17361411 -0.93491822 -0.30949339 0.090271935
0.095219292 -0.3323794 0.4854354 0.23197004 -0.91191608 -0.33852488 0.11073663
0.12918769 -0.3319065 0.48439369 0.57964146 -0.67099589 -0.46236393 0.17031069
0.13264437 -0.33191112 0.48511323 0.590756 -0.66748172 -0.45329419 0.17170368
0.14272361 -0.33275774 0.4807159 0.54078585 -0.76002282 -0.3604387 0.16638237
0.15818438 -0.3328678 0.4802888 0.49202859 -0.74506497 -0.45031777 0.14566064
-0.10266706 -0.32749659 0.48680964 -0.88251847 -0.38512534 -0.26988828 0.089586474
-0.10645871 -0.31416494 0.48492968 -0.92894173 -0.24755315 -0.27529028 0.068909608
-0.10780104 -0.30921835 0.48873082 -0.94747871 -0.20528777 -0.24523686 0.060705237
-0.1056672 -0.2988117 0.48319149 -0.93912691 -0.11459786 -0.32389489 0.050777294
-0.10349503 -0.27491745 0.48643941 -0.94667488 -0.041806299 -0.31946647 0.028793
-0.10675172 -0.26833403 0.48712683 -0.95159745 -0.029110599 -0.3059656 0.020082366
-0.10597853 -0.23895994 0.48246297 -0.94806844 0.0097419787 -0.31791729 0.017934466
-0.1054192 -0.21552479 0.48187962 -0.9606325 0.024399422 -0.27674896 0.012293296
-0.10575643 -0.20795612 0.482793 -0.96144646 0.016991036 -0.27446672 0.013987364
-0.10543019 -0.19884469 0.48103854 -0.96286821 0.010584948 -0.26976421 0.015602331
0.12914211 -0.1920215 0.48817009 0.98051959 0.056044236 -0.18825625 0.047083478
-0.10443847 -0.18289945 0.481419 -0.96038538 0.038700376 -0.27597505 0.017727911
0.13078097 -0.1820607 0.4816435 0.95287883 0.069738962 -0.2952261 0.055615649
-0.10340711 -0.17342608 0.48084277 -0.96349347 0.031770982 -0.26584014 0.016523151
-0.10353129 -0.16775283 0.48368376 -0.9652611 0.034014747 -0.25906375 0.015072276
0.13116583 -0.16678798 0.48401269 0.94204104 0.070769891 -0.32794866 0.058454689
-0.10315457 -0.15912516 0.48535827 -0.96867514 0.044713512 -0.24427254 0.013530266
0.13187937 -0.1562431 0.48906007 0.96396977 0.12684491 -0.23382185 0.049726699
0.13518074 -0.14735247 0.48995551 0.9669928 0.11207082 -0.2288342 0.05099408
-0.1010579 -0.11766875 0.48283404 -0.95791078 0.037866838 -0.28455785 0.021014797
-0.10111606 -0.063416108 0.48695457 -0.94766605 0.19744174 -0.25089002 0.043071982
-0.099700391 -0.056352489 0.48315203 -0.92734432 0.25995538 -0.26917604 0.055466797
-0.086381868 -0.025004948 0.48588195 -0.62893206 0.7475853 -0.21344978 0.088817321
-0.070112623 -0.023985464 0.48089248 -0.48208186 0.83595872 -0.26224056 0.09057612
0.03542592 -0.025366491 0.48556381 0.12152887 0.6025508 -0.78877324 0.077060021
0.080190644 -0.024388598 0.48510358 0.27739444 0.58100957 -0.76516688 0.11192875
-0.097571313 -0.33172151 0.49655515 -0.75286168 -0.63893151 -0.15800577 0.12255283
-0.088990569 -0.33268243 0.49887121 -0.59699374 -0.79526561 -0.10559873 0.11625949
-0.061284151 -0.33240771 0.49262819 -0.33965605 -0.93537027 -0.098570906 0.08440958
-0.025015801 -0.33240771 0.4942531 0.011733894 -0.99140406 -0.1303087 0.042994928
-0.01887252 -0.33240771 0.49261051 0.027400257 -0.98515671 -0.16945642 0.066839136
0.02385583 -0.33240771 0.49172771 -0.0046338863 -0.96395236 -0.26603448 0.071043544
0.032952931 -0.33240771 0.4902291 0.0047747386 -0.95526063 -0.29572681 0.064947098
0.062278271 -0.33240771 0.49819541 0.0570818 -0.98791736 -0.14408684 0.046198841
0.109088 -0.33240771 0.49244511 0.23868471 -0.92594022 -0.29268473 0.12021756
0.12796791 -0.33214357 0.49090421 0.47409207 -0.81964445 -0.32158932 0.15007879
0.13203482 -0.33210972 0.49137264 0.46404979 -0.8321237 -0.30369049 0.13591254
-0.10467422 -0.32747126 0.49607563 -0.91418755 -0.34177688 -0.21782935 0.085578904
-0.10954663 -0.31378177 0.49558446 -0.95075005 -0.22053884 -0.21780044 0.066538885
-0.11025605 -0.30962467 0.49665245 -0.95541275 -0.19931597 -0.21785255 0.063878953
-0.10901239 -0.29232174 0.49554479 -0.97225052 -0.091548778 -0.21528529 0.035314165
-0.10885775 -0.28381097 0.49657667 -0.96993601 -0.060029253 -0.23584011 0.022901112
-0.10775189 -0.2750411 0.49322945 -0.96509951 -0.038842648 -0.25898689 0.019579276
-0.10929255 -0.25866258 0.49632287 -0.97297275 -0.004085036 -0.23088387 0.0069211586
-0.10937512 -0.24722525 0.49792576 -0.97358245 0.030092519 -0.22634427 0.0051789605
-0.10894037 -0.23030922 0.49657574 -0.97466564 0.032040868 -0.22135997 0.0048711644
-0.10856307 -0.22106318 0.49634191 -0.97432613 0.03345564 -0.22264166 0.0058287606
-0.10839827 -0.21961629 0.49452013 -0.97181261 0.033495136 -0.23336315 0.0069841966
-0.10059226 -0.11357557 0.49484381 -0.97413987 0.037268549 -0.22285113 0.009019631
-0.10090606 -0.10180327 0.49046215 -0.96598148 0.036720052 -0.25599113 0.017211981
-0.10124099 -0.096902981 0.49602509 -0.97300363 0.049305405 -0.22546174 0.010760723
-0.10176197 -0.086718939 0.49589345 -0.97356534 0.069538042 -0.21756604 0.013196334
-0.10264903 -0.075307548 0.49887526 -0.97554684 0.11635172 -0.186469 0.019141085
-0.10204038 -0.06875401 0.49419799 -0.96775699 0.14057703 -0.2090085 0.030239845
-0.10192788 -0.053792931 0.4937433 -0.95106024 0.24016947 -0.19443004 0.039456967
-0.099902272 -0.04723591 0.4905425 -0.92562264 0.31185269 -0.21440764 0.053115692
-0.09092968 -0.023177056 0.49711305 -0.68794996 0.71434402 -0.12820913 0.091555983
-0.089455903 -0.020488728 0.49846405 -0.64404982 0.75783962 -0.10430186 0.088778093
-0.061424319 -0.024364129 0.49262118 -0.41138515 0.89027822 -0.19536389 0.081258483
-0.024639037 -0.022275653 0.49419481 -0.034710608 0.96781892 -0.24924231 0.054782286
-0.018230567 -0.027114652 0.49251956 0.065769792 0.93227488 -0.35572159 0.10019168
0.023848008 -0.026908366 0.49171945 0.083625607 0.82385027 -0.56060463 0.089442469
0.032952931 -0.025119331 0.4902291 0.080551676 0.76418597 -0.63994634 0.090632066
0.062278271 -0.02168344 0.49819541 0.18538676 0.77768534 -0.60069734 0.10271279
-0.088381022 -0.018559473 0.49935043 -0.61385137 0.78404909 -0.091943629 0.084000006
-0.10466199 -0.33117181 0.50624901 -0.84326351 -0.51249361 -0.16204001 0.11293272
-0.097973719 -0.33221856 0.50868767 -0.71903569 -0.67270279 -0.1745241 0.12557021
-0.05130145 -0.33240771 0.50416148 -0.21862172 -0.97551161 -0.024118723 0.054906946
-0.021405561 -0.33240771 0.50007892 0.001410853 -0.99945599 -0.032951251 0.0056729219
0.067612842 -0.33240771 0.50532568 0.026381403 -0.99498826 -0.09644895 0.036228646
0.079461217 -0.33240771 0.50565052 0.091874227 -0.98486614 -0.14696196 0.05540508
0.098948963 -0.33240771 0.50031608 0.1829938 -0.95732331 -0.22370817 0.09754777
0.12895261 -0.33209246 0.50655466 0.1674635 -0.98141414 -0.093713738 0.094046704
0.13428095 -0.33138615 0.50490957 0.16793546 -0.98129529 -0.094112746 0.10008469
-0.11111591 -0.32998201 0.50465381 -0.93204141 -0.29998243 -0.20324716 0.082163617
-0.11132011 -0.30398071 0.50256097 -0.9687224 -0.14866491 -0.19868484 0.052405912
-0.11165924 -0.28314239 0.50732744 -0.97426313 -0.076885402 -0.21189646 0.027207458
-0.1120182 -0.27676895 0.50910348 -0.97885686 -0.034238312 -0.20166083 0.013688662
-0.11082783 -0.26444072 0.50294966 -0.9750219 -0.015017871 -0.22160058 0.0085262666
-0.11184815 -0.25714904 0.50981975 -0.98209709 -0.0030115251 -0.18835159 0.0056719696
-0.11070327 -0.2278502 0.50259101 -0.98012841 0.037211407 -0.19484238 0.0030236959
-0.10493267 -0.2028752 0.50979757 -0.98473227 0.038416065 -0.16978404 0.0010058569
-0.099586718 -0.20043027 0.50379628 -0.98083204 0.043702725 -0.18989131 0.0018956362
-0.1020871 -0.18108222 0.50667667 -0.98354888 0.041642271 -0.17577693 0.0014300682
-0.10198644 -0.17650148 0.50567591 -0.98365194 0.040611017 -0.17544119 0.0014885198
-0.10535898 -0.16663821 0.50628573 -0.98483199 0.039529674 -0.16894794 0.0012019644
0.12961499 -0.16655309 0.50314617 0.98898363 0.069148928 -0.13088074 0.036244869
0.132689 -0.1274823 0.50544548 0.97472125 0.17495628 -0.13895632 0.043007895
-0.10003529 -0.11282406 0.50490636 -0.98626304 0.033135843 -0.16182491 0.0017538904
-0.10351092 -0.09038081 0.50721866 -0.98586738 0.067626104 -0.15327191 0.0044047846
-0.1033994 -0.085047312 0.50577062 -0.9840579 0.080885775 -0.1583907 0.0077664172
-0.10336097 -0.074974954 0.50431341 -0.97767979 0.14101902 -0.15574327 0.022152925
-0.10374292 -0.065992914 0.50657094 -0.97284603 0.18294084 -0.14178601 0.031436097
-0.103492 -0.052856565 0.50632095 -0.95590466 0.26065511 -0.1352971 0.045389805
-0.050811198 -0.025668362 0.50380701 -0.35323751 0.92470819 -0.14190885 0.063546471
-0.021463826 -0.023471914 0.50008935 -0.029755028 0.97892916 -0.20202056 0.042525057
0.067612842 -0.02554694 0.50532568 0.18225943 0.86410105 -0.46915981 0.12316135
0.079461217 -0.02266413 0.50565052 0.25179794 0.89768392 -0.36160955 0.13219544
-0.10403834 -0.33128345 0.51375681 -0.85420549 -0.49468371 -0.16006586 0.11924309
-0.096760854 -0.33239955 0.51632065 -0.78152168 -0.60116887 -0.16679326 0.13142017
-0.04188801 -0.33240771 0.51409209 -0.12914945 -0.99085391 -0.039102737 0.020221787
0.12488326 -0.33234754 0.51630592 0.17632075 -0.98432857 0.0028934928 0.10766937
0.13452686 -0.33102715 0.51323205 0.050505962 -0.99872297 0.0012668256 0.11150192
-0.10801093 -0.32765564 0.51648325 -0.85534936 -0.48740983 -0.17552534 0.10965032
-0.11272805 -0.3126601 0.51218134 -0.95555919 -0.19056781 -0.22492367 0.059822995
-0.11407447 -0.29426867 0.51635695 -0.96821886 -0.10542518 -0.22679915 0.03890276
-0.11384162 -0.28527972 0.51608461 -0.97551072 -0.068151057 -0.20912759 0.028106323
-0.11423451 -0.27121967 0.51804018 -0.98316228 -0.017990403 -0.18184687 0.0089254063
-0.11254302 -0.26027393 0.5125159 -0.98314637 -0.0055552172 -0.18273574 0.0061983503
0.1349232 -0.24382824 0.51737046 0.99993581 -0.0047985017 -0.010267985 0.021869736
-0.11502558 -0.2324805 0.51385546 -0.98355603 0.049451105 -0.1737013 0.0021079034
-0.1050623 -0.20350465 0.51029718 -0.984779 0.038493212 -0.16949512 0.00098605594
0.12520435 -0.20416209 0.51898026 0.99968642 -0.012424024 -0.021741139 0.021726958
-0.10424596 -0.17960636 0.51166564 -0.98572171 0.041762486 -0.16312157 0.00098738354
-0.10744916 -0.16390792 0.51812696 -0.98633009 0.04307941 -0.1590509 0.00080131518
-0.10836205 -0.12767123 0.51806939 -0.98815411 0.033267241 -0.14981599 0.00066089589
-0.10450216 -0.092713743 0.51211756 -0.98748654 0.054892454 -0.1478416 0.0016993915
-0.1044008 -0.072718695 0.51269418 -0.97549117 0.17093845 -0.13855328 0.029944971
-0.10492969 -0.063614793 0.51825196 -0.97129077 0.19862266 -0.13093191 0.036192428
-0.10444683 -0.05969866 0.51403058 -0.9703148 0.20132434 -0.13400653 0.036228407
-0.10367271 -0.044173077 0.51635921 -0.91335446 0.39404753 -0.10251951 0.070229456
-0.10141995 -0.032001153 0.51944757 -0.88621223 0.45183361 -0.10234375 0.073446818
-0.098653212 -0.032248877 0.51383406 -0.83489186 0.54323852 -0.088586628 0.088106036
-0.095479891 -0.021215674 0.51523191 -0.74444914 0.66371453 -0.072654188 0.085349254
-0.041763999 -0.025882812 0.51391524 -0.31164634 0.94619113 -0.087172039 0.049207646
-0.1067384 -0.33158302 0.52753305 -0.81087655 -0.5599035 -0.17025657 0.10743821
-0.099526316 -0.33324692 0.52604187 -0.7295028 -0.67128104 -0.13117707 0.12009343
-0.030830201 -0.33240771 0.5250088 -0.017972745 -0.99982858 0.0044581732 0.0014864901
0.12590985 -0.3320497 0.52393013 0.062363278 -0.9961251 0.062013242 0.091942303
0.13276783 -0.33110979 0.52351266 -0.023930574 -0.99888176 0.040775254 0.094769873
-0.11071841 -0.32789072 0.52716625 -0.88853061 -0.41797587 -0.189234 0.088328049
-0.11425207 -0.31458834 0.52275163 -0.9326188 -0.2853477 -0.2209046 0.075629257
-0.11661673 -0.30526313 0.52585834 -0.96459275 -0.16441715 -0.20622271 0.053257793
0.1277421 -0.30929399 0.52136523 0.99642086 -0.037194457 -0.075908273 0.11848334
-0.1181445 -0.29243198 0.52701175 -0.97648561 -0.074424811 -0.20232841 0.025443181
-0.11942518 -0.28764939 0.5289219 -0.98115802 -0.044554703 -0.18799986 0.01905077
-0.11561745 -0.26661301 0.52487302 -0.98484445 -0.0069014574 -0.17330275 0.0093313903
0.12755814 -0.25339183 0.52164608 0.99960232 0.024318177 0.014274902 0.014382196
0.12558863 -0.24987277 0.52525347 0.9995262 -0.0077412291 0.029790798 0.013462402
0.12947601 -0.228884 0.52609426 0.9991917 0.011391214 0.038551737 0.012336682
-0.11219189 -0.21785945 0.52482516 -0.98545885 0.04670532 -0.16336912 0.0011506391
0.1313826 -0.21040055 0.52019507 0.99994886 -0.0082835676 -0.0058102738 0.020915659
-0.11097202 -0.20356329 0.52715218 -0.98630661 0.041640785 -0.15957849 0.00080246734
-0.10933864 -0.20749937 0.52152842 -0.98590112 0.042681709 -0.16179392 0.00080452859
-0.1111104 -0.18058509 0.52821916 -0.98597693 0.046441168 -0.16028935 0.00091545295
-0.10809902 -0.1835646 0.52094358 -0.98588598 0.044205941 -0.16147669 0.00090977462
-0.11042065 -0.17097202 0.52856755 -0.98631799 0.044654123 -0.15869094 0.00083429605
-0.10916976 -0.16574454 0.52569467 -0.98643678 0.044273194 -0.15805814 0.00078471255
-0.10929628 -0.15511975 0.52783334 -0.98669827 0.043607976 -0.15660469 0.00079447625
-0.10917033 -0.14156048 0.52677315 -0.98719323 0.039707981 -0.15450816 0.00062442542
-0.10949416 -0.13531263 0.52998775 -0.98752004 0.038055111 -0.15282691 0.00066156773
0.13208652 -0.13822541 0.52924907 0.99599451 0.035270285 0.082164228 0.0046445532
0.12517321 -0.12696393 0.52431327 0.99529374 0.095394216 -0.017041434 0.021255493
-0.10811392 -0.10973866 0.52424324 -0.9887659 0.039794087 -0.14407803 0.00086939416
-0.10673719 -0.096195087 0.52138889 -0.98899209 0.047924772 -0.13999236 0.0018088206
-0.10620256 -0.087620206 0.52191871 -0.9883619 0.060901508 -0.13939781 0.0017053524
0.12402321 -0.08076942 0.52704775 0.98634213 0.16401756 -0.015080216 0.0314443
-0.10605022 -0.076466575 0.5256452 -0.98205245 0.12403548 -0.14208545 0.018940767
-0.10464431 -0.034113467 0.52656388 -0.87673986 0.47035623 -0.10046006 0.081779592
-0.10163182 -0.02754415 0.52467459 -0.84714615 0.52403551 -0.087921754 0.082608618
-0.030865986 -0.023304163 0.52380288 -0.063624896 0.99762493 -0.026388939 0.0071726115
-0.1370803 -0.33240771 0.53818607 -0.9657774 -0.16385509 -0.20106119 0.035735637
-0.10729947 -0.33264032 0.53457516 -0.74842769 -0.64389056 -0.15893708 0.11283485
-0.056802608 -0.33240771 0.53754282 -0.2024433 -0.97625965 -0.077031538 0.048780143
-0.046797961 -0.33240771 0.53050607 -0.13207617 -0.99066937 -0.033617761 0.021754228
-0.030037871 -0.33240771 0.53097069 -0.018203543 -0.9998219 0.0049751564 0.0014516519
0.1072779 -0.33240771 0.53160369 0.094960518 -0.99004161 0.10392382 0.081605352
0.11902199 -0.33234432 0.53497022 -0.043360248 -0.99394822 0.10093021 0.086128853
0.12342363 -0.33213738 0.53709286 -0.10159082 -0.98966295 0.10122509 0.089259662
-0.12003548 -0.32822743 0.53175455 -0.92707646 -0.33191985 -0.17423698 0.076388739
-0.11374278 -0.32966986 0.53549075 -0.85179663 -0.50051308 -0.15469064 0.1011728
-0.1370803 -0.30047521 0.53818607 -0.98359752 -0.062906109 -0.16905268 0.020139232
0.126311 -0.30892611 0.53171819 0.99933237 -0.033244599 0.015156398 0.13166098
-0.12613915 -0.29492652 0.53338397 -0.98274171 -0.058638401 -0.17544302 0.019756023
-0.11983855 -0.27701908 0.53047258 -0.98340786 -0.013977906 -0.1808691 0.011223306
-0.11413072 -0.23023622 0.53559083 -0.98575836 0.054561686 -0.15907092 0.0019711484
0.12229261 -0.23542497 0.5369249 0.99334425 0.0026710334 0.11515238 0.0025833203
0.12368632 -0.22440876 0.53935534 0.99116451 0.0060732737 0.13249901 0.0014138011
-0.1128517 -0.21194816 0.53345782 -0.98661768 0.045484491 -0.15657806 0.00085454615
-0.1131446 -0.20663495 0.53507698 -0.98689497 0.042468835 -0.15567538 0.00085362326
-0.11210777 -0.19531178 0.53088498 -0.98655587 0.042185649 -0.15788606 0.00084486057
-0.11311482 -0.18912937 0.53307438 -0.98656464 0.043838553 -0.15738013 0.00087480509
-0.11265474 -0.17958966 0.53355491 -0.98622447 0.046951141 -0.1586093 0.00091032259
-0.10992365 -0.16069426 0.53233218 -0.98655462 0.045825806 -0.15687591 0.00073447439
-0.10973486 -0.15262817 0.53462946 -0.98680347 0.04326703 -0.1560351 0.00066706399
-0.10968929 -0.13511251 0.53423089 -0.98743099 0.039408009 -0.15305898 0.00077841961
0.1257098 -0.13460234 0.53842539 0.99131548 0.020153193 0.12995212 0.0011823033
-0.1091747 -0.097239032 0.53701746 -0.9894399 0.050346632 -0.13591883 0.00085394504
0.12245178 -0.09686204 0.53710729 0.99347985 0.069925405 0.090046175 0.011203582
-0.10747022 -0.063573636 0.53697437 -0.96645045 0.21900333 -0.13420551 0.044417869
-0.10737785 -0.056679536 0.53382421 -0.95891631 0.25710672 -0.11989857 0.051816382
-0.10826335 -0.047360133 0.53859663 -0.93848807 0.32943988 -0.10348717 0.06196871
0.12011738 -0.030814882 0.53703642 0.88534391 0.46429148 0.024485979 0.057275701
-0.10395097 -0.025457198 0.53525877 -0.8201164 0.56157744 -0.10972705 0.087688237
-0.056849066 -0.022650488 0.53756356 -0.43522444 0.89875072 -0.053168695 0.070011012
-0.046821591 -0.02340715 0.53051406 -0.32171473 0.94381249 -0.075615704 0.051587403
-0.029802872 -0.02264709 0.53187686 -0.046281263 0.99861056 -0.025201121 0.0053012809
0.1072779 -0.024336159 0.53160369 0.76972103 0.63776445 0.028035961 0.056441315
-0.12681945 -0.331808 0.54015708 -0.95995063 -0.23688111 -0.14960673 0.049735356
-0.11297507 -0.33161756 0.545151 -0.79736775 -0.58654177 -0.14203294 0.097894914
-0.10779724 -0.33115065 0.54491615 -0.69773489 -0.70183659 -0.14349709 0.11049122
-0.03901419 -0.33240771 0.54853839 -0.029969595 -0.99954468 0.0035037121 0.0026207671
0.119781 -0.33240771 0.54423821 -0.034097102 -0.99541241 0.089395396 0.10201256
0.12387419 -0.33246624 0.54694432 -0.029863548 -0.99521357 0.093049511 0.11316661
0.1981189 -0.33347431 0.54320198 -0.067940854 -0.99737799 0.024925249 0.016834844
0.2089376 -0.33318353 0.5414139 -0.041000415 -0.99836636 0.039795116 0.0041205143
0.1243728 -0.26723862 0.54892337 0.99233347 0.029899109 0.11991797 0.033119425
-0.11413971 -0.21241704 0.54330802 -0.98752218 0.047620442 -0.15010732 0.0012352851
0.12310796 -0.21926473 0.54075927 0.99150002 0.0045030578 0.13002899 0.001484573
-0.11453257 -0.20560753 0.54264331 -0.98765451 0.042693511 -0.15071809 0.00099438382
-0.11521308 -0.19731152 0.54128492 -0.98770583 0.042125728 -0.15054107 0.00090402667
-0.1111562 -0.14568818 0.54149437 -0.98719221 0.041654341 -0.15400162 0.00071168412
0.12448905 -0.14468442 0.54842496 0.99088806 0.014329266 0.13392366 0.0011662828
-0.11068565 -0.13762042 0.54330844 -0.98754281 0.041378554 -0.15181273 0.00073248526
-0.11005664 -0.12536007 0.54903728 -0.98870909 0.049020156 -0.14160298 0.00089643133
-0.11014932 -0.095881663 0.54855019 -0.98948365 0.054706972 -0.13390012 0.00088192854
-0.10998902 -0.093939148 0.54329562 -0.98938608 0.053883713 -0.13495097 0.00094335689
-0.10995083 -0.081372768 0.54969674 -0.98917967 0.071540706 -0.12808421 0.0046254275
0.12126034 -0.082737505 0.54447967 0.9846338 0.082728341 0.15379333 0.0039028223
-0.10928763 -0.075627454 0.54902691 -0.98628575 0.11392681 -0.11942025 0.013763991
-0.1086508 -0.062087718 0.54562032 -0.97580826 0.19707219 -0.094661526 0.033990763
-0.10911987 -0.054811422 0.54358798 -0.9536745 0.27995017 -0.11014923 0.051926069
-0.1078442 -0.031038437 0.54554194 -0.85769379 0.50302362 -0.10643592 0.075661056
-0.038649719 -0.02260839 0.54851377 -0.14105994 0.99000037 0.0012145021 0.021029215
0.11650936 -0.026534818 0.5401305 0.83798558 0.54550052 -0.014470016 0.063830927
0.123567 -0.02841479 0.54788941 0.85276973 0.51429039 -0.091045357 0.063687593
-0.120589 -0.33214217 0.55488968 -0.88494974 -0.43584803 -0.16401367 0.085104778
-0.11398539 -0.33154014 0.55426955 -0.82135779 -0.54614896 -0.16459858 0.093259983
-0.10860912 -0.33101201 0.55535108 -0.7250334 -0.66558838 -0.17697094 0.098606057
-0.045288939 -0.33240771 0.5519402 -0.048378624 -0.99875796 -0.011920662 0.0067333779
0.11791235 -0.33244982 0.55596501 0.14571291 -0.98730892 0.063157685 0.15708765
0.12266769 -0.33248678 0.55389822 -0.011817795 -0.99690348 0.077741861 0.14884382
-0.097039402 -0.31551731 0.55975002 -0.79509592 -0.58375722 -0.16446918 0.11348728
-0.11944992 -0.2709946 0.55936682 -0.99360746 -0.010730924 -0.11237954 0.012198388
-0.11559296 -0.2667169 0.55361634 -0.99093586 0.0037779917 -0.13428283 0.010056275
0.12677051 -0.26283613 0.55171335 0.99471605 0.030635988 0.097987458 0.02521156
-0.11671546 -0.24118181 0.55093038 -0.98889935 0.044207439 -0.14185826 0.0036133816
-0.1167078 -0.23799451 0.55499774 -0.98933011 0.04847585 -0.13738993 0.0032104484
-0.11519411 -0.22731996 0.55099088 -0.98766994 0.056826979 -0.14587237 0.0020686188
0.12197766 -0.22708032 0.55700684 0.99055696 0.0047427337 0.13701992 0.0016751854
-0.11515478 -0.21647108 0.55535012 -0.98931265 0.049221952 -0.13725035 0.0016414576
0.12029674 -0.21439181 0.55085999 0.99101555 0.0070722462 0.13356009 0.0012771487
0.12092344 -0.20948499 0.55763805 0.98900551 0.0010815669 0.14787482 0.0013369066
-0.11728867 -0.17474361 0.55722433 -0.98977053 0.040707204 -0.13673811 0.0016605117
0.12305545 -0.17289601 0.55429918 0.99078262 0.0035286669 0.13541588 0.0012343278
-0.11738222 -0.16715458 0.55025202 -0.98865658 0.043301005 -0.14381656 0.0010776811
-0.11585876 -0.1538641 0.55710405 -0.98910183 0.039787877 -0.1417549 0.0012305279
-0.11536781 -0.14610954 0.55789608 -0.98937088 0.042695221 -0.13900517 0.0011866674
-0.11313975 -0.13697833 0.55472893 -0.98885083 0.04692233 -0.14132366 0.00083656778
-0.11006273 -0.12347506 0.55086863 -0.98907286 0.049318094 -0.13893382 0.00095358118
-0.10987907 -0.12198117 0.55144596 -0.98928744 0.048852373 -0.137564 0.00097550516
0.12135639 -0.12786332 0.55607194 0.9879176 0.037181087 0.15045431 0.0010687474
-0.11083606 -0.11437449 0.55795181 -0.99020308 0.050571412 -0.13015564 0.00094039767
-0.10951879 -0.11878099 0.55226016 -0.98936284 0.046790946 -0.13773826 0.0010063744
0.11991033 -0.11750926 0.559771 0.98849618 0.035919167 0.14691864 0.0012383667
0.12085931 -0.11624101 0.55503947 0.98765397 0.038239297 0.15191272 0.0011593265
0.12006958 -0.10631814 0.5569247 0.98821574 0.03186531 0.14971395 0.0013957903
-0.11086354 -0.092080072 0.55969262 -0.99070525 0.057909988 -0.12308379 0.00094545889
-0.11085416 -0.088894144 0.55895925 -0.9904511 0.061639104 -0.12331768 0.0010633952
-0.11009785 -0.077672847 0.55629891 -0.98766041 0.10945436 -0.11201214 0.012517349
0.11883707 -0.076839499 0.55812114 0.98339355 0.12163241 0.13469517 0.015134654
0.120953 -0.079447813 0.55134058 0.98590946 0.080279894 0.14675725 0.0036224562
-0.10922284 -0.064439014 0.55444461 -0.97619408 0.19173023 -0.10141376 0.031486172
-0.1104586 -0.034846671 0.55224741 -0.91017592 0.40205735 -0.099647865 0.063834667
-0.10924587 -0.032380871 0.55962455 -0.90648913 0.41814631 -0.058575608 0.070670433
-0.10342911 -0.020825844 0.55902493 -0.73337299 0.67293942 -0.096523054 0.11979666
-0.045288939 -0.020946549 0.5519402 -0.21218199 0.97721022 0.0062404661 0.037234768
-0.10189804 -0.018063625 0.55939847 -0.68364018 0.72189301 -0.10726909 0.092885241
-0.12262236 -0.33034953 0.56436378 -0.91360664 -0.38545927 -0.12939878 0.076111481
-0.11518627 -0.33117265 0.56336492 -0.81290936 -0.56132376 -0.15522265 0.089384079
-0.03303748 -0.33240771 0.56882417 -0.024988178 -0.99967217 -0.005585318 0.0023693938
0.10851225 -0.33236161 0.5628739 0.18234026 -0.98300904 0.02110127 0.16241525
0.11842021 -0.33253554 0.56551385 0.1848477 -0.98261124 0.017507462 0.18225163
0.12361135 -0.33267358 0.56570882 -0.044968843 -0.99898446 0.0028257791 0.18461275
0.1584205 -0.33473825 0.5651685 -0.2788592 -0.96009409 -0.021376492 0.1620962
0.1623086 -0.33357325 0.56603467 -0.24456957 -0.96936029 -0.022942277 0.1605781
-0.10446903 -0.32774937 0.56103724 -0.63928401 -0.75153333 -0.16282988 0.10016508
0.1197358 -0.29175091 0.56727582 0.96493644 0.070729122 0.25277489 0.14245325
-0.12597868 -0.28059873 0.5698964 -0.99558097 -0.0039468119 -0.093823932 0.022979403
0.12504594 -0.28967485 0.56815344 0.98213714 0.077826254 0.17131771 0.12549675
-0.12054691 -0.27101952 0.56134689 -0.99412686 -0.0097908964 -0.10777768 0.012062397
-0.12192397 -0.26878703 0.56492019 -0.99526483 -0.0025619492 -0.097166844 0.012651864
-0.1212215 -0.25974971 0.56614524 -0.99584252 0.013543237 -0.090079218 0.0087916125
-0.11931976 -0.24599782 0.56674021 -0.99323875 0.044667415 -0.10715248 0.0043907501
0.1182222 -0.2499311 0.56424588 0.98931575 0.0037166879 0.14574164 0.0018942631
-0.11690606 -0.21608934 0.56646585 -0.99224395 0.043034401 -0.1166193 0.0022193717
-0.11647189 -0.20798638 0.56068236 -0.99111688 0.044683017 -0.12526314 0.001799472
0.12126499 -0.19574229 0.56845093 0.98959172 0.0026502798 0.143879 0.0011717319
-0.11706337 -0.18481153 0.56677622 -0.99282116 0.040624466 -0.11249828 0.0026327502
0.12219663 -0.18711215 0.56375128 0.99045539 0.0058398237 0.1377103 0.0012313342
-0.11726132 -0.17206873 0.56005257 -0.99030364 0.039328806 -0.13323674 0.0014041328
-0.11757823 -0.16410993 0.56716603 -0.99254614 0.035744004 -0.1165098 0.0023917281
0.12189089 -0.1603581 0.5643875 0.99083561 0.010258673 0.13468303 0.0015330461
-0.11730918 -0.15990472 0.56076783 -0.98952115 0.038357399 -0.13919996 0.0013235213
0.1219691 -0.15570302 0.56328046 0.99086899 0.015250677 0.13396288 0.0014488493
-0.1168928 -0.14970008 0.56798553 -0.99209005 0.039699607 -0.11908539 0.0015979579
0.11960743 -0.14136183 0.56922722 0.99225569 0.015055853 0.12329631 0.0014384405
0.12013515 -0.1277283 0.56123799 0.98891497 0.03394679 0.14455035 0.0011099142
0.11926676 -0.11369222 0.56205791 0.99097449 0.025154822 0.13166937 0.0015038125
-0.11159961 -0.10611261 0.5622853 -0.99119204 0.05138744 -0.12205599 0.0010647965
-0.11175096 -0.097163588 0.56242549 -0.99118799 0.056838326 -0.11964896 0.0010131618
-0.11087213 -0.083196729 0.56234568 -0.99013454 0.086390227 -0.1103195 0.005994868
-0.11023318 -0.073918037 0.56055886 -0.98485202 0.14130664 -0.10049316 0.018266851
-0.10804532 -0.066761516 0.56466943 -0.97799534 0.18666914 -0.093165576 0.02685781
-0.099718489 -0.054106016 0.56961751 -0.9287011 0.36486122 -0.066261314 0.057214629
-0.11256058 -0.041196331 0.5607686 -0.94275063 0.32467747 -0.076195978 0.053713307
-0.10488374 -0.023453722 0.56063491 -0.78883082 0.61066139 -0.069560729 0.089967512
-0.032330822 -0.022067679 0.56917834 -0.061056241 0.99763846 -0.031458214 0.0086185867
-0.11513827 -0.33103609 0.57553691 -0.80743432 -0.58282191 -0.091479003 0.1007363
-0.10973568 -0.3310737 0.57839924 -0.64561653 -0.75714195 -0.099576183 0.11176635
-0.097869076 -0.33191019 0.57421052 -0.49195707 -0.86597514 -0.089807183 0.10223425
-0.040605891 -0.33240771 0.57504952 -0.020605952 -0.99977243 -0.0055182562 0.0021131057
-0.028208286 -0.33240771 0.57640797 -0.02453842 -0.99967408 -0.0070465645 0.0024413636
0.11783326 -0.33263996 0.57628262 0.089338191 -0.99262488 -0.08194194 0.18897487
0.12400383 -0.33288389 0.57558864 -0.00056320988 -0.99308777 -0.11737238 0.19873302
-0.13670897 -0.32547879 0.5771054 -0.96327531 -0.25627995 -0.080132686 0.072645694
-0.12380515 -0.32834291 0.57679796 -0.93791896 -0.33470711 -0.090989999 0.081789419
0.1198291 -0.31058109 0.57950163 0.93771553 -0.0073320619 0.34732667 0.2047043
0.12006626 -0.27414456 0.57640362 0.98903555 0.085514948 0.12039896 0.11489762
0.11923345 -0.26959297 0.57685894 0.99338442 0.070241854 0.090848848 0.07674364
-0.1214429 -0.25440246 0.57309383 -0.99757344 0.016260318 -0.067696616 0.008697941
0.11829428 -0.25618258 0.57358116 0.99201423 0.002345056 0.12610435 0.011775771
-0.11914078 -0.20989904 0.57759386 -0.99441087 0.049671762 -0.093165129 0.0038900441
-0.11879634 -0.19396257 0.57537377 -0.99464488 0.043593399 -0.093708128 0.0039454396
-0.11770844 -0.16789627 0.57422554 -0.99466991 0.035125408 -0.096943364 0.0035803034
0.11666074 -0.13408461 0.57950151 0.99168789 0.021779297 0.12681 0.0013532654
-0.11509713 -0.12130959 0.57632262 -0.99486262 0.055335406 -0.084772743 0.0036488001
-0.11411513 -0.11844088 0.57206231 -0.99363393 0.058874775 -0.096049652 0.0028827852
-0.11502067 -0.10442219 0.57806581 -0.99475461 0.06008644 -0.082781799 0.0029139714
0.11673656 -0.10811629 0.57407033 0.99145484 0.025207726 0.12799172 0.001261846
-0.11294501 -0.093568072 0.57109421 -0.9935562 0.063481227 -0.093894608 0.00227117
-0.11055479 -0.062883168 0.57888901 -0.97229612 0.22566544 -0.060953628 0.028205356
-0.11011914 -0.046264753 0.57864511 -0.94537115 0.32320988 -0.042529441 0.044549663
-0.10916448 -0.041502293 0.57539129 -0.90893793 0.4119305 -0.064383261 0.059033893
-0.10599395 -0.030467898 0.57001871 -0.8561992 0.51218218 -0.067767479 0.070879273
-0.041590158 -0.023206348 0.57399094 -0.10307812 0.9940182 -0.036094774 0.015565604
0.029093357 -0.02434103 0.57738554 0.024246907 0.99792033 -0.059725069 0.0021443444
-0.027745578 -0.019012891 0.57641089 -0.03012757 0.99895948 -0.034240607 0.0043479605
-0.11619431 -0.33022031 0.58467501 -0.83930659 -0.53993976 -0.063478492 0.10807338
-0.066092901 -0.33240771 0.58340722 -0.10644118 -0.99431902 9.5628217e-05 0.016450357
-0.055374671 -0.33240771 0.58674628 -0.050942712 -0.99869537 0.003514651 0.0069970912
0.0055772252 -0.33240771 0.58649361 -5.8463422e-05 -1 0.00019521748 0
0.015801489 -0.33240771 0.58791804 -3.9756345e-05 -1 0.00012717735 0
0.058474518 -0.33240771 0.58780003 0.042228233 -0.99867004 -0.029579496 0.027201612
0.068987012 -0.33240771 0.58101809 0.11790927 -0.99218845 -0.040736724 0.068203807
0.10115422 -0.33246544 0.58438271 0.019461863 -0.98420972 -0.17593336 0.17428479
0.11632495 -0.33257312 0.58402216 -0.028664516 -0.98530388 -0.16838843 0.19866307
0.12256802 -0.33276409 0.58410108 -0.028823378 -0.98528528 -0.16847 0.19868495
-0.14006667 -0.32357505 0.58105624 -0.97436261 -0.21305674 -0.072279721 0.069143988
-0.12187579 -0.32805595 0.58306098 -0.9150849 -0.39946523 -0.055201869 0.092524335
-0.13861433 -0.31910723 0.58452463 -0.9832384 -0.17485736 -0.051645469 0.073112078
-0.12673181 -0.31596857 0.58979523 -0.98367977 -0.1798804 -0.0041341139 0.083715767
0.1186716 -0.30674681 0.58288419 0.9191553 0.032928318 0.39251667 0.21519485
-0.12168372 -0.2442297 0.58473837 -0.9983986 0.034906235 -0.044517934 0.0075357426
-0.12084957 -0.22324799 0.58870709 -0.99916911 0.011965626 -0.038960747 0.0064667468
-0.11974201 -0.22280344 0.58310622 -0.99784064 0.017107593 -0.063414574 0.0056082085
-0.12013816 -0.2033902 0.58206266 -0.99530631 0.050551072 -0.082522258 0.0040362203
-0.12120855 -0.19178319 0.5859102 -0.99592793 0.043936413 -0.078722224 0.0042060642
0.12038402 -0.19094519 0.58039194 0.99105579 0.00039205316 0.13344792 0.0012262978
-0.12074903 -0.18665865 0.58184636 -0.99541336 0.040539891 -0.086653605 0.0043255342
0.1199857 -0.17630251 0.58428961 0.9915604 0.0020366753 0.12962972 0.0014154629
0.1181658 -0.16237828 0.58758181 0.99247384 0.0047275871 0.12236572 0.0014221889
-0.12335908 -0.15077071 0.58803153 -0.99691659 0.04406102 -0.064930074 0.0039070058
0.11799998 -0.1562288 0.58436751 0.99274778 0.010762043 0.11973285 0.0013521723
0.11659373 -0.13285814 0.58350664 0.99166977 0.023266068 0.12668788 0.0012774144
-0.11725317 -0.12288377 0.58977455 -0.99646884 0.05586135 -0.062685043 0.0042610681
-0.11600479 -0.11435522 0.58134592 -0.9953441 0.058070708 -0.07692837 0.0034178132
-0.11572064 -0.10324385 0.58208132 -0.99502146 0.060087409 -0.079509445 0.0031178016
-0.1125486 -0.078002878 0.58130991 -0.98958552 0.12863323 -0.064606659 0.014860517
-0.066212267 -0.021907559 0.58409452 -0.38668379 0.91815728 -0.08638791 0.070735514
-0.055273958 -0.023492888 0.58708149 -0.25360182 0.96510756 -0.065219425 0.054240447
0.0055493633 -0.021811046 0.58689862 -3.3506345e-05 0.99926913 -0.038226672 0.0015282915
0.015489568 -0.021386869 0.58743227 0.00041370132 0.99924338 -0.038891815 0.0017783901
0.029721191 -0.020762889 0.58202398 0.022966169 0.99795872 -0.059590504 0.0020547211
0.058345836 -0.02051511 0.58764422 0.060865346 0.99735969 -0.039611973 0.0034052653
0.068987012 -0.021793781 0.58101809 0.15454733 0.98789996 -0.012994308 0.039732322
0.10002534 -0.02978961 0.58586586 0.45992187 0.88778597 0.01754724 0.1194636
-0.10118941 -0.332335 0.59499151 -0.45900658 -0.88805765 -0.025819072 0.12510107
-0.072832063 -0.33240771 0.59445089 -0.17670737 -0.98116183 0.078077175 0.065607533
-0.069526903 -0.33240771 0.59823358 -0.13512696 -0.9868179 0.089056909 0.046335552
-0.034497827 -0.33240771 0.59405226 -0.018583851 -0.99967474 -0.01746629 0.0020988365
-0.02550325 -0.33240771 0.59227091 -0.00068748207 -0.99999976 -6.7323352e-05 0
0.0140242 -0.33240771 0.59492838 -2.5759469e-05 -1 0.00011530155 0
