# .PCD v0.7 - Point Cloud Data file format
VERSION 0.7
FIELDS x y z
SIZE 4 4 4
TYPE F F F
COUNT 1 1 1
WIDTH 1406
HEIGHT 1
VIEWPOINT 0 0 0 1 0 0 0
POINTS 1406
DATA ascii
-0.098392278 -0.1069733 0.43603641
-0.09848094 -0.27909419 0.48663631
-0.0024986861 -0.046021789 0.44271731
-0.095891267 -0.1060112 0.44461441
-0.1097922 -0.1084658 0.57834798
-0.1152141 -0.1371167 0.62315643
-0.1166214 -0.21269371 0.54300588
-0.1043777 -0.090439849 0.50706238
-0.1064935 -0.03697684 0.52868968
-0.094021916 -0.044126131 0.45399699
-0.1234853 -0.20172361 0.59319073
-0.098547913 -0.063580893 0.45692939
-0.1013709 -0.063494213 0.53640199
-0.1069473 -0.061789069 0.54601163
-0.089489698 -0.18727151 0.43230069
-0.070554256 -0.085728876 0.435022
-0.097263344 -0.057939511 0.44977519
-0.1154122 -0.2952469 0.51511252
-0.09960705 -0.040617891 0.45919111
-0.1093161 -0.22507501 0.55162561
-0.1216682 -0.1709021 0.60363209
-0.02031705 -0.053923439 0.4384957
-0.083052009 -0.0727529 0.43104509
-0.1190588 -0.1041566 0.59197128
-0.1227464 -0.19207139 0.58922738
-0.1208283 -0.082429789 0.6036287
-0.1179644 -0.1815794 0.566998
-0.1189736 -0.092459127 0.59444737
-0.1161368 -0.080610618 0.64686209
-0.1284923 -0.2040695 0.63382059
-0.1225283 -0.1318945 0.6062175
-0.1224548 -0.26868409 0.56465632
-0.101706 -0.2851145 0.46651441
-0.103142 -0.32492691 0.4775807
-0.080427408 -0.3167204 0.42619279
-0.088991113 -0.31360161 0.43034279
-0.1084386 -0.31111091 0.4756569
-0.064338773 -0.28017199 0.42864531
-0.033088028 -0.05541655 0.44292071
-0.1276435 -0.30941701 0.58427972
-0.1051401 -0.062557742 0.4885031
-0.1249004 -0.073030502 0.62478513
-0.1053538 -0.186561 0.47588399
-0.1187503 -0.1635748 0.56550151
-0.1056226 -0.066313848 0.51938641
-0.1265748 -0.20456231 0.61703539
-0.093160033 -0.05747484 0.4365648
-0.061891139 -0.1498636 0.43537629
-0.099472582 -0.1050638 0.4586167
-0.098372944 -0.1018388 0.4478772
-0.1151548 -0.2925669 0.52920192
-0.1217472 -0.25439239 0.57305759
-0.073569179 -0.2151873 0.4295308
-0.1118319 -0.22755601 0.50408077
-0.1077115 -0.20535441 0.50970989
-0.095900796 -0.26160249 0.4356308
-0.0054335892 -0.2964372 0.43673
-0.111313 -0.3089785 0.4876456
-0.1176483 -0.202935 0.54004192
-0.1314843 -0.19559421 0.63140172
-0.102997 -0.26007801 0.46277621
-0.099137492 -0.23443221 0.45321059
-0.1239211 -0.2146779 0.63233018
-0.018855089 -0.1224728 0.44095981
-0.12729301 -0.2344469 0.64499092
-0.1063727 -0.2304893 0.47560579
-0.1040606 -0.25204319 0.46942759
-0.1111487 -0.30401349 0.50257587
-0.1037477 -0.1189386 0.48338139
-0.1080046 -0.1277004 0.51809323
-0.097353943 -0.063630387 0.4492085
-0.1084085 -0.31431231 0.48429039
-0.112227 -0.079178743 0.55621839
-0.1078001 -0.060562361 0.53910542
-0.1021307 -0.1818849 0.50723368
-0.1118947 -0.22798771 0.50030208
-0.1215843 -0.27159071 0.56005508
-0.083702207 -0.2539039 0.42986849
-0.1140062 -0.27122951 0.51810223
-0.1049557 -0.26245701 0.4603352
-0.1124961 -0.1508067 0.53214151
-0.1072534 -0.091466993 0.5107218
-0.1244033 -0.08438082 0.63950127
-0.1272338 -0.27909899 0.61974168
-0.0048226709 -0.092381403 0.44257531
-0.1282144 -0.25119191 0.63507003
-0.112021 -0.27677029 0.50910562
-0.1059191 -0.067478448 0.50987339
-0.095269501 -0.036069032 0.42924389
-0.1169807 -0.1200049 0.61125922
-0.1122631 -0.03265604 0.55397999
-0.1184111 -0.100265 0.57824367
-0.095599473 -0.17120069 0.4434458
0.06356442 -0.073034219 0.4569523
0.1043119 -0.089558639 0.461171
0.087574244 -0.33448279 0.4541249
-0.12758359 -0.27285901 0.61702108
-0.1017907 -0.064389393 0.4844436
-0.1125035 -0.2329039 0.5133208
-0.1096392 -0.2304073 0.4647204
-0.1286809 -0.1867681 0.64234233
-0.1269121 -0.1988966 0.64481938
-0.1222731 -0.127446 0.60406083
-0.1136544 -0.03486827 0.55030262
-0.1104634 -0.25851521 0.4961223
-0.1276349 -0.2321523 0.6064356
-0.120967 -0.1099953 0.60304677
-0.093338758 -0.054928739 0.4321039
-0.1198417 -0.037424989 0.61355197
-0.1201934 -0.1496544 0.56743938
-0.027504381 -0.029792991 0.43940839
0.1210535 -0.29243201 0.4586111
0.1123117 -0.3260375 0.45682421
0.1133738 -0.33277309 0.44992229
-0.1043824 -0.030175339 0.51086831
-0.095431753 -0.03023332 0.4413282
-0.1043928 -0.055265669 0.49663961
-0.1121622 -0.1079592 0.56447053
-0.094010919 -0.1037606 0.43388981
-0.1065334 -0.25402749 0.47802779
-0.1108455 -0.0422916 0.57510233
-0.096364923 -0.2229895 0.4327234
-0.1312775 -0.117078 0.63318878
0.087173641 -0.2345393 0.45396361
-0.1130168 -0.073652051 0.56001872
-0.1283129 -0.30426541 0.63098383
-0.1072627 -0.079576351 0.5234639
-0.096341193 -0.050924249 0.4493956
-0.1170768 -0.2163066 0.56637102
-0.1048968 -0.083849072 0.49515221
-0.1097869 -0.097198203 0.53691697
-0.1198703 -0.1600675 0.56077909
-0.1104029 -0.16643921 0.51624268
-0.1103756 -0.13537391 0.54596293
-0.1133287 -0.040903211 0.56089151
-0.1013435 -0.14378069 0.46061561
-0.12974849 -0.25598499 0.62803239
-0.1062104 -0.2037348 0.47589901
-0.1088407 -0.096229173 0.52105302
-0.1088651 -0.1418955 0.54141837
-0.097878657 -0.05560923 0.57410449
-0.1143897 -0.036633331 0.59306848
0.117811 -0.04541089 0.4606559
-0.096255332 -0.042893302 0.43224511
-0.061745111 -0.25901049 0.43005031
0.053668018 -0.24249209 0.44933751
-0.098183297 -0.038917929 0.47169951
-0.1186328 -0.081232503 0.61381519
-0.1079021 -0.0290814 0.53259277
-0.1245971 -0.19979981 0.61316383
-0.1084734 -0.0292139 0.52221823
-0.13327789 -0.1206125 0.62648028
-0.1024783 -0.1831335 0.48203969
-0.1012101 -0.1466047 0.47279501
-0.1248737 -0.2525073 0.59008831
-0.1146279 -0.28426221 0.49601701
-0.1293252 -0.25844991 0.64953268
-0.1017073 -0.2074787 0.4657878
-0.12598249 -0.28059611 0.56989908
-0.1112053 -0.2005448 0.47659761
-0.112743 -0.31277341 0.51215339
-0.1163759 -0.2385924 0.56006098
-0.1143659 -0.34413669 0.44051221
-0.1049211 -0.1593598 0.48887411
-0.1178247 -0.1679094 0.57422352
-0.120884 -0.27701741 0.5299685
-0.1135189 -0.21864501 0.52194113
-0.095355988 -0.28830361 0.44542161
-0.099175043 -0.2031734 0.4371005
-0.1037428 -0.28748241 0.45397049
-0.1018891 -0.1407183 0.45102081
-0.1195427 -0.22924919 0.53570777
-0.1042929 -0.2223106 0.44907519
-0.1044455 -0.09158013 0.5600372
0.1173568 -0.2259564 0.4591459
-0.1010933 -0.05200658 0.49077299
-0.1222447 -0.15864199 0.59310448
-0.1124822 -0.1497474 0.54176801
-0.1151439 -0.048062 0.57799071
-0.103484 -0.23888829 0.45802349
0.063932419 -0.065262489 0.4579376
-0.1147745 -0.05753383 0.61635453
-0.1240983 -0.1702459 0.59559852
-0.089063913 -0.030987609 0.45988661
-0.1260377 -0.1633762 0.60088879
-0.1111324 -0.065651923 0.56451303
-0.1110448 -0.088911816 0.55896902
-0.1203368 -0.1456846 0.55644459
-0.1143889 -0.1793789 0.53319257
0.097495198 -0.337677 0.4502354
-0.1200352 -0.167083 0.55039477
0.1004497 -0.34246129 0.44514939
-0.1111814 -0.04854979 0.50519252
-0.1026699 -0.166933 0.4783656
-0.1184305 -0.1228668 0.58961618
-0.1051279 -0.055279981 0.50674528
-0.1103901 -0.086160913 0.52015167
-0.110681 -0.070377707 0.56045592
-0.1253942 -0.1640723 0.63704169
-0.098443776 -0.1777983 0.44169989
-0.1125215 -0.1696001 0.52474552
-0.12852859 -0.2231437 0.6099174
-0.094809413 -0.032725729 0.43891791
0.1183312 -0.056907061 0.46398169
0.1204854 -0.1340787 0.46113279
0.065017641 -0.087310381 0.45484409
-0.093907148 -0.2744205 0.43486419
-0.1102928 -0.028318049 0.57089812
-0.1098669 -0.2303732 0.4960922
-0.1137237 -0.19382431 0.5295766
-0.1156231 -0.30569929 0.5304147
-0.130628 -0.32206559 0.64570469
-0.1075489 -0.22140829 0.4994252
-0.1370803 -0.30047521 0.53818607
-0.1172556 -0.23226289 0.51450938
-0.1047423 -0.088994473 0.4985109
-0.1251542 -0.2588141 0.56372029
-0.096899062 -0.1170917 0.43130741
-0.1006891 -0.1116072 0.43380839
-0.1174937 -0.2079677 0.5604946
-0.10339 -0.18756869 0.44426289
-0.097441077 -0.1917807 0.4709613
-0.1020701 -0.17990489 0.45304751
-0.1064378 -0.075113453 0.49790499
-0.1083802 -0.180553 0.50751942
-0.1081598 -0.065955289 0.5365265
-0.1140944 -0.048291329 0.53757441
-0.1051876 -0.04381064 0.515154
-0.1115813 -0.16142111 0.51875973
-0.090771973 -0.3221643 0.42716849
-0.1240629 -0.09419924 0.64448279
0.049499851 -0.022304671 0.529131
-0.1036521 -0.02289574 0.60650653
-0.1120007 -0.1114722 0.64716941
-0.1091066 -0.038007859 0.64784169
-0.081606649 -0.016919451 0.64743298
0.079461217 -0.02266413 0.50565052
-0.02661559 -0.022743849 0.49155441
-0.039928999 -0.02257745 0.59499902
-0.1071991 -0.112227 0.64698648
-0.1214638 -0.33671549 0.64364129
-0.1165808 -0.03037728 0.64380759
-0.03122595 -0.02154352 0.60831422
-0.1239779 -0.3165074 0.63596112
-0.1819644 -0.33790311 0.26658729
-0.03170744 -0.02334629 0.44335249
-0.034981608 -0.02700207 0.4503397
-0.1120187 -0.036719128 0.64535081
-0.069526903 -0.022143019 0.59823358
-0.1087744 -0.33299291 0.52896088
0.05813675 -0.03046109 0.54070717
-0.05462968 -0.02422135 0.44685671
-0.1130593 -0.079340458 0.64815807
0.074013263 -0.02383901 0.46121949
-0.11787 -0.2546595 0.6452564
-0.061284151 -0.023445791 0.49262819
-0.01079889 -0.022069771 0.45551169
-0.089075953 -0.0208316 0.49845099
-0.097267963 -0.020095419 0.64017969
0.053709891 -0.02306192 0.60596597
0.066207193 -0.025066759 0.46912161
-0.02956179 -0.020301759 0.57414931
-0.09187597 -0.022441451 0.64810592
-0.1083835 -0.2644327 0.64771479
-0.1451588 -0.32191351 0.61238718
-0.18373901 -0.3364628 0.490428
-0.117449 -0.110348 0.64568168
-0.1099911 -0.01662961 0.6322788
-0.02550325 -0.019948149 0.59227091
-0.1183662 -0.19136371 0.64398807
-0.09935756 -0.024546031 0.52611047
-0.1180607 -0.28248551 0.63937998
-0.1143697 -0.331175 0.64967978
0.098796397 -0.023608521 0.62830329
-0.1215689 -0.29537281 0.64090729
-0.1141126 -0.25936159 0.64640951
-0.1131747 -0.078329757 0.64652503
-0.1114605 -0.1094545 0.64670098
0.1101501 -0.029578021 0.63133532
-0.1114211 -0.03063325 0.64696532
-0.112877 -0.02875708 0.64724088
0.1372278 -0.32332611 0.4577876
-0.114774 -0.073892526 0.6464864
0.1275665 -0.2533941 0.52165592
0.1158404 -0.1181713 0.559273
0.1193462 -0.1164808 0.55459172
-0.1063883 -0.15338109 0.64958513
-0.1188544 -0.1725536 0.64241391
0.1197183 -0.21447469 0.55080289
0.1157366 -0.29912701 0.62598312
0.1277421 -0.30929399 0.52136523
0.1179041 -0.25315639 0.59657151
0.1151398 -0.1685985 0.63083261
0.1208558 -0.19335601 0.56852567
-0.1242461 -0.3247849 0.64955318
0.1168274 -0.1255594 0.60122597
0.1178353 -0.27392441 0.57748628
0.1193838 -0.1581772 0.58195698
0.12643281 -0.32626739 0.46464619
0.1102802 -0.14793789 0.6487354
0.1161407 -0.1722285 0.5986833
0.1239928 -0.30757281 0.55032271
0.113348 -0.024868321 0.61232728
0.123567 -0.02841479 0.54788941
0.1273578 -0.1347259 0.53996247
0.1356326 -0.023790371 0.52133077
0.1195384 -0.029812129 0.57150912
0.1184311 -0.1228404 0.6043244
0.1237658 -0.099215887 0.5348286
0.117711 -0.13493469 0.57933521
0.1154403 -0.23386151 0.59786898
0.1205414 -0.1872493 0.5968346
0.132689 -0.1274823 0.50544548
0.1198291 -0.31058109 0.57950163
0.1337624 -0.1305785 0.479114
0.13184071 -0.1384076 0.52918178
0.1130357 -0.077895641 0.63226253
0.1125839 -0.071980342 0.63939393
0.1151315 -0.1555476 0.60276657
0.13201541 -0.1457203 0.4913722
0.1321522 -0.1831252 0.4807525
0.1118431 -0.1069947 0.63496512
0.1155317 -0.24188191 0.59956551
-0.093223147 -0.022326009 0.64184052
0.10781 -0.0202966 0.59893668
0.1062573 -0.02222237 0.64241308
0.1111161 -0.034339309 0.59455991
0.03855649 -0.02111955 0.60995662
0.1193099 -0.2746267 0.57475883
0.1205735 -0.25618809 0.57363647
0.1275811 -0.32437631 0.45809221
-0.107513 -0.051942181 0.64323539
0.1257717 -0.16062219 0.56516171
0.132908 -0.16726109 0.50602227
0.1313746 -0.21043091 0.52008158
0.1143453 -0.106875 0.63952029
0.1148443 -0.1698914 0.61944532
0.1258896 -0.1873876 0.56391442
0.1330601 -0.1553122 0.4894363
0.1200487 -0.030894911 0.53708613
0.066168398 -0.02044286 0.59337968
0.1165952 -0.026064141 0.59982312
0.13493741 -0.25200281 0.46391869
0.1357751 -0.22952449 0.46676919
0.1258136 -0.26987511 0.54797143
0.1182208 -0.26616251 0.5905087
0.1378523 -0.3016406 0.50333059
0.1270784 -0.27754149 0.52198178
0.1186716 -0.30674681 0.58288419
0.1250596 -0.28981549 0.56843418
0.120953 -0.079447813 0.55134058
0.1350574 -0.24385519 0.51753181
0.1259198 -0.23569921 0.53797168
0.1233736 -0.1728798 0.55425
0.1233134 -0.14472321 0.54824388
0.12707689 -0.22905441 0.52496183
0.12840331 -0.29881021 0.50997621
0.1158899 -0.15861329 0.63959843
-0.066092901 -0.026182961 0.58340722
0.1584205 -0.3370688 0.5651685
0.16500001 -0.32982951 0.59698611
0.1565658 -0.33492029 0.47921601
0.1623086 -0.33473879 0.56603467
0.2089376 -0.33395931 0.5414139
0.1235461 -0.1270369 0.56221068
-0.098068699 -0.02088502 0.55967528
0.053331438 -0.01872592 0.61646461
0.1182869 -0.024501439 0.53883249
0.14820699 -0.1605517 0.4360393
0.02668657 -0.021549519 0.60312963
0.0080076307 -0.02182943 0.58861351
0.1418824 -0.14046329 0.47833011
0.1085116 -0.02335662 0.5628733
-0.060274821 -0.019587159 0.6355629
0.01937045 -0.0178397 0.58859873
-0.1111155 -0.26696941 0.64580101
0.058474518 -0.01903161 0.58780003
0.13816381 -0.2467088 0.45813879
0.074405588 -0.02177462 0.47105989
-0.085458159 -0.02339888 0.47615159
0.1250809 -0.33410749 0.57622999
0.02013886 -0.0224264 0.64567029
0.1052828 -0.022834031 0.63950092
0.086749852 -0.02045938 0.61734992
-0.073446207 -0.016931349 0.64731449
0.09578041 -0.023634581 0.62610871
0.067612842 -0.02554694 0.50532568
-0.087503403 -0.02683356 0.45187521
0.14963789 -0.3248423 0.62824142
0.016766161 -0.015786109 0.63574862
-0.030082069 -0.02352679 0.4451232
-0.1162152 -0.3112489 0.6186223
0.038715191 -0.02271861 0.4611564
-0.019616431 -0.01511705 0.46631619
-0.055374671 -0.02224255 0.58674628
0.1699532 -0.33762521 0.54519522
0.094017439 -0.021242499 0.47913429
0.080778793 -0.027382789 0.4853619
0.066487007 -0.018882539 0.64834511
0.001055729 -0.02393287 0.46007219
-0.058478389 -0.024661001 0.47501519
-0.03901419 -0.026283139 0.54853839
-0.1227717 -0.1450537 0.64891177
-0.030398769 -0.025980409 0.59554583
-0.1244073 -0.22376201 0.64734071
-0.1099765 -0.202802 0.64880532
0.069089763 -0.025972281 0.64559782
0.03542592 -0.025366491 0.48556381
-0.01122576 -0.02780297 0.47030321
0.06115178 -0.02320856 0.54595077
-0.020071451 -0.023679079 0.44804001
-0.01887252 -0.027966861 0.49261051
-0.1060801 -0.1688385 0.64830291
0.1659472 -0.32276019 0.60666341
0.1111991 -0.022572991 0.59032261
-0.124506 -0.30737421 0.64204258
-0.1095183 -0.1539325 0.64872611
-0.1282018 -0.3330594 0.62578768
-0.1163571 -0.02721666 0.60135227
-0.1118463 -0.07728444 0.59354872
-0.093353823 -0.1071714 0.44024259
-0.080987424 -0.025038101 0.44322041
-0.023874041 -0.02295908 0.64554662
-0.109875 -0.075086869 0.55783337
-0.1114116 -0.029843111 0.54510921
-0.1048131 -0.05294947 0.54411602
-0.097439863 -0.099318631 0.49286529
-0.097939007 -0.13305201 0.45677599
-0.104491 -0.02305573 0.53939581
-0.095782943 -0.058444701 0.44818291
-0.1185213 -0.02745848 0.64519858
-0.095638134 -0.049381189 0.44124869
-0.093549937 -0.037803829 0.44399911
-0.1124585 -0.023747651 0.60752058
-0.1188837 -0.040507119 0.62743682
-0.108582 -0.054076228 0.63792968
-0.1135728 -0.097406447 0.56182742
-0.092469513 -0.086251587 0.45124701
-0.1074781 -0.017729551 0.55906469
-0.03785282 -0.021873601 0.44992831
-0.1161942 -0.0306441 0.61719251
-0.053782549 -0.02332785 0.44366819
-0.1187567 -0.073787346 0.63894081
-0.092459023 -0.039721109 0.47668231
-0.1120904 -0.093549453 0.57134283
0.071751297 -0.023931669 0.45939451
-0.1181014 -0.09564852 0.62483537
-0.1144485 -0.078540079 0.64454383
-0.1154699 -0.267324 0.55180222
-0.1154621 -0.20275579 0.58388978
-0.097300768 -0.2129982 0.46097541
-0.1191482 -0.099838197 0.63963991
-0.1047624 -0.32094231 0.47926441
-0.1201244 -0.1144136 0.63022882
-0.1137033 -0.1185234 0.57217449
-0.1224944 -0.17651179 0.62868297
-0.096981943 -0.1944415 0.45226619
-0.1096025 -0.1965524 0.53245813
-0.1204439 -0.1308742 0.62703627
-0.1200059 -0.1952049 0.61908209
-0.1191362 -0.1164221 0.61361247
-0.1179236 -0.2250644 0.58405137
-0.1071874 -0.22116479 0.4955942
-0.1252218 -0.13737971 0.64302361
-0.117028 -0.1244743 0.63593131
-0.1090062 -0.2178667 0.52847397
-0.1003342 -0.30879369 0.4727211
-0.079578817 -0.02425281 0.45067501
-0.098274954 -0.1160522 0.447263
-0.1217797 -0.056636311 0.64706022
-0.1153148 -0.16868921 0.6465345
-0.01151547 -0.015670201 0.42651919
-0.1024886 -0.05317859 0.64684612
-0.1075339 -0.1354039 0.53006607
-0.091784857 -0.2845293 0.43842661
-0.08395502 -0.035105981 0.64867532
-0.1237845 -0.1637387 0.62067348
-0.108475 -0.2472273 0.49815089
-0.095901281 -0.2357679 0.44826329
-0.1034425 -0.1126793 0.64911902
-0.115313 -0.1030227 0.58385289
-0.099048972 -0.1722299 0.46587229
-0.097091563 -0.09821976 0.4966245
-0.071088761 -0.020060221 0.63572037
-0.0153524 -0.019710859 0.43162271
-0.087002933 -0.1046071 0.41008449
-0.05165413 -0.01660284 0.4248623
-0.1237481 -0.28236371 0.62134087
-0.1044742 -0.28477451 0.49625471
-0.124469 -0.31013101 0.59818667
-0.1934132 -0.33151391 0.58134878
0.098948963 -0.0263991 0.50031608
-0.1138228 -0.3095783 0.52647603
-0.1248305 -0.32598519 0.57698399
-0.1737562 -0.33118179 0.6399349
-0.1276717 -0.31352019 0.63602883
-0.1236075 -0.27784771 0.63273668
-0.1231264 -0.1275501 0.62243921
-0.12303 -0.075999081 0.62711072
-0.098097801 -0.1006536 0.45025289
-0.1237101 -0.1112121 0.62466979
-0.1108002 -0.02408394 0.62354398
-0.1221053 -0.1987493 0.630337
-0.03303748 -0.0209156 0.56882417
-0.123892 -0.2166682 0.59289438
-0.1172065 -0.31511399 0.52319962
-0.1154196 -0.2404107 0.55087352
-0.1228013 -0.085735261 0.61234748
-0.033165719 -0.016411331 0.59161192
-0.1005205 -0.047130968 0.49041209
-0.1267608 -0.19289 0.58221477
-0.1203301 -0.1981474 0.6070044
-0.1192008 -0.1049735 0.57798642
-0.117584 -0.1246592 0.59645343
-0.1235925 -0.2694023 0.59373653
0.067830801 -0.02267587 0.60507339
-0.12664901 -0.22947919 0.59608942
-0.1228887 -0.18770701 0.57958293
-0.088944606 -0.2688292 0.4244532
0.0090354308 -0.01397899 0.60255021
-0.1213681 -0.27126569 0.55786729
-0.1109186 -0.27103779 0.48612919
-0.027214831 -0.023126209 0.47748539
-0.095413283 -0.04770058 0.44349489
-0.099291682 -0.1346224 0.4623138
-0.1077739 -0.167486 0.50574172
-0.1001061 -0.1720528 0.47216979
-0.097757593 -0.13481671 0.44512701
-0.089974761 -0.1751128 0.42786241
-0.088369757 -0.2945596 0.42096129
-0.101238 -0.1875622 0.46313569
-0.1131472 -0.1389142 0.53984481
-0.1134989 -0.1164516 0.55286598
-0.093845017 -0.2220386 0.42768919
-0.02072409 -0.02219549 0.46513271
-0.073450983 -0.02317619 0.60196078
-0.093774378 -0.02231106 0.451493
-0.065708518 -0.023873961 0.63116747
-0.1154892 -0.1745318 0.55706972
-0.09723407 -0.27727801 0.43856919
-0.1168059 -0.1624355 0.56620288
0.02385583 -0.026937511 0.49172771
-0.070135117 -0.0233227 0.4808839
-0.1007334 -0.27680889 0.4606922
-0.062890157 -0.017542841 0.63727748
0.0140242 -0.018360529 0.59492838
-0.1023256 -0.018081371 0.62084001
-0.02685478 -0.01567626 0.57866663
-0.1117325 -0.096049704 0.54861659
-0.01989698 -0.01922187 0.55618727
0.068987012 -0.021793781 0.58101809
0.1072779 -0.024336159 0.53160369
-0.089446276 -0.027888419 0.4760116
-0.1081892 -0.21955571 0.49459371
-0.1050386 -0.1988589 0.48115101
0.09014833 -0.021076079 0.6251595
-0.064480782 -0.018058781 0.60767561
-0.040750951 -0.021805171 0.4738172
0.019754531 -0.021307079 0.46903029
0.092714816 -0.022216439 0.4637942
-0.0093043149 -0.02082118 0.63379782
-0.099342667 -0.037890729 0.4303638
-0.01547695 -0.019757509 0.47331309
-0.091212571 -0.100832 0.42902109
-0.098298073 -0.089212328 0.4546282
-0.059606671 -0.27576581 0.424665
-0.095419727 -0.094656877 0.43869871
0.0394313 -0.02160907 0.60467052
-0.1143833 -0.02559522 0.59505248
0.084507823 -0.02283797 0.47695231
-0.023416011 -0.02280274 0.49695179
0.062278271 -0.02168344 0.49819541
-0.1020739 -0.058964189 0.4748069
0.00314682 -0.020608591 0.58437371
-0.1173404 -0.1897532 0.5310064
-0.097310558 -0.048233058 0.46051511
-0.085121833 -0.024818931 0.43407461
-0.0325987 -0.32846519 0.3690947
-0.065335587 -0.01806635 0.56670398
-0.09124852 -0.17733879 0.42548579
-0.01524082 -0.1596528 0.43010801
-0.1200361 -0.2206699 0.58235002
0.052396361 -0.27102831 0.43622231
-0.066675983 -0.1827454 0.4274551
-0.093985677 -0.05190796 0.42375839
-0.07981649 -0.30216229 0.41722259
-0.08759959 -0.05676889 0.42104939
-0.051296432 -0.068047047 0.43359619
-0.094202742 -0.02674401 0.42889929
-0.019263601 -0.1223352 0.42855191
-0.1045977 -0.2341691 0.47592089
-0.1053238 -0.3006888 0.47912729
0.019822121 -0.2935901 0.42629811
0.059910331 -0.066733211 0.4449966
-0.087764651 -0.01928672 0.48386809
-0.046797961 -0.02259144 0.53050607
0.1038623 -0.02474946 0.47083119
0.1029982 -0.082915477 0.45106879
0.032952931 -0.025119331 0.4902291
0.032012191 -0.2256394 0.43460801
-0.01326302 -0.1121903 0.43483621
-0.00057688361 -0.22260959 0.43342519
0.04973045 -0.2018656 0.4389607
-0.06672737 -0.2028982 0.41971931
-0.104616 -0.086121619 0.4910785
0.0016253589 -0.29050931 0.43072239
-0.073042601 -0.1213373 0.42725959
-0.069656283 -0.080657542 0.42716801
-0.048528131 -0.29596189 0.4226636
0.071321987 -0.307219 0.43482229
-0.075159162 -0.07866475 0.42320651
-0.068416826 -0.1075914 0.42729589
0.1142507 -0.2090169 0.4473851
-0.086880192 -0.07634747 0.42295969
-0.081088357 -0.28229091 0.41702601
-0.1057955 -0.022954371 0.56069559
-0.1011952 -0.019643459 0.59499103
-0.1053008 -0.021551039 0.53236139
-0.1030058 -0.02897322 0.52072328
0.02553704 -0.01491642 0.63250589
-0.059335619 -0.022962751 0.53596252
-0.054269601 -0.021742251 0.53912312
-0.077252612 -0.023602551 0.56551069
-0.1135505 -0.20938049 0.54395169
-0.1125051 -0.2073065 0.52086401
-0.1105666 -0.25723729 0.51003343
-0.103591 -0.2011241 0.51046509
-0.1109232 -0.15916219 0.52669477
-0.1171126 -0.2889148 0.52927601
0.02982587 -0.02568662 0.57887203
-0.05130145 -0.02637491 0.50416148
0.1225104 -0.027655549 0.4570308
-0.04209343 -0.025118681 0.51661253
-0.1026068 -0.1208955 0.46970561
-0.030037871 -0.018614169 0.53097069
0.1095863 -0.2325419 0.4508751
-0.1041902 -0.1586556 0.4810499
-0.0037096441 -0.060386781 0.43468869
-0.078021757 -0.099787124 0.42474511
-0.039465889 -0.30935329 0.4210645
-0.1076766 -0.05698159 0.53329301
-0.067182153 -0.091247141 0.42406741
0.01223253 -0.025309229 0.58723742
0.037274871 -0.064916007 0.4402822
-0.0095928609 -0.040809479 0.4373295
0.075774252 -0.1030521 0.4440839
-0.02203792 -0.04631919 0.42739931
-0.036985312 -0.051375542 0.4322899
-0.036524668 -0.06043008 0.43331721
-0.070016697 -0.3241148 0.26679611
0.018419471 -0.02086073 0.4549191
0.017392751 -0.01461154 0.51881868
0.0051724608 -0.03433967 0.4730815
0.061434031 -0.1081953 0.44453591
-0.03207599 -0.1154222 0.4279362
-0.01623383 -0.158848 0.42814901
-0.05095249 -0.2367038 0.4233124
0.05468693 -0.2035398 0.44230291
-0.025001559 -0.2411693 0.4242346
-0.026524751 -0.2168663 0.42373851
0.060987379 -0.29553479 0.438692
0.007784843 -0.2708604 0.4302285
-0.0356462 -0.25323871 0.42005181
-0.02280849 -0.28086951 0.4242357
-0.080158353 -0.065820873 0.42342001
-0.01979935 -0.1295896 0.42530879
-0.031871442 -0.1023993 0.43145129
-0.032466769 -0.28303859 0.42690599
-0.092779547 -0.02204114 0.64405203
-0.093037382 -0.023159981 0.51591438
-0.088856071 -0.018182071 0.4993172
-0.1121516 -0.18348759 0.51888978
-0.1112607 -0.1513332 0.52914011
-0.106032 -0.2078968 0.48275301
-0.1241879 -0.15013701 0.5886094
-0.02393835 -0.03741267 0.43631369
-0.01331905 -0.089409143 0.43534309
0.101691 -0.3125357 0.4117876
-0.104334 -0.072606772 0.50102282
-0.079864793 -0.027759019 0.5430975
-0.091962531 -0.02244797 0.49695241
-0.1275053 -0.215368 0.64221478
0.094285518 -0.119998 0.44628769
0.002720743 -0.075412273 0.43609139
0.049298789 -0.22740351 0.44063509
0.016030399 -0.1798882 0.43501991
-0.089186519 -0.2427737 0.42190969
0.02867162 -0.01881066 0.57988727
-0.1042477 -0.067248791 0.50266773
-0.042618562 -0.053310011 0.43188199
-0.1030847 -0.06875962 0.50926071
0.1164308 -0.13629609 0.44748569
0.1236138 -0.2245656 0.44508469
0.1130981 -0.1069521 0.44940311
0.1107039 -0.1191297 0.44554201
0.07454893 -0.069355577 0.44440639
0.077561311 -0.15236489 0.4481523
-0.01233685 -0.29564181 0.41206291
0.02065355 -0.020869279 0.4421781
0.05874005 -0.081872277 0.441457
0.036196411 -0.026114261 0.438472
0.02214646 -0.033696059 0.43797919
-0.004389375 -0.037608951 0.4311904
0.0058486159 -0.32246751 0.31249341
0.02842686 -0.01905513 0.43541619
0.046825681 -0.02217236 0.4441835
-0.083831713 -0.32870021 0.25171509
0.02169165 -0.086043827 0.43938559
0.079507768 -0.086002767 0.44283181
-0.02252439 -0.23106369 0.42479739
-0.072525203 -0.2094512 0.4242757
0.1124271 -0.27440941 0.4434014
-0.03790389 -0.1014597 0.43508109
-0.001942605 -0.2557447 0.42922351
0.074242473 -0.26638669 0.43799439
-0.028680939 -0.19308721 0.43122879
-0.1328394 -0.30473101 0.62231648
-0.1208114 -0.1674936 0.61484009
-0.1230223 -0.2433587 0.59491891
0.01601699 -0.27570161 0.4266187
-0.033568949 -0.025416549 0.62107551
-0.061174929 -0.080325633 0.42307529
0.1041665 -0.1350468 0.4463644
-0.108158 -0.2018213 0.50927812
0.048393931 -0.28669691 0.43859139
-0.0029217899 -0.085125417 0.44159281
-0.1142536 -0.26809439 0.52215183
0.1239366 -0.02884361 0.4487482
0.2186829 -0.3267636 0.36057881
-0.1098855 -0.03207716 0.55970669
0.063214064 -0.3341597 0.43109509
0.238278 -0.32098281 0.37083891
-0.093578488 -0.3279174 0.284816
0.1225485 -0.32312611 0.3863633
0.0098196566 -0.3395578 0.40341941
-0.0081691444 -0.32493329 0.27701771
-0.050096381 -0.31695661 0.2872099
-0.042752121 -0.31774339 0.2204985
-0.05605736 -0.32260019 0.31082809
-0.0707362 -0.3304176 0.3252919
-0.036011789 -0.022587029 0.4402504
-0.081781402 -0.02078086 0.63159132
0.1072703 -0.03819897 0.4593555
0.087626159 -0.087814689 0.45022109
0.1078152 -0.1372982 0.44959569
0.065315694 -0.069221057 0.44760299
0.1063763 -0.027609371 0.4674435
0.078505009 -0.05807459 0.45330551
0.1191628 -0.043446161 0.4510406
0.1106338 -0.057812411 0.4510248
0.1090361 -0.088618673 0.45625809
0.094379537 -0.1396707 0.45397809
0.088589311 -0.1151069 0.44466031
-0.072832063 -0.025400201 0.59445089
0.05687793 -0.113758 0.4403111
-0.02654038 -0.073029339 0.43260899
-0.063222662 -0.024016909 0.63694519
-0.062816828 -0.1132445 0.4318032
-0.080631427 -0.068458319 0.42438951
0.01778692 -0.1014461 0.44023219
0.03203303 -0.1016805 0.44895369
-0.062226649 -0.086001337 0.43197089
-0.03499021 -0.052153312 0.43359569
-0.082703799 -0.080046467 0.42775151
0.1275878 -0.072463691 0.4617348
0.117507 -0.082393743 0.45461491
0.1223422 -0.14135391 0.45436031
0.1070648 -0.1590921 0.44994
0.101919 -0.2723358 0.44896141
0.095735788 -0.2218626 0.45111361
0.1002525 -0.204372 0.46404389
0.1226804 -0.25303301 0.45648289
0.087794527 -0.2426248 0.45058039
0.047858659 -0.2597619 0.42840829
-0.071238503 -0.2130053 0.42637071
0.01260665 -0.2767179 0.43516281
-0.044350389 -0.26661721 0.4295747
-0.054888021 -0.1341204 0.42418349
-0.01013231 -0.25295189 0.44059661
-0.02726509 -0.12809549 0.43714929
-0.088992313 -0.18405411 0.42630419
-0.089771807 -0.26679739 0.42067501
-0.019050021 -0.29073179 0.4304038
-0.00072777271 -0.221084 0.42994729
-0.088144898 -0.17252681 0.42830721
0.069708683 -0.3130905 0.44998991
-0.0021247859 -0.124571 0.44081941
0.05098182 -0.2538141 0.4308629
-0.02402222 -0.2211803 0.42673519
0.1226468 -0.2214776 0.4594202
0.01950985 -0.1190188 0.44235581
0.044761941 -0.16597231 0.434955
-0.050147429 -0.23656049 0.42136669
0.1052527 -0.2979866 0.44704869
0.1217294 -0.305554 0.44543049
0.1161599 -0.2372586 0.45676589
-0.01700571 -0.25413579 0.43385839
0.060299311 -0.25084841 0.44443959
-0.01604357 -0.12576459 0.43297571
0.1598662 -0.33457601 0.47961941
-0.061113968 -0.1482438 0.43027601
-0.01803234 -0.051165979 0.43164191
0.0086081624 -0.080035031 0.44287419
0.037059691 -0.063664109 0.43944809
-0.01128913 -0.021692351 0.45079589
-0.021405561 -0.02339891 0.50007892
-0.027113199 -0.076494902 0.43541089
0.081515647 -0.074952088 0.4528847
-0.0030880871 -0.082537197 0.44009021
-0.027202491 -0.1064491 0.43683711
-0.077900998 -0.1006004 0.4231239
0.0061192662 -0.1091203 0.43439719
-0.024158791 -0.02556739 0.47780651
-0.065332681 -0.094090782 0.42642829
0.062577084 -0.1067963 0.4418017
-0.059680101 -0.1344399 0.43509141
-0.063366413 -0.2714746 0.4285419
0.02198207 -0.19397759 0.4437913
0.078706518 -0.14920101 0.44386899
0.052157361 -0.2284205 0.43794689
0.087031439 -0.130885 0.45163479
-0.05530813 -0.24997009 0.425127
-0.055450141 -0.26406661 0.42503369
0.1040007 -0.02650458 0.59661919
0.078446217 -0.31816819 0.44211161
0.1279663 -0.18581919 0.45761839
0.25490841 -0.33959651 0.35135159
0.060644578 -0.2093958 0.4495112
-0.068269067 -0.080449313 0.42865121
-0.076979309 -0.208665 0.42320871
0.09963201 -0.19212671 0.45114601
0.023886491 -0.26371029 0.4452925
-0.0022821131 -0.31605971 0.4237552
0.056183111 -0.098534897 0.4435561
-0.066100217 -0.02973629 0.41558209
0.059659641 -0.2333627 0.44108859
0.02523124 -0.038187701 0.4418121
-0.025701459 -0.088012062 0.43256801
0.0205114 -0.02331293 0.50740677
-0.0079359114 -0.29254699 0.4277814
0.1020844 -0.1772718 0.45346379
-0.01444659 -0.2181287 0.44500649
-0.045288939 -0.020946549 0.5519402
0.01376426 -0.31163189 0.43980119
-0.040749371 -0.05412643 0.43035641
-0.0096170604 -0.094565287 0.43151641
-0.042879239 -0.094992436 0.431137
-0.067258269 -0.071524061 0.42696521
0.0088496665 -0.1660331 0.43467781
0.051268488 -0.19534589 0.4440096
0.017627239 -0.27798721 0.42759231
0.03876825 -0.17346621 0.44506091
0.1020361 -0.2052463 0.4524197
-0.084619157 -0.06238633 0.42891431
0.09653528 -0.02489448 0.46473369
-0.0086458027 -0.042215269 0.43679139
-0.077572897 -0.08993388 0.42767891
-0.02994569 -0.28669861 0.42771611
0.00029185411 -0.31035429 0.42149311
-0.078748457 -0.05541537 0.42493439
-0.086654559 -0.02626228 0.42788339
0.0069509889 -0.2437546 0.43072611
0.06137909 -0.08546371 0.44044641
0.073162027 -0.26100251 0.43488169
0.1181328 -0.17130969 0.4529644
0.1179325 -0.19567551 0.45252791
-0.02226937 -0.32946551 0.1933202
0.07814391 -0.30477649 0.44896781
0.064226583 -0.1733679 0.43985969
0.095219627 -0.1990703 0.48543531
0.078007407 -0.25177711 0.4393774
-0.03454268 -0.024734881 0.4451347
0.02466476 -0.2369854 0.4487147
-0.040605891 -0.025960211 0.57504952
0.069291338 -0.02431437 0.60784978
-0.1039863 -0.02900367 0.52648169
-0.1063322 -0.03021053 0.51699603
-0.099216864 -0.1137672 0.49454671
-0.059838489 -0.0272089 0.42877361
-0.1130517 -0.2693772 0.4844375
0.054699671 -0.074775517 0.44854161
0.1070194 -0.040190171 0.45847771
0.1094005 -0.1458969 0.4538998
0.01867865 -0.07482148 0.41939789
-0.15339629 -0.3316128 0.49807981
0.2413789 -0.33376801 0.377758
-0.134308 -0.3265467 0.62394339
-0.057528641 -0.084403947 0.42620769
0.040974502 -0.30896619 0.43978259
0.080563679 -0.02906581 0.45326149
0.1056977 -0.01713806 0.62096959
0.0344094 -0.061882231 0.44664109
0.099261001 -0.091494054 0.4495329
0.039742321 -0.02729826 0.44182599
0.039424341 -0.236937 0.44261551
0.1238853 -0.2933861 0.45831421
-0.034001108 -0.0280632 0.43106321
-0.038473669 -0.1599163 0.42995441
-0.096399188 -0.28102621 0.46565449
0.1254656 -0.3320162 0.44795811
0.1268228 -0.02003425 0.46587399
-0.019216301 -0.3266156 0.42239201
0.1981189 -0.3345409 0.54320198
-0.089999318 -0.2282619 0.4316512
-0.071633711 -0.1178974 0.42481139
-0.1233896 -0.2456754 0.61091489
-0.094604589 -0.037511881 0.45930919
-0.087234393 -0.043438379 0.42889699
-0.04123782 -0.038575489 0.43170369
0.1057713 -0.047292139 0.45059061
0.1024804 -0.18187749 0.44287291
0.061729029 -0.1930941 0.43637061
0.042508349 -0.25284031 0.438925
0.044997711 -0.27456051 0.4396871
-0.04168259 -0.02758264 0.51157171
-0.01085538 -0.25028011 0.42917201
-0.01388271 -0.27980721 0.43564719
0.0520592 -0.027325001 0.44908929
-0.1084791 -0.056815021 0.53419638
0.052269269 -0.3247962 0.435725
-0.1194529 -0.29231301 0.52588022
-0.060700819 -0.1554164 0.41787159
0.06149457 -0.3307054 0.4261041
-0.001411885 -0.068620168 0.439565
0.1011544 -0.02835064 0.5843823
0.110964 -0.0300762 0.45589161
0.098269418 -0.124268 0.44857499
0.1030592 -0.27852401 0.45571911
0.030225679 -0.064691968 0.42514491
0.01309197 -0.082103513 0.4564718
0.03364389 -0.26147541 0.43008181
0.1077185 -0.28779641 0.4494904
0.09036611 -0.30817461 0.44481301
0.02190135 -0.29062131 0.42916
-0.030830201 -0.026917901 0.5250088
-0.060366109 -0.1414037 0.4194774
-0.01327202 -0.1636672 0.43072551
-0.026875749 -0.1966774 0.43376431
-0.06066468 -0.2130904 0.42609751
-0.034461569 -0.063384347 0.43634281
-0.1249353 -0.19836161 0.62354833
-0.1093817 -0.1384861 0.54402971
0.1216207 -0.1118441 0.46109489
-0.007213145 -0.2363172 0.4390758
-0.054419551 -0.057475802 0.41941169
-0.118066 -0.1758834 0.62540448
-0.036958318 -0.28045359 0.42357561
0.095939472 -0.074299857 0.45136321
-0.080504984 -0.028961981 0.53672057
0.029234439 -0.32673281 0.451047
-0.0069321841 -0.027615299 0.43857199
0.1084125 -0.25668839 0.45296019
-0.037029639 -0.1170406 0.43474171
0.0079291463 -0.1973867 0.43474349
-0.093500502 -0.1946734 0.42614701
-0.01712871 -0.091066547 0.43404329
0.08852239 -0.017030889 0.59064549
0.074689999 -0.067133836 0.44704199
0.070156947 -0.2450926 0.44465849
0.071384981 -0.24148899 0.44230741
0.03824598 -0.2350457 0.44076031
-0.002355576 -0.27877221 0.417395
0.1233873 -0.25668481 0.45871931
0.1023295 -0.26510659 0.44237971
0.055631179 -0.1558588 0.44217691
0.05558027 -0.2485759 0.44568029
0.0028982011 -0.2634649 0.43487889
0.079494789 -0.2058773 0.44391939
-0.102359 -0.072170913 0.51090533
-0.033979069 -0.042935539 0.4321321
-0.1107584 -0.07545542 0.54877359
-0.024295511 -0.123248 0.4381274
-0.1067636 -0.1097981 0.52451241
-0.036981761 -0.25515991 0.4323819
0.0001261383 -0.28851229 0.4269155
-0.021250371 -0.03897094 0.43835691
-0.064003304 -0.27334991 0.41999581
-0.019395011 -0.28782201 0.45562199
-0.077023052 -0.1208858 0.4228549
0.081559077 -0.091133773 0.46560121
0.094156459 -0.028514709 0.4566817
-0.1323957 -0.31109619 0.62550563
0.1150099 -0.2599065 0.4423168
0.0036103129 -0.26647031 0.4334262
0.06827639 -0.028821491 0.45634571
-0.057517949 -0.04464858 0.43195489
0.091181949 -0.22214779 0.43394089
0.051719129 -0.16492081 0.43943429
-0.128078 -0.31218761 0.62787682
-0.122535 -0.2399836 0.60070008
-0.099291749 -0.26124409 0.46062329
-0.01400267 -0.172757 0.43047059
0.038265809 -0.2013474 0.43994161
0.1374613 -0.26155809 0.469789
-0.053008389 -0.1125942 0.42634141
-0.01990227 -0.30801299 0.42738271
-0.0028989171 -0.1792967 0.43406981
-0.034338851 -0.179051 0.42689651
-0.031723712 -0.3304767 0.36797091
-0.02724378 -0.16508409 0.43530491
0.1111631 -0.2149861 0.45523319
-0.079753682 -0.2151822 0.42039561
0.02209935 -0.26686019 0.43000939
-0.048984069 -0.2759839 0.42007539
-0.1387632 -0.3179855 0.57088768
0.1210311 -0.32840389 0.1849865
-0.00045093891 -0.04100268 0.43805951
-0.111634 -0.1042606 0.58175802
-0.1037319 -0.095367819 0.4952527
-0.086535163 -0.26914829 0.42984331
-0.097703516 -0.21123511 0.4670178
-0.1189066 -0.1215932 0.60282671
-0.1115237 -0.1217678 0.55099827
-0.1216936 -0.18594719 0.58336818
-0.1221277 -0.1985891 0.60994267
-0.1219474 -0.2229578 0.60239232
-0.118458 -0.074243903 0.6066215
-0.1033018 -0.089398153 0.49570239
-0.091074228 -0.1740844 0.43008709
-0.1046197 -0.072391331 0.50898987
-0.1232942 -0.19154041 0.58679003
-0.1185872 -0.1320224 0.62974429
-0.1226401 -0.13982961 0.64139122
-0.1151779 -0.2669735 0.52386171
-0.110985 -0.081350647 0.5496555
-0.1178501 -0.1144723 0.58112073
-0.1057777 -0.1910737 0.47245109
-0.123157 -0.1534126 0.59583181
-0.1091818 -0.064426959 0.55442101
-0.1175579 -0.1014161 0.58163911
-0.1189841 -0.089697361 0.61955869
-0.1193191 -0.1138197 0.63091338
-0.1108856 -0.077729553 0.56071663
-0.1241537 -0.1976864 0.6273368
-0.09428063 -0.1352524 0.45199299
-0.1166955 -0.1720559 0.56004238
-0.1207818 -0.2283714 0.6021347
-0.1063239 -0.079784296 0.50228298
-0.1049437 -0.05973798 0.51410449
-0.1190596 -0.079834878 0.636419
-0.127315 -0.26827061 0.61324298
-0.09540689 -0.057835881 0.4467788
-0.085569382 -0.20211589 0.42678651
-0.1194903 -0.2459989 0.56675088
-0.091222413 -0.26822171 0.4348163
-0.113095 -0.083175272 0.5621509
-0.1025999 -0.2099779 0.4731321
-0.1042057 -0.06043255 0.50441009
-0.1062472 -0.3072654 0.47852731
-0.1061882 -0.25739929 0.47620189
-0.1194355 -0.2101022 0.61946768
-0.1224705 -0.2414894 0.58282661
-0.099809349 -0.056328092 0.48310801
-0.1115894 -0.2179807 0.52506381
-0.1181458 -0.1094614 0.60155302
-0.1238595 -0.1076618 0.64589608
-0.1021459 -0.073699497 0.51463389
-0.1154866 -0.26500309 0.52913588
-0.1188586 -0.19409589 0.57523823
-0.1252905 -0.1998076 0.63372648
-0.1201025 -0.1895438 0.60573769
-0.117974 -0.1210378 0.57574022
-0.12521049 -0.27383539 0.59595883
-0.100255 -0.1977277 0.4602274
-0.098905087 -0.13801099 0.45552641
-0.099054404 -0.068960637 0.4947271
-0.099997878 -0.1692733 0.46950251
-0.1003483 -0.167487 0.47421229
-0.1007431 -0.099263221 0.45175409
-0.091210417 -0.30256751 0.42664179
-0.095813394 -0.15249351 0.43697959
-0.094459116 -0.095477372 0.44288439
-0.098454542 -0.089124233 0.45802891
-0.105858 -0.161557 0.52945191
-0.1151427 -0.26530921 0.55467212
-0.11621 -0.26473501 0.55261791
-0.1071828 -0.2087198 0.53220111
-0.1171604 -0.23598561 0.55366099
-0.112207 -0.26028749 0.51258087
-0.1180417 -0.2161729 0.55569798
-0.1117553 -0.14152139 0.52664453
-0.1117865 -0.28316069 0.50729913
-0.1158198 -0.20491379 0.53887051
-0.101209 -0.20032831 0.50238878
-0.1170517 -0.095291413 0.61710602
-0.1048732 -0.1871046 0.47717571
-0.099166691 -0.2236086 0.45861259
-0.101754 -0.1559457 0.47218129
-0.1032816 -0.1677644 0.48377311
-0.1001334 -0.1128337 0.50494909
-0.1043727 -0.1660378 0.52346581
-0.1125829 -0.2298765 0.54941291
-0.1080277 -0.29823589 0.48224699
-0.1135371 -0.154052 0.55736589
-0.121668 -0.27048609 0.56117892
-0.111326 -0.1374619 0.53466249
-0.1104288 -0.1709699 0.52857703
-0.1108797 -0.2644425 0.50290149
-0.1100866 -0.13266671 0.53377038
-0.1078656 -0.29394519 0.49609259
-0.1126155 -0.30938771 0.49624509
-0.1017123 -0.1799009 0.4715457
-0.085933089 -0.28890821 0.4237541
-0.1117253 -0.062412649 0.57931077
-0.1084774 -0.1564395 0.536066
-0.1245081 -0.31369001 0.6359362
-0.1044971 -0.085083812 0.5055837
-0.086182714 -0.32078689 0.42136201
-0.098240972 -0.108796 0.60348368
-0.101517 -0.25396961 0.45471621
-0.1077172 -0.22114331 0.4945581
-0.1176347 -0.1211108 0.59746689
-0.1028273 -0.2147442 0.48298779
-0.1221281 -0.1144764 0.60836917
-0.1131468 -0.078003317 0.58134753
-0.1175553 -0.1172195 0.61894459
-0.089793801 -0.098853439 0.42973569
-0.09645927 -0.06045723 0.45044121
-0.099424839 -0.1810734 0.458451
-0.094437003 -0.083481997 0.45790949
-0.110837 -0.2932688 0.51811433
-0.1125844 -0.2140004 0.55354518
-0.12533771 -0.1896181 0.61795849
-0.1148621 -0.27142441 0.49410191
-0.1264994 -0.2465803 0.62313002
-0.1053504 -0.1105026 0.47866979
-0.1244501 -0.214494 0.6264478
-0.1239309 -0.2271899 0.62200552
-0.1147439 -0.2308633 0.64560813
-0.1217401 -0.1878549 0.59903288
-0.1013871 -0.1303353 0.4641192
-0.1042942 -0.27903271 0.49115881
-0.1143003 -0.077553026 0.59713978
-0.1107405 -0.1807165 0.52804983
-0.1258755 -0.2991778 0.59358871
-0.093588769 -0.20696381 0.44027659
-0.1222482 -0.1141583 0.61330527
-0.111681 -0.13721579 0.55522871
-0.1123587 -0.1173973 0.55765218
-0.1124038 -0.1093841 0.64765948
-0.1131984 -0.079462558 0.64862621
-0.1084036 -0.26385021 0.64637101
-0.1073835 -0.1110242 0.64824867
-0.1248121 -0.31324071 0.63620919
-0.1193899 -0.30001959 0.62528932
-0.114751 -0.1895152 0.64881778
-0.1143894 -0.1699769 0.64910799
-0.1136447 -0.26843899 0.64099371
-0.070382603 -0.1551107 0.64908689
0.128305 -0.32723841 0.45078319
0.1627019 -0.3225008 0.139266
-0.1254167 -0.093364447 0.63197672
0.1116783 -0.1583897 0.59472293
0.1209885 -0.094968893 0.53765368
0.1153249 -0.1330353 0.57962
0.124954 -0.24910989 0.5239957
0.1260024 -0.25423309 0.4501467
0.1174224 -0.15873159 0.58565331
-0.1099592 -0.1892425 0.64571178
0.1217128 -0.19113471 0.58057231
0.1134733 -0.1027135 0.60556322
0.1225607 -0.2269417 0.55704498
0.1170764 -0.1229804 0.6027683
0.1289918 -0.1479464 0.4750216
0.1085282 -0.092276134 0.64753783
0.126311 -0.30892611 0.53171819
0.1213098 -0.1063851 0.55722082
0.1162688 -0.3043623 0.59712428
0.1104341 -0.058192041 0.63709229
0.1362046 -0.2629931 0.45587701
0.1155758 -0.2241731 0.62173861
0.1212864 -0.1979351 0.56830812
0.1224422 -0.1281694 0.52204359
0.1226323 -0.1292956 0.55598801
0.12664521 -0.26252449 0.55129868
0.1161056 -0.13961799 0.5932681
0.109088 -0.242872 0.49244511
0.1627689 -0.32536939 0.60091197
0.1169134 -0.072468817 0.57357103
0.12882 -0.1618472 0.460437
0.122932 -0.26460209 0.54987538
0.1294746 -0.21582229 0.4524236
0.1296058 -0.28660181 0.46400639
0.120101 -0.22513521 0.53889072
0.1164915 -0.16703419 0.5979175
0.1216532 -0.096504718 0.5386945
0.1202645 -0.151526 0.5861032
0.1251995 -0.1251525 0.52273178
0.1258339 -0.17531461 0.58563441
0.1167151 -0.1080866 0.57406348
0.1101016 -0.2089031 0.64614522
0.132948 -0.210899 0.45433679
0.13047691 -0.2128049 0.46961981
0.12773439 -0.1053354 0.46872851
0.1291531 -0.1057562 0.46186239
0.1229812 -0.26330331 0.46875611
0.12611701 -0.26177049 0.46189481
0.1273565 -0.32099709 0.46469399
0.13883279 -0.31633559 0.45312959
0.1171359 -0.057931568 0.55451
0.1177015 -0.113908 0.56184149
0.1129977 -0.1527378 0.6017229
0.1229419 -0.1556046 0.56342489
0.109864 -0.1050405 0.63637608
0.1126015 -0.1335329 0.58357668
0.1237487 -0.21899579 0.54074311
0.1197613 -0.1671135 0.53110671
0.1242082 -0.2019178 0.51820737
0.1173779 -0.2694926 0.57670128
0.1262005 -0.2064064 0.5197531
0.1089907 -0.073666133 0.63639432
0.1117934 -0.295845 0.62720191
0.1286397 -0.1256092 0.4825106
0.1245492 -0.2495476 0.52519888
0.13626631 -0.1713599 0.45759621
0.1186003 -0.076864213 0.55810142
0.1290161 -0.12691011 0.52830338
0.1296224 -0.1811616 0.48232651
0.1247473 -0.13432489 0.53699058
0.1153018 -0.1228034 0.60248989
0.1239918 -0.080770761 0.52704352
0.1359539 -0.31251109 0.45853931
0.1279642 -0.067939311 0.49090499
0.1242669 -0.064169198 0.51096302
0.1249432 -0.15231641 0.47727561
0.12914211 -0.1920215 0.48817009
0.14096969 -0.2438464 0.45515099
0.12961499 -0.16655309 0.50314617
0.1102992 -0.1695428 0.63030618
0.1180382 -0.14146499 0.56869769
0.1168368 -0.2099629 0.55851358
0.119781 -0.082739137 0.54423821
0.1340356 -0.3271907 0.51180279
0.113563 -0.16341271 0.58603752
-0.070628174 -0.1431188 0.64792901
0.1182222 -0.2499311 0.56424588
0.15245549 -0.32415199 0.59283841
0.1172727 -0.2169991 0.60386568
0.1108746 -0.065958589 0.62734127
0.12833659 -0.083318137 0.4592163
0.088220946 -0.3237755 0.1107442
0.1319236 -0.2782644 0.45474029
0.1215452 -0.12625641 0.55652648
0.1197358 -0.29175091 0.56727582
0.1210037 -0.30558959 0.5510965
0.1271331 -0.29021519 0.46163371
0.1285563 -0.1648051 0.47015589
-0.1156931 -0.076578923 0.64965183
-0.07006444 -0.2305184 0.63979572
-0.1048018 -0.26922801 0.6484651
-0.1130177 -0.07866323 0.64916682
-0.1168076 -0.19005109 0.64939368
-0.1231275 -0.29950029 0.63072008
0.096197821 -0.1867487 0.6495142
-0.12627649 -0.2804679 0.64781219
-0.1047278 -0.27596599 0.63871503
-0.1209086 -0.31606951 0.64166009
-0.1182537 -0.089800984 0.62192631
-0.107523 -0.1516891 0.53648877
-0.1108993 -0.078578293 0.59945309
-0.1137545 -0.16965351 0.61699808
-0.1074074 -0.21167959 0.53438509
-0.1124653 -0.28524899 0.51648313
-0.1137368 -0.27814871 0.63712889
-0.1119189 -0.1212565 0.59480548
-0.1171356 -0.21285529 0.61885858
-0.1045285 -0.1114709 0.55864471
-0.099481642 -0.075582214 0.49962559
-0.1171893 -0.062629104 0.6442678
-0.099640638 -0.061002519 0.51734388
-0.1040732 -0.093923964 0.51309347
-0.096405208 -0.1851192 0.45670599
-0.1064076 -0.20316391 0.52850091
-0.1181558 -0.114978 0.62975222
-0.1141764 -0.26938519 0.55650258
-0.1188286 -0.27354929 0.6108067
-0.1013848 -0.20271701 0.51067591
-0.1014701 -0.073443063 0.52823961
-0.094576299 -0.082508497 0.46826711
-0.1007631 -0.2264494 0.45755029
-0.1166356 -0.09904474 0.64161181
-0.1235046 -0.1927 0.58316052
-0.1165845 -0.104545 0.58172518
-0.1172055 -0.1434468 0.64119363
-0.097039402 -0.31551731 0.55975002
-0.096405208 -0.1035986 0.45536649
-0.1103027 -0.079125457 0.59183162
-0.099219829 -0.091176003 0.4999539
-0.095093913 -0.13714971 0.4489032
-0.108176 -0.1236707 0.55093151
-0.1167225 -0.24765509 0.58711141
-0.1204583 -0.2499775 0.62881333
-0.1176719 -0.191425 0.63855118
-0.1160087 -0.2238232 0.58956343
-0.1208073 -0.20161431 0.63641781
-0.1098124 -0.2176092 0.55754948
-0.1136886 -0.1198026 0.61151648
-0.097988069 -0.25802779 0.46972191
-0.1184837 -0.2300652 0.64148349
-0.094242267 -0.2810488 0.4457553
-0.1148853 -0.3134695 0.58612812
-0.112102 -0.1653475 0.62000942
-0.1054348 -0.1043405 0.56029791
-0.1104472 -0.08614701 0.64721513
-0.114276 -0.1442657 0.59335488
-0.099129021 -0.1797276 0.50824499
-0.1183166 -0.32055151 0.60334748
-0.094723053 -0.061662909 0.47720861
-0.096509039 -0.1727044 0.46736079
-0.095766842 -0.15488219 0.4768284
-0.092236944 -0.3184346 0.427342
-0.091105603 -0.2252418 0.43229419
-0.089986473 -0.27379629 0.43110189
-0.1157767 -0.1662257 0.56978279
-0.096886814 -0.1744519 0.47628179
-0.089479327 -0.18061469 0.42883801
-0.06334132 -0.27487069 0.424613
-0.087524511 -0.1726636 0.43024611
-0.099870987 -0.091926463 0.46791321
-0.06157865 -0.1278093 0.43186599
-0.186544 -0.3262538 0.28735319
0.003231019 -0.065369397 0.44563141
-0.067846887 -0.083398134 0.43022561
-0.0121332 -0.1625486 0.43489239
0.055733759 -0.26447189 0.44005299
0.0074605048 -0.2246666 0.43795401
0.1196316 -0.2156596 0.45117781
0.1078273 -0.086043857 0.45543301
0.041229121 -0.067695409 0.44403589
-0.028627859 -0.071189851 0.4321571
0.075814217 -0.31409001 0.43802121
-0.04830274 -0.29468179 0.42205361
0.085210487 -0.1312799 0.45433521
-0.029341999 -0.1050591 0.4360286
0.080937967 -0.1078508 0.45141029
-0.015716281 -0.1241606 0.4300749
-0.1081902 -0.15158559 0.53408152
-0.058966361 -0.26397231 0.42297211
-0.085410617 -0.079601534 0.4283241
-0.053151499 -0.1886891 0.42586321
-0.032245498 -0.31347591 0.42789531
0.246364 -0.32364359 0.33681509
0.064615764 -0.069257773 0.44918209
0.037240099 -0.22914299 0.43778741
-0.02718227 -0.1202058 0.4337911
-0.01896943 -0.249854 0.4322561
-0.054068569 -0.2469918 0.42460641
-0.060269449 -0.14526761 0.42861581
0.0034336371 -0.29031041 0.43295321
-0.066633113 -0.24718121 0.42446941
0.071614251 -0.23814461 0.4417319
0.1221104 -0.2856147 0.4519724
0.022023769 -0.25210881 0.4346759
0.0068395878 -0.077246517 0.44073081
-0.071949467 -0.1838582 0.4256469
-0.038875461 -0.1005885 0.43609369
-0.077018261 -0.1193086 0.42437291
0.1099832 -0.1423452 0.45125231
-0.03798883 -0.1606697 0.43158931
-0.074763149 -0.081191719 0.42236981
-0.04449223 -0.19333071 0.4333297
-0.01329562 -0.1329789 0.4291527
-0.1148201 -0.31017879 0.52046531
0.1207311 -0.1117962 0.45608839
-0.065271817 -0.09271583 0.4280107
0.1356647 -0.059482928 0.45686021
0.02718332 -0.085490793 0.44465631
0.01893061 -0.1175526 0.4402881
0.05968231 -0.2046659 0.44652241
0.1044899 -0.27335671 0.4515304
-0.030749051 -0.25936711 0.4220818
0.044659112 -0.25261879 0.44104439
-0.082672238 -0.055873659 0.42458341
-0.1184888 -0.17533959 0.62768239
-0.1011993 -0.238947 0.48327991
-0.079965867 -0.2453724 0.43502519
0.063225083 -0.084761918 0.4434571
0.03087621 -0.060006049 0.44788101
0.13004281 -0.064078838 0.44164309
0.057378091 -0.27432951 0.441118
0.064872481 -0.109022 0.44755039
0.0086457059 -0.3044548 0.4345375
0.040351991 -0.1106007 0.44538471
-0.022603139 -0.2189395 0.4260008
-0.058297671 -0.2213126 0.42341861
0.079422817 -0.27047589 0.44392231
-0.1047648 -0.31564659 0.47700539
0.1187309 -0.1710103 0.4536196
-0.00092695648 -0.21888261 0.42989811
-0.066138878 -0.1096413 0.42946261
-0.01847291 -0.28852409 0.43135229
-0.0091482252 -0.099049598 0.43909049
-0.1593651 -0.3224791 0.61434257
-0.1156646 -0.1049582 0.61112797
-0.077048972 -0.1013066 0.42742041
-0.0046235472 -0.083385743 0.44045699
0.097001217 -0.1055292 0.4524112
0.1327723 -0.3231895 0.46614161
0.05350611 -0.29752439 0.4429006
0.0025791379 -0.31992099 0.432924
0.034533489 -0.32673481 0.1560528
0.049761608 -0.32726851 0.13604359
0.048790809 -0.32713071 0.14542811
0.01901439 -0.32716301 0.1713836
-0.2116953 -0.3232255 0.29982361
0.084971197 -0.093162917 0.45216161
