# .PCD v0.7 - Point Cloud Data file format
VERSION 0.7
FIELDS x y z
SIZE 4 4 4
TYPE F F F
COUNT 1 1 1
WIDTH 1389
HEIGHT 1
VIEWPOINT 0 0 0 1 0 0 0
POINTS 1389
DATA ascii
-0.067934521 -0.3780635 0.5589987
-0.071990013 -0.19416849 0.56841022
-0.05384298 -0.2419401 0.52891451
-0.082974367 -0.22383849 0.59728467
-0.01844823 -0.32892251 0.43403429
-0.04287884 -0.098037302 0.50890893
-0.049639199 -0.14885481 0.52534872
-0.05952058 -0.20322791 0.54024112
-0.080505967 -0.30516121 0.58154488
-0.079200447 -0.3058435 0.57683128
-0.086857632 -0.23628139 0.61177713
-0.044329759 -0.1842934 0.52110332
-0.0567565 -0.1633096 0.53974873
0.144979 -0.094500713 0.54390073
-0.0455928 -0.169677 0.50981271
0.097885773 -0.095171437 0.58808082
-0.045450889 -0.3426457 0.50590628
0.01271786 -0.090970233 0.50292391
-0.05339887 -0.25998819 0.52178031
-0.05231962 -0.28032511 0.52960998
-0.02803804 -0.32930821 0.45627761
-0.019860459 -0.37764201 0.43710089
0.1550871 -0.094254263 0.48750851
-0.070021696 -0.2088096 0.5762527
-0.027586009 -0.093518041 0.47073501
0.1759205 -0.091233537 0.51060033
-0.03235976 -0.37010169 0.46112081
-0.01450845 -0.2290446 0.4290981
-0.02651676 -0.2492426 0.4518742
-0.01197464 -0.2304917 0.41378459
-0.01477893 -0.2573936 0.43060589
-0.04423441 -0.096458293 0.55143112
0.02530155 -0.093768321 0.42348981
-0.043823421 -0.1571414 0.50546628
0.065192707 -0.09354201 0.57344478
-0.026920529 -0.091212377 0.48296449
-0.002990633 -0.2990129 0.41151699
-0.01369352 -0.25992751 0.4287858
0.1054215 -0.094294049 0.6790117
-0.085892349 -0.25583819 0.61219943
-0.082222007 -0.36799091 0.60445923
-0.079646133 -0.247455 0.59570849
-0.052234881 -0.094528183 0.54560822
-0.0067923618 -0.17625099 0.4124257
-0.04946319 -0.3249045 0.51130831
-0.035379499 -0.29697049 0.47650439
-0.03851461 -0.32451439 0.4831962
-0.038212411 -0.3099176 0.48623329
0.012476 -0.091048717 0.63356358
-0.01020443 -0.23543569 0.41803139
-0.003152732 -0.18148591 0.41269329
-0.062162019 -0.30615649 0.54426187
-0.041120779 -0.2836346 0.48732841
-0.035720959 -0.1940266 0.4824768
-0.076827593 -0.27799401 0.57755047
-0.04414231 -0.14408889 0.51551259
0.096994199 -0.091433823 0.45450079
-0.0065029259 -0.1449258 0.4078232
-0.031262729 -0.36999899 0.45869169
-0.01454751 -0.094755881 0.4490647
-0.054832641 -0.1507775 0.53411919
-0.061167158 -0.2508949 0.54536933
0.006108202 -0.092870593 0.48389119
0.12559161 -0.094739988 0.46028411
-0.01331766 -0.1602242 0.4260684
-0.01060677 -0.3136155 0.41927999
-0.009776935 -0.1739296 0.4279871
-0.0087011755 -0.1627029 0.42126429
-0.001826081 -0.20428739 0.40800419
0.01593357 -0.094508998 0.59786779
-0.083215177 -0.2467986 0.61119902
-0.02251667 -0.15645321 0.43478689
-0.061644901 -0.27152959 0.55097222
-0.01145835 -0.1709417 0.43125981
0.065147363 -0.09046264 0.43015891
-0.065975137 -0.2091431 0.55470908
-0.0079140812 -0.093509316 0.41493401
0.01391101 -0.2307218 0.41234529
0.01983404 -0.2048694 0.4120501
0.0362124 -0.092427447 0.57214957
-0.026266349 -0.14926051 0.45130771
0.1605297 -0.09403082 0.60219848
0.0006967634 -0.090660661 0.40933341
0.067574367 -0.091212653 0.51123059
0.1144308 -0.30647799 0.4525241
-0.01127932 -0.31176671 0.4161253
0.003796563 -0.1470052 0.41767731
0.022095621 -0.16394719 0.41421071
0.003128201 -0.094446331 0.40673819
-0.02549237 -0.1414725 0.455327
-0.0026098939 -0.1127195 0.40595359
0.1899077 -0.1997083 0.48112389
0.1818931 -0.1712935 0.47543359
-0.038828339 -0.1118896 0.50073779
-0.050021779 -0.1604265 0.53034472
-0.001713187 -0.1589558 0.4060865
-0.0023331081 -0.28173509 0.4130325
0.1093496 -0.09353172 0.4521192
0.1848163 -0.216795 0.47817251
0.1153708 -0.3359018 0.4505198
-0.060778528 -0.1072057 0.55485833
0.01403314 -0.27192149 0.41352651
0.01691925 -0.2447471 0.41419181
0.1914967 -0.1678732 0.4825069
0.0085690618 -0.1727065 0.40681559
0.0096143186 -0.30304661 0.4112584
0.18403029 -0.094573103 0.489068
0.12907919 -0.33235589 0.45694309
0.085776262 -0.09137167 0.48046929
0.03476952 -0.091118038 0.4840858
-0.01155803 -0.1412296 0.4259015
0.060717162 -0.2667177 0.42934549
-0.023425231 -0.1454127 0.45006979
-6.767828e-05 -0.3637042 0.40681571
0.020096511 -0.28910851 0.42549929
-0.04958196 -0.25524709 0.51195318
0.089271717 -0.3179957 0.43863881
-0.0018467309 -0.1739592 0.40617749
-0.0041420939 -0.37299439 0.41132
0.003218845 -0.098317184 0.40603179
-0.0066104531 -0.1099852 0.4079079
0.063356772 -0.088275813 0.52629441
0.1331097 -0.1738026 0.46225011
-0.002755739 -0.32235551 0.4108617
0.1902179 -0.2121198 0.48176649
-0.04483619 -0.1100902 0.51042771
0.1492625 -0.094119146 0.48857471
0.1268729 -0.1325371 0.4508487
0.1829114 -0.098339736 0.4826659
0.1012328 -0.1575405 0.44413909
0.1718705 -0.2329071 0.47567081
0.0053733741 -0.23435649 0.4089343
0.024941411 -0.32607731 0.41480711
-0.069627553 -0.17133979 0.57438922
-0.080971077 -0.21019951 0.60647893
-0.038321111 -0.1636873 0.495846
0.041778021 -0.18871941 0.4214586
0.0099562183 -0.1079302 0.40744099
0.060025759 -0.091197908 0.52052629
0.099103414 -0.1235975 0.44354609
0.1912612 -0.1562537 0.4816905
-0.087300748 -0.33936051 0.61926508
0.1968352 -0.1244116 0.48548171
0.1149486 -0.099761218 0.44989491
0.1060274 -0.093442403 0.54136503
0.099306718 -0.091875158 0.4467468
0.1145599 -0.093152381 0.68685418
0.0051729982 -0.1302215 0.4089545
0.033024419 -0.092843123 0.428307
0.061149448 -0.33179581 0.4276756
-0.082841247 -0.28431591 0.61228621
0.03825682 -0.31637159 0.4215503
0.030345591 -0.25814179 0.4152526
0.023726691 -0.2148678 0.41690189
0.017769551 -0.2419651 0.41303799
0.0021049981 -0.2331235 0.4114359
0.01229881 -0.2275289 0.41167471
0.028189691 -0.1062453 0.41779211
0.121864 -0.1165177 0.45506489
-0.00092156598 -0.2056924 0.40963989
0.034410629 -0.1207286 0.41843081
0.0262751 -0.2863377 0.41842729
0.078904264 -0.089113757 0.48873401
0.0097217709 -0.2019611 0.40874919
0.1743803 -0.1395686 0.4748669
0.2003911 -0.1454867 0.48848179
0.1389049 -0.1491712 0.46425959
0.0497724 -0.089929961 0.43616471
0.089018598 -0.1261117 0.44435519
-0.026934011 -0.2398767 0.45790529
0.03217477 -0.2090086 0.4189277
0.1560818 -0.2235667 0.4724021
0.0047562118 -0.15417311 0.40833309
0.17273 -0.2530483 0.4810884
0.034897588 -0.088279113 0.63251632
-0.043511819 -0.2292165 0.50429428
-0.02231475 -0.094826996 0.46250239
-0.01521808 -0.3515251 0.41665661
-0.059627071 -0.1879366 0.54726923
0.030389771 -0.093462877 0.61736947
-0.019881301 -0.2383434 0.44254711
-0.04711999 -0.094722763 0.52996308
0.049426481 -0.096357897 0.4273603
0.093451038 -0.35474321 0.44155449
0.096961632 -0.1518532 0.4464297
0.050561 -0.3758029 0.42724931
0.0049600229 -0.1815642 0.40897009
-0.004739068 -0.1001027 0.41132581
0.019155821 -0.27734101 0.41286859
-0.005186751 -0.1457146 0.41049221
0.097141221 -0.26803231 0.44816369
0.1459056 -0.20493799 0.46744031
0.14920349 -0.1065243 0.46723041
0.0025500511 -0.1210205 0.4064464
0.1053094 -0.092672519 0.53587598
0.1752001 -0.096457869 0.56517857
-0.083938397 -0.1142445 0.6181519
-0.073800527 -0.1019617 0.59315598
-0.032411341 -0.096570842 0.4898302
-0.038524751 -0.1199344 0.4963156
-0.083455309 -0.096660838 0.61263251
0.1086037 -0.095877461 0.45101759
0.1219241 -0.093688667 0.45634511
0.052433211 -0.1195927 0.427589
0.1754031 -0.095453791 0.4784151
0.1849312 -0.19258671 0.4822138
0.1028331 -0.1117069 0.45359159
0.1828303 -0.26428619 0.47967261
0.090007648 -0.2369868 0.44253409
0.1823889 -0.24760249 0.47752431
0.024268091 -0.2000584 0.41304371
0.19019 -0.2592189 0.48359019
-0.018161429 -0.21900959 0.43844339
0.1886501 -0.32628831 0.48333699
-0.026292359 -0.093179248 0.60516232
-0.036130749 -0.090062194 0.64004719
-0.076793604 -0.091718249 0.59948301
-0.036297102 -0.087528817 0.65191948
-0.0729554 -0.1633179 0.58168483
0.033232938 -0.092638299 0.5923872
0.0091714188 -0.1169737 0.4086723
0.082570337 -0.2598767 0.4415676
0.078983173 -0.29758799 0.43967351
0.0052990909 -0.095193967 0.63154322
-0.03726748 -0.13701759 0.4900274
0.097784638 -0.1187331 0.449276
0.16842 -0.092647642 0.47477421
-0.0023706181 -0.22840101 0.40290549
0.1093214 -0.20682681 0.45338809
0.046150189 -0.092402227 0.49195781
0.02355844 -0.28359589 0.4185394
0.1987575 -0.17044701 0.49957851
-0.070940293 -0.1836129 0.57250232
0.054888919 -0.3227267 0.42718971
0.0030723959 -0.1333915 0.40460879
0.197028 -0.2148976 0.49828979
-0.01254147 -0.18683159 0.4307273
-0.026301229 -0.1626472 0.46484369
0.18934201 -0.2390876 0.48094451
0.1987289 -0.27801061 0.49132019
0.008996509 -0.28023031 0.4108319
0.069634363 -0.092987813 0.60063457
0.055373982 -0.2596086 0.42852151
0.0096193701 -0.15793391 0.40877309
0.1471415 -0.125017 0.47379011
0.1071311 -0.22353271 0.44915041
0.066162482 -0.28409329 0.4369278
0.1923323 -0.1834828 0.4856461
-0.006528459 -0.2257162 0.41323
0.1583875 -0.3729229 0.47322491
0.181302 -0.22387999 0.48857051
0.13334469 -0.128139 0.45820221
0.05693306 -0.2205942 0.4323163
0.00072723627 -0.37814221 0.40802559
0.14145391 -0.1309167 0.46545529
-0.01137173 -0.090064257 0.49041489
-0.0046142042 -0.22587781 0.40869451
-0.02811867 -0.094120122 0.48436761
0.0031248929 -0.228122 0.41160679
-0.01870415 -0.32463959 0.42812991
-0.047507972 -0.2292818 0.52455157
-0.052225079 -0.2422844 0.52717382
-0.05431002 -0.18284351 0.51892018
-0.0095158219 -0.092493393 0.46280321
-0.028402509 -0.37439081 0.46004051
-0.01467997 -0.22638831 0.41301921
-0.048404962 -0.33524531 0.50172931
-0.02043933 -0.2189794 0.4271073
-0.04942381 -0.37059021 0.50118053
-0.079466127 -0.20616341 0.58717477
-0.057071861 -0.33546031 0.52989668
-0.050489958 -0.1488746 0.52374899
-0.042307381 -0.20306329 0.49828419
0.01471382 -0.092380486 0.50337088
-0.066470921 -0.17167 0.51651227
-0.064515412 -0.2077601 0.55197883
-0.077218443 -0.2970123 0.57689959
-0.039556321 -0.2236041 0.4803957
-0.037382539 -0.25578779 0.48713779
-0.05765349 -0.37388381 0.52782112
-0.06091297 -0.2484688 0.54225212
-0.072005481 -0.204375 0.56819689
-0.080286257 -0.2433251 0.58940393
-0.065295339 -0.2980656 0.53759211
-0.044202331 -0.097649843 0.5061003
0.060771231 -0.09262377 0.50629091
-0.029770309 -0.089967847 0.57222003
-0.047376961 -0.1651212 0.50591159
-0.074385367 -0.2104397 0.58198518
-0.054360569 -0.2144116 0.52425468
-0.067002952 -0.2146083 0.54522842
-0.02142268 -0.3705155 0.43422821
-0.045618679 -0.24032959 0.49656919
-0.02020758 -0.249944 0.4267664
-0.029013479 -0.37278679 0.4634729
-0.02826044 -0.3272129 0.4540813
-0.049202438 -0.2267517 0.51445609
-0.069312237 -0.37236911 0.55616689
-0.068127267 -0.33986831 0.55445468
-0.075696707 -0.2765322 0.57269901
-0.059397072 -0.2578592 0.53815812
-0.077551126 -0.2187597 0.5824762
-0.078338921 -0.19588961 0.59047341
0.1065698 -0.093139507 0.63771522
-0.01347154 -0.09932293 0.4256151
0.15907981 -0.094499543 0.55933702
-0.01803166 -0.32219839 0.42610061
-0.070651017 -0.1679665 0.56987512
-0.080238521 -0.1698861 0.59902239
-0.078264713 -0.37248459 0.58168632
-0.01794708 -0.2078976 0.4396126
-0.02692881 -0.34341219 0.44625479
-0.080497243 -0.32821569 0.57113659
-0.072397888 -0.095130913 0.5764727
0.1443487 -0.09490253 0.54182458
-0.01404706 -0.094976023 0.42653939
-0.033012751 -0.2385788 0.4639163
-0.061066091 -0.196629 0.5366919
-0.07054925 -0.1946277 0.56776649
-0.05810919 -0.159904 0.53703541
-0.083805352 -0.35166469 0.60931468
-0.069464266 -0.31560591 0.55189931
-0.082140803 -0.2779046 0.60596502
-0.041762859 -0.28053859 0.4836745
-0.05080441 -0.33198169 0.51233649
-0.04610702 -0.18282311 0.50168502
-0.04939732 -0.13392191 0.52703089
-0.043136392 -0.1493347 0.50486618
-0.076368362 -0.26026151 0.55431628
-0.083128303 -0.3556703 0.59791023
-0.083518296 -0.28657809 0.59643722
-0.029211851 -0.1050625 0.45976219
-0.015889971 -0.12656701 0.4286527
-0.060792949 -0.2847161 0.53692639
-0.072604693 -0.2185061 0.56244951
-0.01476672 -0.109533 0.42908731
0.080948859 -0.095588371 0.58601671
-0.0232586 -0.28546381 0.44172329
-0.017533479 -0.1950639 0.43194631
0.02863881 -0.092805758 0.46912411
-0.02301079 -0.099139944 0.45249781
0.026464131 -0.093356647 0.5635938
0.040002581 -0.091103993 0.57847369
0.001786649 -0.092281543 0.50402248
-0.038752232 -0.22256739 0.47925669
-0.038786709 -0.195748 0.48451349
-0.068782002 -0.1359458 0.56352693
-0.059120029 -0.1610209 0.53938472
-0.074611753 -0.22946189 0.56813812
-0.040019508 -0.19988079 0.49898279
-0.077956647 -0.29334971 0.5736202
-0.073233306 -0.1913332 0.57153189
-0.051457379 -0.3590866 0.51657712
-0.046081189 -0.2049811 0.50552648
-0.043655541 -0.2231549 0.50083268
-0.050340589 -0.31465691 0.51490402
-0.038097382 -0.2217437 0.48949739
-0.05432627 -0.36207739 0.52147382
0.1794249 -0.094172217 0.51540917
-0.085348487 -0.25765359 0.60412532
-0.064569123 -0.2452248 0.55367899
0.026031669 -0.095972463 0.42568099
-0.065820657 -0.13614529 0.55726749
-0.058225539 -0.19119661 0.53879118
0.08473745 -0.090434983 0.50826049
-0.028637471 -0.116758 0.4561666
0.1815016 -0.094643399 0.50166148
-0.0582099 -0.17190529 0.53647989
-0.001178056 -0.086660013 0.47632381
0.120851 -0.094334319 0.62410939
0.16877989 -0.095325463 0.51696748
0.02162331 -0.091536723 0.58989888
0.1554992 -0.093563601 0.53668052
-0.029946329 -0.1063105 0.45629811
0.025081551 -0.091725692 0.60872018
-0.043650951 -0.089103393 0.59762633
0.020615879 -0.089582428 0.6350587
-0.0159775 -0.087659732 0.58341938
-0.074840426 -0.16869339 0.57983983
-0.043443561 -0.25182399 0.4922798
-0.075887561 -0.29840299 0.58834869
-0.054269642 -0.32749829 0.51776779
-0.0552136 -0.2008296 0.52739513
0.083370604 -0.090691023 0.67290121
0.1761665 -0.093543872 0.52349031
-0.021193329 -0.1080155 0.44130611
0.1623873 -0.09396933 0.49796331
0.073411427 -0.090634152 0.5652383
-0.084648252 -0.17374951 0.60172188
-0.043379489 -0.2329096 0.49787459
-0.06264469 -0.28761241 0.5387224
0.099342547 -0.092400797 0.5129813
0.00050717592 -0.090778932 0.46070859
-0.055631731 -0.1221939 0.53291053
-0.074999422 -0.2328818 0.57078272
-0.086498618 -0.2470631 0.59922278
-0.063207537 -0.23502859 0.54637408
-0.047099471 -0.19404189 0.51125091
-0.078662537 -0.1269225 0.58639258
0.15494379 -0.094064638 0.53130978
-0.02320656 -0.23924451 0.43903741
0.019860061 -0.091167107 0.50895047
-0.007752717 -0.091059819 0.42514089
-0.01278639 -0.093254492 0.43346891
-0.03541502 -0.101384 0.48317981
-0.01635471 -0.2169688 0.4323281
-0.01936519 -0.3393673 0.4312501
-0.0068099499 -0.1944717 0.41083771
0.060166448 -0.091134287 0.55702078
0.027403951 -0.090477541 0.55746299
-0.018119249 -0.095250137 0.59550327
-0.016992331 -0.2302366 0.41368821
-0.05693898 -0.32424271 0.52258807
-0.073580563 -0.2038582 0.57976967
0.091305703 -0.092536971 0.53826201
0.1508828 -0.092192933 0.59426469
-0.023736861 -0.2162326 0.4431273
-0.032827999 -0.29526141 0.4583216
-0.020746199 -0.36035809 0.43748921
-0.029288139 -0.3133764 0.44786891
0.061369929 -0.089447267 0.45819211
-0.01362035 -0.092255637 0.59917581
-0.04971239 -0.1442892 0.51795667
-0.075993538 -0.1740614 0.58522302
-0.02229348 -0.27867901 0.44140831
-0.076059461 -0.14015929 0.58523113
0.083186887 -0.092718683 0.58005458
0.0081725419 -0.092145041 0.52490503
0.143418 -0.091801003 0.59935641
-0.0280948 -0.24275251 0.45553279
0.1103985 -0.094086751 0.65676779
-0.02354249 -0.09150435 0.47072759
-0.033719119 -0.092560567 0.58657038
0.55230558 -0.1955187 0.56571883
-0.077477843 -0.1003799 0.58213037
-0.084249943 -0.3679665 0.61427081
-0.02207401 -0.32297581 0.4436686
-0.032332689 -0.37551501 0.45062289
-0.02563986 -0.26440331 0.4457587
-0.023216279 -0.091246709 0.62808818
0.61031592 -0.093614087 1.062516
0.57739317 -0.2029746 0.55102903
0.1059802 -0.092511341 0.59338468
0.091013037 -0.092104331 0.5293147
0.1281172 -0.09373711 0.56531352
-0.025042741 -0.29193571 0.4529742
-0.02810487 -0.29065421 0.4552907
-0.0051223929 -0.2976988 0.41113061
-0.025174171 -0.25361949 0.45114741
-0.02380899 -0.1460399 0.4495042
-0.003828228 -0.26197851 0.40906429
-0.024803311 -0.23470239 0.45034689
-0.01931438 -0.22822849 0.42121229
-0.05215973 -0.089536861 0.61100107
0.016093761 -0.091915593 0.60046709
-0.085594088 -0.1426065 0.61016089
-0.080426224 -0.088570043 0.59400779
0.038073178 -0.087387577 0.60053122
0.1255822 -0.09091194 0.63654703
-0.061037119 -0.1207035 0.53581178
0.079426378 -0.092345789 0.64374328
-0.07916078 -0.37034121 0.58524251
-0.088320456 -0.2390371 0.58797932
0.01883656 -0.090393528 0.61939889
-0.054325972 -0.1018078 0.52192807
0.1239722 -0.091970041 0.6105088
0.1335097 -0.094778202 0.60216212
-0.01270905 -0.094005629 0.4729329
0.57377958 -0.1539207 0.55114222
-0.039246801 -0.25346109 0.4736155
-0.03920171 -0.29906711 0.48340511
0.1230003 -0.09625487 0.46982059
0.58185083 -0.195622 0.52022129
-0.009204179 -0.27475429 0.41560891
-0.049473021 -0.28977981 0.50740153
0.095224291 -0.089887097 0.52738678
0.1174707 -0.094745047 0.55828547
0.042819262 -0.088974133 0.47669789
0.1129885 -0.094757959 0.57014632
-0.01491982 -0.1318793 0.42332599
-0.025602041 -0.1209459 0.45072019
-0.02595198 -0.17604759 0.45186701
-0.015803579 -0.15563101 0.42517421
-0.02467066 -0.17544401 0.44952521
-0.0086493194 -0.14502341 0.40649241
-0.02481696 -0.143995 0.44795451
-0.0076421201 -0.16668069 0.4095324
-0.0072777569 -0.16646659 0.40861201
-0.02434996 -0.37881789 0.430094
-0.016796321 -0.1682969 0.42474231
-0.02572057 -0.2374808 0.44430721
0.1185969 -0.097552113 0.65072089
-0.056588259 -0.096426353 0.5304063
-0.055909961 -0.093486227 0.52782571
-0.066452622 -0.1306455 0.56651551
-0.052652329 -0.089877889 0.5597381
0.14207929 -0.090401933 0.61482209
-0.04760471 -0.089442633 0.56518072
-0.078772433 -0.1463201 0.58500022
-0.080092728 -0.1477966 0.58733177
-0.078918926 -0.18912859 0.59213471
-0.047231469 -0.1490211 0.50680578
-0.022206631 -0.1598627 0.43746439
-0.070564389 -0.1173628 0.56812191
-0.079882286 -0.1632856 0.5901835
-0.072825551 -0.1232717 0.57511038
-0.018602461 -0.1731609 0.4311755
-0.057975799 -0.1082604 0.53497082
-0.076672763 -0.1223022 0.58155012
-0.067717023 -0.1232912 0.55865902
-0.080854543 -0.1813954 0.58878618
-0.04060569 -0.31656301 0.47830391
-0.081475534 -0.12852681 0.592695
-0.022879809 -0.1835504 0.44273281
-0.06749177 -0.1160779 0.5615958
-0.050165441 -0.36030641 0.51069063
-0.072973669 -0.21164361 0.56644309
-0.079319634 -0.2472174 0.57673508
-0.076675437 -0.3180733 0.5777548
0.13386799 -0.096044227 0.61675942
-0.080880217 -0.13672911 0.59445322
0.1566985 -0.095727131 0.5845629
-0.01476246 -0.1361036 0.4232187
-0.037442829 -0.19752949 0.47997731
-0.022994131 -0.1591156 0.43640131
-0.01358598 -0.1387375 0.40952379
0.060457502 -0.089483961 0.62395871
-0.035683598 -0.091367587 0.62634808
0.01978117 -0.091304757 0.57686961
-0.040562179 -0.092770167 0.61975437
-0.086807698 -0.31197491 0.60147017
-0.059477299 -0.2230442 0.53383738
-0.026614491 -0.34643531 0.44497269
-0.064272054 -0.1997631 0.53504872
-0.054753929 -0.1803368 0.52750099
-0.043891791 -0.31528139 0.4958854
0.01345944 -0.090199813 0.52077079
-0.05966628 -0.1185291 0.54167551
-0.081252873 -0.1051702 0.59952009
-0.01949212 -0.09218286 0.46132451
0.55849409 -0.2102343 0.55996817
0.51330459 -0.2102022 1.057788
-0.01011574 -0.2729699 0.4036319
-0.059896201 -0.34075239 0.52165341
-0.018496539 -0.34610769 0.43984881
-0.066998959 -0.2896044 0.55106038
-0.079184063 -0.2383268 0.59116608
0.1530003 -0.094433203 0.56243181
0.56830877 -0.19759589 0.54129308
0.01329499 -0.093464062 0.50024402
-0.043103959 -0.1822793 0.47410449
-0.018483611 -0.1871838 0.4255465
-0.02043906 -0.088078476 0.54308659
0.09605971 -0.093067206 0.59615988
-0.080550671 -0.35066929 0.6238699
-0.082066417 -0.32564881 0.61268812
-0.089311838 -0.3762621 0.61297947
-0.086509109 -0.33494201 0.60898149
-0.041242179 -0.2401084 0.48942259
-0.060233001 -0.270542 0.54790962
-0.052092079 -0.31763649 0.50607133
-0.076338202 -0.29862049 0.56678241
-0.070804797 -0.36465409 0.56422222
-0.017235819 -0.1166116 0.4296816
-0.0212087 -0.2378801 0.43306881
-0.021847811 -0.31530729 0.43705821
0.031416889 -0.087795027 0.467015
-0.081918754 -0.36217239 0.62832397
-0.0194405 -0.29327941 0.43020591
-0.077569634 -0.25831699 0.56894213
0.14029481 -0.1081968 0.47133201
0.053513139 -0.091082498 0.47020751
-0.02650273 -0.28352731 0.44637221
0.62701881 -0.1805478 0.6234684
0.68475258 -0.37701169 0.2749334
-0.016975731 -0.1160053 0.4348442
0.081873089 -0.091997668 0.4507345
-0.054657642 -0.31133199 0.52036029
-0.01499906 -0.2021791 0.41956061
0.56733787 -0.3683162 0.34354079
-0.03882635 -0.09417434 0.48390451
-0.02310914 -0.127931 0.44086021
-0.02917343 -0.097316727 0.58265972
-0.07214129 -0.36060259 0.63566983
-0.079270452 -0.091874972 0.59180093
-0.086638868 -0.25052801 0.61584622
-0.02992567 -0.094994619 0.4833453
-0.083334118 -0.31980509 0.61980242
-0.074884437 -0.1204182 0.62248981
-0.016284879 -0.1004216 0.4465777
0.01244918 -0.3342464 0.67261869
0.051094551 -0.289814 0.68143213
-0.047785219 -0.37789881 0.64720279
-0.088585421 -0.28342631 0.61655009
-0.04211152 -0.15813351 0.63809627
-0.024530111 -0.0906993 0.57001531
-0.086509623 -0.1126868 0.60497981
-0.052899212 -0.19971 0.63495588
-0.03314659 -0.16969091 0.64475328
0.006732523 -0.16694801 0.65131342
0.099881344 -0.27182561 0.701065
0.057375729 -0.19092131 0.67394477
0.01262534 -0.186938 0.65890801
-0.081922278 -0.2930043 0.6182605
-0.068689823 -0.096845999 0.62533981
0.0077720881 -0.09615919 0.64841509
-0.040643111 -0.091861099 0.63319588
-0.03271332 -0.088097744 0.62553191
-0.085619971 -0.2664341 0.61447817
-0.029644489 -0.1232299 0.64065748
-0.047679439 -0.1582326 0.63272512
0.069885947 -0.36189499 0.69435853
-0.0036896169 -0.13063531 0.64808577
0.02553427 -0.14553159 0.65984178
0.01548958 -0.1686502 0.65672612
-0.081491232 -0.3124021 0.62115711
0.075596184 -0.3109276 0.69756472
-0.074809551 -0.1114188 0.61651981
-0.067534924 -0.2239691 0.62903672
-0.057439771 -0.2858299 0.63424653
-0.040261481 -0.17670961 0.63276052
-0.044259489 -0.2257155 0.63841152
0.067308716 -0.2887184 0.6833055
-0.025025871 -0.28982329 0.45187539
-0.069785088 -0.1674072 0.56765968
-0.088104039 -0.22658589 0.6096043
-0.04859883 -0.093070976 0.60593158
0.1331559 -0.096133173 0.6140874
0.046287041 -0.35390699 0.68227857
-0.036609951 -0.1198403 0.63902003
-0.069984972 -0.1054551 0.62288117
-0.032752499 -0.3682929 0.64936292
0.022207711 -0.34674549 0.67246449
0.0372594 -0.1931151 0.66384041
-0.003226191 -0.33738059 0.65366048
0.044454809 -0.2300221 0.67062342
-0.01971948 -0.22702479 0.64052588
-0.076147623 -0.21304519 0.62473541
-0.02559508 -0.31327271 0.65014291
-0.0086845458 -0.30348241 0.65398812
0.0564293 -0.17280599 0.67523462
-0.041461799 -0.1898431 0.63799912
-0.041784089 -0.1373796 0.63688582
0.1093546 -0.096372902 0.57780051
0.064399809 -0.2292427 0.68255508
-0.037636582 -0.1524193 0.63474852
-0.076577187 -0.27232781 0.6156019
-0.0084799528 -0.1805975 0.6458537
-0.072095834 -0.35111609 0.63105631
0.089637518 -0.09340933 0.57767391
-0.063078433 -0.18981969 0.62858182
0.059964981 -0.1390619 0.67328417
0.56901199 -0.21321291 0.56527609
-0.052074399 -0.1859725 0.62862349
-0.02599618 -0.27016541 0.64530897
0.06171814 -0.19256639 0.66894299
-0.0049484968 -0.134802 0.65018767
0.031883419 -0.147094 0.66565549
0.021101059 -0.28484049 0.66643149
0.06084609 -0.1853049 0.6736418
-0.0094065666 -0.0926314 0.64517099
-0.060763448 -0.33992639 0.63209963
0.020811019 -0.094398022 0.42389199
-0.0779856 -0.23838151 0.62050372
-0.07908693 -0.32918009 0.62424451
-0.078399584 -0.25206661 0.62149781
-0.086154848 -0.219952 0.61771113
-0.03549093 -0.1131727 0.63800567
-0.0296143 -0.17451181 0.64432371
0.01592645 -0.37085319 0.67071313
0.003381073 -0.2260574 0.65182328
-0.072372667 -0.19418821 0.62661618
-0.046208501 -0.16811471 0.62867588
-0.06776835 -0.1501769 0.62595749
-0.035940021 -0.13172939 0.63551569
-0.028863151 -0.1335461 0.64198631
-0.052404821 -0.25624919 0.62990183
-0.041841689 -0.3292399 0.64265722
0.080123037 -0.20088629 0.68609071
0.03783365 -0.29793161 0.6740976
0.01485288 -0.26311749 0.65439588
0.018542079 -0.29240799 0.6680702
-0.035760552 -0.24005181 0.64572781
-0.066786833 -0.33707261 0.63313168
-0.073529176 -0.25596601 0.62804091
0.075967006 -0.092163622 0.4639729
-0.068493843 -0.2439222 0.55036718
-0.085679382 -0.1079165 0.61281037
0.089629769 -0.091963351 0.66575861
0.055737291 -0.095214337 0.48476079
-0.0085492432 -0.093051016 0.57800788
-0.084521279 -0.2057972 0.6200906
-0.02732623 -0.24776781 0.45522851
0.57006532 -0.19981711 0.54927051
-0.04188988 -0.091893017 0.61584657
0.069330104 -0.092231393 0.66663659
0.049747352 -0.1204246 0.66791648
-0.037687879 -0.30694589 0.64395827
-0.071535647 -0.2083468 0.62754959
0.02624503 -0.143755 0.6578179
0.016328661 -0.36529309 0.67231143
0.004278034 -0.1638294 0.65147293
0.007889837 -0.32673031 0.65947032
-0.05848876 -0.1481501 0.62606239
-0.0004466176 -0.37464759 0.66313332
0.04992431 -0.1297989 0.66821313
-0.075285457 -0.1044445 0.61883843
0.063644677 -0.1188328 0.67804742
-0.054875311 -0.2642037 0.63315952
0.060768809 -0.095863342 0.43744481
-0.05671382 -0.37600529 0.63592678
0.041062329 -0.094509266 0.6633175
0.08260563 -0.32927811 0.69584107
0.082681358 -0.3389872 0.69827539
-0.0057583749 -0.1499134 0.64666343
0.021215079 -0.33219531 0.66982287
-0.006921947 -0.093448043 0.4602493
-0.087275296 -0.2104484 0.60891831
0.1150106 -0.097577721 0.47068799
-0.050897151 -0.08788757 0.58148253
-0.073049009 -0.2453205 0.62762117
0.00083693862 -0.091933943 0.4756088
-0.081643522 -0.14073621 0.61169922
0.061192568 -0.099176884 0.67050678
0.05279455 -0.1036307 0.67064518
-0.02347767 -0.094266891 0.55902338
0.02388072 -0.091093361 0.63810301
-0.057547148 -0.089497954 0.61390489
0.067766011 -0.093619138 0.62243563
-0.032818969 -0.082954988 0.6311028
0.1117332 -0.094763957 0.52027231
0.049950179 -0.086307913 0.66272879
-0.065754473 -0.093889773 0.62000108
0.042634841 -0.2304965 0.67153758
0.049642559 -0.3223207 0.67300862
-0.034097429 -0.36526129 0.65067852
0.099230587 -0.3192071 0.69470012
-0.05878216 -0.1960271 0.62408018
0.001334697 -0.1462885 0.65383202
0.057084858 -0.34014401 0.68574452
-0.047403689 -0.2998575 0.63686568
-0.01207179 -0.27332631 0.64632142
0.050376151 -0.1288342 0.66356879
-0.048815008 -0.2251896 0.50392741
0.016113341 -0.2318563 0.66342968
0.006670475 -0.2202564 0.6525166
-0.01200455 -0.155453 0.64511508
-0.076736391 -0.2376072 0.62205309
0.1187271 -0.23343129 0.69352847
-0.01237765 -0.37417391 0.42074689
-0.060166031 -0.158094 0.62489688
0.0084523559 -0.29745981 0.66292268
-0.047701512 -0.091524541 0.51870048
-0.036854859 -0.1840903 0.63775772
0.063681193 -0.2825501 0.68488473
0.06451419 -0.1285253 0.677679
0.08710289 -0.19816791 0.6869936
0.0098138452 -0.095047116 0.6256032
0.071700692 -0.089480013 0.66048467
-0.0065452461 -0.3016018 0.65463668
0.072820313 -0.3276118 0.69046742
0.016733021 -0.1746752 0.66035122
0.02730751 -0.1306283 0.65832359
0.0070748329 -0.32065979 0.66404551
-0.026964599 -0.32269531 0.65308118
-0.076934621 -0.14776389 0.62013543
0.075518459 -0.125879 0.68347752
0.034862641 -0.31703371 0.67567652
-0.0136351 -0.095182657 0.43806669
-0.024078369 -0.3091855 0.65015513
-0.050063819 -0.1711279 0.63519281
-0.057635721 -0.14037 0.62719661
0.1103696 -0.14001819 0.69175059
-0.04290032 -0.2804431 0.48509431
-0.086602479 -0.27977881 0.61115253
-0.085910261 -0.16509891 0.60724819
0.1719896 -0.095428847 0.4979814
-0.070541948 -0.1443428 0.63082832
0.02390391 -0.3526397 0.67441893
-0.043602649 -0.27606159 0.63896191
-0.03197312 -0.096301943 0.49509141
-0.084017321 -0.31228951 0.61071801
0.045577791 -0.27354759 0.67146069
0.01715189 -0.31015599 0.66823298
0.043300901 -0.34575641 0.67483252
0.0076836939 -0.093551189 0.56650251
0.05196112 -0.098194391 0.62198889
0.1137982 -0.1687509 0.69671512
-0.088675126 -0.37913391 0.61744642
0.096515663 -0.090021066 0.54423028
0.090432703 -0.086255766 0.54377347
-0.00035518411 -0.09023729 0.59915662
0.077576339 -0.0944947 0.57931149
0.15605789 -0.093358532 0.60493422
0.11007 -0.091448113 0.64715552
0.1603028 -0.089980893 0.59650081
0.06129742 -0.092373729 0.62960839
0.15324789 -0.35818529 0.62710369
0.024451381 -0.090003237 0.60738808
0.008472383 -0.093023688 0.64951742
0.15439311 -0.096635133 0.61011988
0.1327648 -0.092366621 0.62135547
0.1842788 -0.1973092 0.53784031
0.1399489 -0.18223619 0.65183818
0.19581179 -0.2015599 0.51549292
0.12740161 -0.090293601 0.63258117
0.1703106 -0.1582253 0.57117862
-0.02752405 -0.093927003 0.62617391
-0.024426609 -0.086421192 0.56320161
0.14307231 -0.093452469 0.54568619
0.17640901 -0.090819143 0.50893182
0.1422541 -0.093383484 0.4853304
0.1015128 -0.089906529 0.51708591
0.1917337 -0.094264887 0.5158695
0.1185043 -0.1704286 0.69382268
0.14637969 -0.29344431 0.63810217
0.1171353 -0.2435493 0.69438112
0.1828596 -0.096425667 0.54228348
0.1980983 -0.1833574 0.4925451
-0.049228132 -0.091042086 0.56281811
0.1655148 -0.31551901 0.58098888
0.13514841 -0.092754103 0.5089069
0.1274018 -0.091664784 0.61562651
0.1025334 -0.092851743 0.5320152
0.1678163 -0.2842522 0.58016771
0.1740205 -0.2291439 0.56894809
-0.037816819 -0.093326762 0.55583978
0.1435681 -0.092774078 0.52131921
0.1161633 -0.093268856 0.66543043
0.184717 -0.094305083 0.50664067
0.1818884 -0.2939505 0.55035019
0.1432872 -0.1670074 0.63525128
0.1443135 -0.16197491 0.63376999
0.1884497 -0.28948921 0.54326129
0.1326267 -0.104711 0.66095412
0.1926637 -0.1120285 0.50911182
0.1917094 -0.3757298 0.49843511
-0.01686734 -0.090564787 0.50071812
0.1327364 -0.24164259 0.65675312
0.13533831 -0.098904818 0.659998
0.19622169 -0.2764332 0.50446159
0.15118439 -0.09405008 0.53807402
0.058848862 -0.08900705 0.44379061
0.1067848 -0.088892758 0.6854037
0.1496212 -0.24218971 0.62044537
0.13859791 -0.1258392 0.64968699
0.1694729 -0.1893543 0.58107901
0.1507173 -0.27257201 0.62328923
0.1813706 -0.087140977 0.526582
0.1178781 -0.098295167 0.68905342
0.17100631 -0.2453613 0.57526469
0.15608449 -0.36986229 0.61149091
0.19119801 -0.29344571 0.5089165
0.1966912 -0.15118571 0.49762949
0.1962864 -0.18579189 0.49648061
0.1956525 -0.2378588 0.49763101
0.1476367 -0.2533673 0.62123913
0.1389648 -0.23995329 0.65294278
0.1875488 -0.102446 0.5211798
0.1709751 -0.32454121 0.56877208
0.17829829 -0.189164 0.56318492
0.1431051 -0.091479301 0.60165352
0.1157804 -0.3411479 0.69312447
0.096019857 -0.094709627 0.59756988
0.1320378 -0.32164451 0.66363251
0.126599 -0.1174815 0.67793202
0.12540381 -0.203978 0.6783433
0.1067163 -0.34173861 0.6976977
0.13134269 -0.35103261 0.66609973
0.1217672 -0.1053388 0.68640298
0.1144074 -0.1814097 0.69560981
0.02088869 -0.091066688 0.5915097
0.1758299 -0.17421059 0.55800319
0.1690858 -0.28122181 0.57798868
0.1484779 -0.1490384 0.62827659
0.0042032599 -0.090922363 0.49442041
-0.016122401 -0.089127302 0.59804797
0.088749349 -0.088553399 0.67840451
0.1668507 -0.3406603 0.58047932
0.1845644 -0.26409611 0.55193228
0.19547909 -0.31795269 0.51615852
0.1986562 -0.265697 0.49383929
0.064259291 -0.094431341 0.49429369
0.1724963 -0.2135755 0.57510757
0.1704074 -0.1693413 0.57923013
0.062314332 -0.089809626 0.55993432
0.15249 -0.090966217 0.59096831
0.1992854 -0.1522883 0.49272779
0.18939219 -0.29881909 0.54103231
0.17896821 -0.1460124 0.54544109
0.18439931 -0.18262251 0.53430629
0.1781825 -0.1875712 0.55478859
0.19053 -0.2380926 0.52601409
0.04181743 -0.089980423 0.63264018
0.1927477 -0.36952651 0.51985067
0.03702563 -0.095061988 0.56648523
-0.03661209 -0.089219421 0.62776482
0.026351869 -0.090474457 0.57714021
0.1543252 -0.27931991 0.60416281
0.1248499 -0.12777171 0.67970228
0.1005571 -0.094809413 0.63838792
0.1569007 -0.091594763 0.56759679
0.1655627 -0.098201483 0.58651513
0.17799211 -0.32059059 0.55289292
0.1760575 -0.1615978 0.56402838
0.1638792 -0.13505369 0.57754081
0.1642992 -0.1444518 0.58140713
0.1678628 -0.1788827 0.57668197
0.17414521 -0.35135701 0.57166338
0.1960752 -0.25186089 0.51458281
0.181936 -0.2341916 0.54904473
0.1397652 -0.094357133 0.64724892
0.1454739 -0.29592919 0.63773137
0.1313321 -0.26177609 0.66247332
0.1428332 -0.35124069 0.64079249
0.1509815 -0.1432073 0.613392
0.1222609 -0.2689296 0.68622589
0.1134363 -0.090312541 0.65333241
0.1159065 -0.095426291 0.68724787
0.1453975 -0.093906522 0.54519218
0.1703739 -0.095274359 0.56397069
0.1757438 -0.131442 0.55796778
0.1886961 -0.27297679 0.52792948
0.1632117 -0.29825121 0.57698709
0.17258149 -0.22441261 0.56887442
0.16214401 -0.2809673 0.59439808
0.18779831 -0.227764 0.53022599
0.1114283 -0.095528357 0.57076639
0.1145552 -0.1642883 0.69554812
0.1544722 -0.3465015 0.60718048
0.079037666 -0.091534048 0.5176698
0.1315347 -0.2704598 0.65510207
0.159468 -0.37051481 0.60911
0.1619059 -0.26726481 0.59611863
0.1676866 -0.36440629 0.58509898
0.1542009 -0.30196929 0.62231249
0.1582199 -0.1598791 0.60318929
0.1814861 -0.1725063 0.55474752
0.1467417 -0.093156897 0.62396169
0.1673954 -0.2091597 0.57929051
0.1848032 -0.34803611 0.54302728
0.1394434 -0.28813329 0.64713663
0.13455661 -0.263744 0.65598053
0.14245041 -0.37877631 0.64334118
0.1658714 -0.091003843 0.53966397
0.1835209 -0.1932313 0.53900617
-0.03449351 -0.095978133 0.52289802
0.096934967 -0.093123227 0.5710001
0.1426646 -0.29621339 0.64054668
0.2007691 -0.19866709 0.4956032
0.1611367 -0.1146799 0.57924122
0.1936316 -0.35931709 0.51289189
0.1940349 -0.28939199 0.51267773
0.1568815 -0.1627163 0.59847891
0.017247859 -0.09110406 0.622145
0.1901861 -0.18710101 0.51744658
0.1364028 -0.32786939 0.65509921
0.15518659 -0.29940069 0.62010503
0.051602539 -0.086026281 0.55947012
0.019895971 -0.094138831 0.50964302
0.036062121 -0.089540146 0.54892212
0.1839323 -0.13733821 0.53492433
0.041573171 -0.092565 0.42413321
-0.03024888 -0.092484921 0.54352027
-0.065112472 -0.094620228 0.60533911
0.124578 -0.1890218 0.68187732
0.1191235 -0.094130643 0.45651019
0.099475682 -0.09329161 0.46214899
0.1835876 -0.089625917 0.53144193
0.16158269 -0.088238977 0.58069718
0.01739824 -0.086935639 0.42441729
0.19596919 -0.15148731 0.50667542
0.19470111 -0.1633421 0.52421492
0.1808352 -0.1674165 0.54021609
0.1892307 -0.16924 0.52309698
0.1589748 -0.27032289 0.60860002
0.079860687 -0.08822614 0.58911037
0.19030041 -0.1594279 0.52824903
0.1897542 -0.1134566 0.52107519
0.199773 -0.15886749 0.50395888
0.18648329 -0.091741741 0.52116442
0.15454181 -0.1272516 0.60976332
0.1933182 -0.3430568 0.52830088
0.1682106 -0.1491572 0.57280052
0.1986843 -0.18969379 0.50604659
0.1471436 -0.12991209 0.62478483
0.1155766 -0.2059695 0.69609731
0.1788073 -0.37619561 0.55960941
0.086426683 -0.09311384 0.47394109
0.1673695 -0.34687951 0.58220941
0.1827504 -0.1000916 0.50019789
0.19014511 -0.099594623 0.50955713
0.18818399 -0.34054711 0.48605281
0.18522111 -0.3090755 0.53489113
0.1675546 -0.2200404 0.57011312
0.1809485 -0.2031213 0.53283262
0.1815646 -0.27152389 0.5462991
-0.042285319 -0.095626593 0.59838933
0.0001194626 -0.097809367 0.50404322
0.1894286 -0.37809721 0.50094938
0.1724806 -0.3257004 0.5673787
0.15197501 -0.37056121 0.61145848
0.1952762 -0.28172341 0.50023657
0.1720562 -0.097440958 0.50269842
0.1924687 -0.28625581 0.50087577
-0.017182229 -0.093697637 0.59599042
0.16077191 -0.2941272 0.57898527
0.1845333 -0.29818919 0.53775358
0.1788228 -0.095436297 0.52719259
0.18430761 -0.26652449 0.53221339
0.1044147 -0.096075334 0.44543299
0.1811692 -0.188301 0.530783
0.05961642 -0.096137457 0.63819438
0.12951189 -0.3251549 0.66286051
0.1214232 -0.098863989 0.45445499
0.088584132 -0.093279839 0.62173313
0.065231837 -0.091291457 0.4910461
0.18402819 -0.1065546 0.51860023
-0.02917093 -0.0896447 0.62231952
0.1126832 -0.097292453 0.65459281
0.1424557 -0.099294357 0.47827959
0.082350783 -0.094595402 0.47164121
0.052785169 -0.096870601 0.66112858
0.1786001 -0.1510236 0.53769219
0.14399169 -0.25059551 0.61743772
0.1458569 -0.25495541 0.61907828
0.1426791 -0.28066039 0.62495953
0.01506534 -0.09511435 0.58869791
0.1824479 -0.2365371 0.525172
0.1930494 -0.24784259 0.49375281
0.15306909 -0.2387532 0.59228581
0.17427699 -0.2369234 0.56612098
0.1798327 -0.098817497 0.53732592
-0.034495249 -0.092642874 0.5703361
0.16925851 -0.09616673 0.50123441
0.19370189 -0.15976129 0.49121669
0.1960756 -0.1921746 0.4887321
0.037166331 -0.094724059 0.42315471
0.1630808 -0.2075009 0.58202219
0.1296688 -0.094112277 0.5059768
-0.01056296 -0.091576204 0.57615888
0.1654826 -0.2900247 0.57671821
0.1555087 -0.1297562 0.5957315
0.078117684 -0.090727657 0.63108081
0.0205293 -0.097150303 0.61317652
0.14629801 -0.099197358 0.49376899
0.056456242 -0.090884767 0.62699819
0.14095961 -0.1008531 0.64639622
0.05653283 -0.094809592 0.43807831
0.145108 -0.2946707 0.6330784
0.04588614 -0.091769189 0.60853678
0.13570771 -0.2463156 0.65212309
0.16244739 -0.1769184 0.57387841
0.1773394 -0.30289871 0.54636508
0.076906733 -0.096968591 0.62015063
0.093954042 -0.095992267 0.62708157
0.01379177 -0.091870993 0.51778758
0.0112302 -0.098273367 0.50499642
0.17731319 -0.1791824 0.53384751
0.01385304 -0.094068319 0.63525373
0.14135569 -0.099856049 0.51722068
0.1109345 -0.096483737 0.63077062
0.070110142 -0.093453743 0.66763341
0.0055319369 -0.094867468 0.5978871
-0.0001198351 -0.095380902 0.51918268
0.087394796 -0.093877487 0.67580491
0.093974382 -0.096564502 0.63458502
0.1130513 -0.096777827 0.64406782
0.1039844 -0.095448323 0.51076478
0.1314615 -0.093362749 0.64234012
0.1214936 -0.096403062 0.67261469
0.1260166 -0.09713757 0.66866243
0.1097476 -0.094050139 0.69158071
0.1687943 -0.096918792 0.5354867
0.15539929 -0.099720873 0.59840697
0.1680543 -0.25163439 0.57300657
0.066626191 -0.091960467 0.45486391
0.051591441 -0.096781611 0.61743379
0.078248017 -0.096005291 0.66845882
0.1302437 -0.2078861 0.6625942
0.1321239 -0.24548431 0.65617341
0.071800292 -0.097442783 0.64356327
-0.02259938 -0.095674932 0.60588491
0.004753679 -0.092688203 0.58941609
0.052873481 -0.096088678 0.60911632
0.056666579 -0.094901741 0.60771751
0.015822539 -0.093143821 0.49732831
-0.024622981 -0.092254043 0.59023219
0.064721666 -0.091562301 0.51378387
-0.02307779 -0.098466009 0.48122469
0.1058867 -0.093139321 0.68683797
0.1189159 -0.0952501 0.62868381
0.1378583 -0.095941328 0.59900391
0.1497921 -0.097475469 0.60552818
0.1317066 -0.1017732 0.65881753
0.1170557 -0.1279739 0.69542468
0.1291896 -0.2910094 0.65555167
0.08827737 -0.095632114 0.4694249
0.077723622 -0.094875813 0.47219461
0.054917879 -0.094515502 0.48097041
0.046505962 -0.092309617 0.43966779
0.001506865 -0.1023426 0.41526201
0.093255758 -0.096363463 0.44786951
0.1599073 -0.095897786 0.47979069
0.1672603 -0.096221209 0.4853569
0.16782659 -0.095448203 0.54378361
0.072207332 -0.093612283 0.54379082
0.1480698 -0.1031809 0.60871381
0.17548589 -0.175898 0.54638278
0.076136097 -0.090118676 0.67323267
0.095848739 -0.098096728 0.54043132
0.1236307 -0.1790642 0.66834497
0.076077923 -0.095447719 0.57732427
0.111542 -0.094620474 0.60046607
0.057931539 -0.093327582 0.56157452
0.02708734 -0.092480689 0.56583279
0.060066432 -0.092468083 0.55967182
-0.05978319 -0.093979567 0.60883558
0.0044405758 -0.092950493 0.56980902
0.041413371 -0.094124436 0.58195812
0.03089994 -0.088198483 0.5645951
-0.034701739 -0.093219876 0.56474382
0.1131511 -0.096223243 0.61499763
0.1208474 -0.093346693 0.62089908
0.06913738 -0.092959307 0.60973352
0.032566369 -0.095325053 0.6124084
0.022026749 -0.093213953 0.58004332
0.1034818 -0.092005253 0.64926529
-0.020055469 -0.087282971 0.62687951
0.041240498 -0.09081623 0.56921858
0.080231287 -0.089529186 0.56312412
0.092666022 -0.1000144 0.59501392
0.09466958 -0.097569168 0.57909691
0.1068098 -0.095594078 0.66017151
0.1506772 -0.093960881 0.59074599
0.1377008 -0.095922172 0.60654938
0.15477809 -0.097461037 0.58847892
0.1365886 -0.09615913 0.61350852
0.1436246 -0.095574737 0.62063259
0.1103932 -0.09299764 0.68489343
0.1246933 -0.17528591 0.67154348
0.1408913 -0.1633708 0.63252193
0.13010029 -0.097895503 0.56602108
0.136701 -0.099012762 0.53752017
0.1354017 -0.097252518 0.54022789
0.09110266 -0.093987793 0.5260359
-0.016052371 -0.095375299 0.45385221
0.034065459 -0.095801979 0.4737559
0.029345591 -0.092217237 0.48390359
0.062715173 -0.093925864 0.50529492
0.02496499 -0.093332797 0.46426731
0.1063241 -0.094746232 0.49645951
0.15808959 -0.093751818 0.56908232
0.1653565 -0.095248938 0.57786578
0.1677829 -0.097735792 0.56247711
0.1597445 -0.091900863 0.57817668
0.1743073 -0.1762249 0.55845219
0.1644062 -0.16607 0.56438851
0.1721856 -0.1549035 0.55658662
0.1623387 -0.09419331 0.52555251
0.099022947 -0.097623587 0.52923298
0.02171698 -0.095337272 0.51331651
0.0021484201 -0.098220967 0.52758962
0.1049044 -0.097568423 0.56953102
0.1441077 -0.15049531 0.6090287
0.17083859 -0.1646311 0.56010598
0.083313107 -0.094434321 0.55920577
0.1022535 -0.090783119 0.68667293
0.1146396 -0.25294769 0.6975472
0.1396548 -0.1699059 0.63415033
0.14681681 -0.1170209 0.60626727
-0.03120419 -0.093836688 0.54092342
0.1216422 -0.099497169 0.62542838
0.1169541 -0.094972163 0.68774259
0.133929 -0.097173393 0.65221751
0.1372678 -0.095871627 0.64695859
0.074209139 -0.092336863 0.460412
-0.03083485 -0.096105829 0.49429139
0.04320313 -0.093057752 0.47363079
0.1596484 -0.098893367 0.58334488
0.083088927 -0.094135672 0.49722511
-0.0135358 -0.09428218 0.4810895
-0.0325283 -0.09747684 0.47942191
0.1495641 -0.33830091 0.61813831
0.003079474 -0.095429629 0.64755732
0.1782596 -0.097473323 0.53527272
0.003623456 -0.091421783 0.63205159
0.1079017 -0.097038753 0.60591918
0.039187029 -0.091799319 0.55144632
0.085692763 -0.094532758 0.55080992
0.076582313 -0.096586883 0.65977353
0.080925122 -0.099973589 0.57897598
0.1664003 -0.090129852 0.54196501
0.06113179 -0.093741767 0.62634093
0.051018029 -0.093711793 0.49789041
-0.003044575 -0.100663 0.4263728
0.078844279 -0.098411292 0.58938301
0.046059161 -0.090501763 0.55613083
0.04448488 -0.09504658 0.50710541
0.001933247 -0.092284441 0.60345519
0.024973361 -0.095645428 0.63853782
-0.052237269 -0.090684257 0.5401603
0.0047388081 -0.097787172 0.54007798
0.0896983 -0.1072682 0.68693757
0.066621408 -0.344001 0.68764633
0.092342183 -0.097594202 0.45344871
0.13204511 -0.095852517 0.51456988
0.05106974 -0.096672058 0.51333642
0.073849842 -0.260609 0.68713617
0.1856536 -0.3145009 0.50073123
0.081614293 -0.091920197 0.51708847
0.03496391 -0.095160507 0.6619736
0.1685888 -0.096869081 0.50983351
0.02298459 -0.098802388 0.62112862
0.025201799 -0.09328407 0.54947418
0.0084674954 -0.2499909 0.65413833
-0.03978166 -0.096000403 0.54193282
0.01295844 -0.086922906 0.5068714
0.066910483 -0.091896921 0.58994842
-0.06036732 -0.098137923 0.55453032
0.080123529 -0.097936571 0.61087978
0.1127387 -0.1789277 0.6917665
0.1390707 -0.097140461 0.5181036
0.0090214312 -0.093543082 0.47152749
0.1633845 -0.1579055 0.5690608
0.036541641 -0.094975233 0.64221412
0.12657771 -0.095863819 0.64787072
0.03566714 -0.23465361 0.67050868
0.048005309 -0.089968093 0.62184328
0.031356439 -0.096219957 0.61396682
0.19233321 -0.099416763 0.4941403
-0.01014368 -0.09624958 0.4663074
0.1051907 -0.090502411 0.53275692
-0.025581701 -0.089522824 0.47819081
0.0038654059 -0.099064752 0.56130159
0.13254771 -0.097650833 0.64592099
-0.02910655 -0.089245662 0.48835069
0.15690739 -0.096758842 0.59925121
0.1103527 -0.09661369 0.68803328
0.094773993 -0.093381517 0.5435667
0.1274693 -0.098227844 0.6301176
0.0092460439 -0.091318607 0.53487372
0.001987465 -0.093139648 0.4623847
0.1533809 -0.09322799 0.57000518
0.016632499 -0.097683653 0.52331942
0.0048461561 -0.095339857 0.57189572
-0.01179752 -0.099804647 0.46134949
-0.0091451034 -0.096555918 0.58585632
-0.021149689 -0.08863768 0.60678709
0.14364301 -0.095490739 0.61729681
-0.01537914 -0.096593574 0.60203022
0.056594919 -0.092091434 0.63983041
0.002184778 -0.095606729 0.47852331
0.065695293 -0.094876841 0.4963049
0.072651751 -0.096883617 0.66812938
0.1035714 -0.1028936 0.51810288
0.060548302 -0.094208866 0.56429601
0.1430079 -0.096954063 0.52448398
0.044638999 -0.094179481 0.58514178
0.058540002 -0.094355777 0.48662889
0.01385346 -0.093082793 0.50222129
0.1060434 -0.097267643 0.64247578
0.093362413 -0.092704311 0.59737402
0.078326441 -0.093335196 0.59114587
0.039336588 -0.095942818 0.46765989
0.01151834 -0.097786017 0.494369
0.04966823 -0.096207753 0.4815203
0.1132519 -0.09836413 0.63498712
0.057828769 -0.096908577 0.62906343
-0.0052920282 -0.095378473 0.4107469
0.034469541 -0.092529431 0.43378139
0.1470772 -0.098984078 0.53729522
0.056618929 -0.092500433 0.51859021
0.068108633 -0.097267732 0.4580318
0.14199971 -0.092620537 0.48349479
-0.049935859 -0.097601578 0.54847378
0.085448027 -0.1011825 0.57907683
0.071198307 -0.098517157 0.61461908
0.040275831 -0.095704302 0.50709969
0.1329288 -0.097169973 0.57122868
0.1435052 -0.089502349 0.48843449
0.1054724 -0.095885597 0.63993591
0.1107842 -0.097257867 0.61099112
0.098123237 -0.092744932 0.4490574
0.02230663 -0.095961019 0.4392707
0.029410459 -0.091558643 0.4824343
-0.035864331 -0.093851224 0.4946931
0.1261986 -0.096366361 0.66532552
0.043511 -0.1101194 0.42745671
0.057769231 -0.09956862 0.43158969
0.093588673 -0.095724091 0.52824271
0.054147519 -0.092308663 0.57557428
0.078581132 -0.091925457 0.4846102
0.1475835 -0.097199932 0.4971692
0.086270727 -0.096622512 0.52178252
-0.02540924 -0.094566487 0.62476343
0.090439543 -0.096921943 0.48221499
0.0026060489 -0.090895407 0.40092269
-0.0080260113 -0.096697576 0.58446938
-0.02466755 -0.1026138 0.57919067
0.049911428 -0.099670842 0.51816112
0.1215178 -0.094919458 0.4613423
-0.055732049 -0.092560001 0.61113119
0.080350056 -0.1014195 0.43982679
0.020640589 -0.098245621 0.6057815
0.025066949 -0.095700637 0.64297271
0.16476101 -0.098925039 0.52967578
0.1255533 -0.092648342 0.57631469
0.043368001 -0.097421177 0.57279372
0.1412437 -0.095307708 0.54047549
0.1464213 -0.095166162 0.61236298
0.1215724 -0.095144548 0.4734953
0.01728623 -0.09508051 0.63970888
3.807247e-05 -0.1194425 0.40368131
0.17000771 -0.1430511 0.4734576
0.182822 -0.21899991 0.47513539
-0.0030470861 -0.16878811 0.40770999
0.1715223 -0.096179172 0.4892208
0.086549893 -0.15156721 0.44201189
0.1241398 -0.094759837 0.45973009
0.047765031 -0.092229411 0.43837571
0.0073634982 -0.099948868 0.55444491
0.1064814 -0.20602369 0.4503735
0.058795691 -0.1338809 0.43122229
0.1348508 -0.1470432 0.45868829
0.1880925 -0.25979599 0.48689011
0.1556464 -0.2813876 0.46857229
0.062043291 -0.2709327 0.43256661
0.025435431 -0.27804619 0.41140011
0.01224279 -0.2715109 0.41034311
0.1243967 -0.13017701 0.45260859
0.1013703 -0.16092101 0.44729999
0.121947 -0.1044219 0.45487401
0.043440592 -0.13262001 0.42429319
0.02618853 -0.1078444 0.41248661
0.090700701 -0.092624441 0.48799181
0.049895611 -0.1331459 0.42779401
0.090559542 -0.32081971 0.44006059
0.1833463 -0.098929331 0.5078513
0.1477021 -0.096516334 0.60862708
-0.049831212 -0.092055596 0.61315072
0.087007359 -0.1227682 0.44785529
-0.00466805 -0.096439198 0.61877352
-0.0068367198 -0.094552197 0.4802753
0.040410321 -0.096706487 0.41634351
0.085136339 -0.1556028 0.44105801
0.1534818 -0.2287842 0.47120321
-0.001082852 -0.093414903 0.41062859
0.1724043 -0.29694349 0.47908139
0.042971719 -0.09549056 0.6038816
0.087722003 -0.23327979 0.43750799
0.1957904 -0.1155637 0.48505011
0.1001444 -0.1243829 0.4440529
0.16598891 -0.095188931 0.47717211
0.18171041 -0.1887821 0.4812558
0.18648531 -0.22225571 0.4742991
0.002646141 -0.091865793 0.50781173
0.19574749 -0.148536 0.4830268
0.1094514 -0.24836311 0.44711581
0.1582108 -0.3299503 0.46739149
0.041094098 -0.18939 0.42204559
-0.00057893991 -0.21561649 0.40038639
0.1489052 -0.32012221 0.46232179
0.018279999 -0.2436685 0.41468641
0.13542859 -0.26627481 0.46184239
0.20184191 -0.1313746 0.48766759
0.036709491 -0.1190849 0.41545159
0.147218 -0.24775019 0.46250519
-0.0025527549 -0.26406631 0.4077251
0.106477 -0.099194512 0.4552097
0.1206184 -0.36338621 0.44717431
0.1457278 -0.1081078 0.46613759
0.0040722252 -0.1188557 0.4045414
0.0095074922 -0.1000281 0.48449579
0.1247073 -0.1263217 0.45966181
0.0005132556 -0.36382791 0.4040136
0.1606178 -0.1031118 0.49847111
0.088471979 -0.1818614 0.43564269
0.077764578 -0.096827403 0.58097267
0.1373135 -0.2410394 0.45989439
-0.003250889 -0.29571939 0.40803251
0.1808316 -0.26203221 0.47692761
0.1871655 -0.18011869 0.47539729
0.023909289 -0.16251589 0.41153091
0.083413608 -0.35102209 0.43418571
0.0334979 -0.1211549 0.4147017
0.05653974 -0.085931882 0.51773077
0.14979909 -0.099817887 0.46929961
0.086621217 -0.094230823 0.47823629
