# .PCD v0.7 - Point Cloud Data file format
VERSION 0.7
FIELDS x y z normal_x normal_y normal_z curvature
SIZE 4 4 4 4 4 4 4
TYPE F F F F F F F
COUNT 1 1 1 1 1 1 1
WIDTH 587
HEIGHT 1
VIEWPOINT 0 0 0 1 0 0 0
POINTS 587
DATA ascii
-0.040869243 -0.24012196 0.48954952 -0.92586881 0.019508507 -0.37734112 0.00042919401
-0.063830048 -0.27044252 0.54607522 -0.94867194 0.010001532 -0.31610373 0.0027204503
-0.049562071 -0.31760287 0.50721598 -0.9331063 -0.051769339 -0.35585481 0.0097001493
-0.07378795 -0.29891402 0.567738 -0.97914517 0.00077586115 -0.20316058 0.017102148
-0.070908077 -0.36468863 0.56417108 -0.86362237 -0.48162216 -0.14898545 0.088367462
-0.012640388 -0.11717314 0.4319365 -0.5557065 0.56432974 -0.61050981 0.10550295
-0.018458135 -0.23773447 0.43452728 -0.71745372 0.0080772154 -0.69655943 0.052888446
-0.020755889 -0.3153272 0.43763962 -0.75545418 -0.005760265 -0.6551761 0.034420121
0.031422786 -0.092751488 0.46693459 -0.033966932 0.97209269 -0.23212495 0.035454944
-0.074273184 -0.36044419 0.62165564 -0.8031801 -0.43199483 0.41022226 0.12298954
-0.016810346 -0.29344997 0.43185446 -0.68372148 -0.0028981515 -0.72973728 0.040141299
-0.074110694 -0.25830954 0.57040513 -0.98279548 0.0190167 -0.18371546 0.023590263
0.14155914 -0.10647128 0.46887439 0.34269059 0.7530449 -0.56168187 0.072387516
0.0534462 -0.093007632 0.47017789 0.086980119 0.96719217 -0.23869164 0.030031983
-0.024859542 -0.28356236 0.44707289 -0.78391659 -0.001187704 -0.62086505 0.031221436
-0.014080736 -0.11656559 0.43607268 -0.56528991 0.58593678 -0.58062494 0.10555081
0.080418155 -0.097575322 0.45296556 0.20744035 0.87944329 -0.42842495 0.068440355
-0.054395121 -0.31134483 0.5204795 -0.93211693 -0.035246242 -0.36043814 0.0064854533
-0.012087819 -0.20221576 0.42290077 -0.51625746 -0.0087967571 -0.85638821 0.066570677
-0.034523636 -0.1010039 0.48575148 -0.59499699 0.77379578 -0.21729851 0.071044393
-0.020008527 -0.12840454 0.44216698 -0.71897745 0.45611164 -0.52443653 0.094336852
-0.029075712 -0.093039133 0.5825817 -0.26860979 0.96170777 0.054469503 0.042542819
-0.066495471 -0.35893872 0.62952441 -0.7034446 -0.4782289 0.52579731 0.12028147
-0.069445267 -0.10448731 0.59567529 -0.74283981 0.65777665 0.12457493 0.096714973
-0.079259269 -0.25075269 0.61256987 -0.97621328 0.045114089 0.21206684 0.060248669
-0.029264528 -0.097871907 0.48357123 -0.54241681 0.81714827 -0.195071 0.066891365
-0.079606116 -0.3197425 0.61814523 -0.90885234 -0.06129143 0.41259027 0.047272373
-0.068492457 -0.12174917 0.61744207 -0.76718271 0.46363154 0.44325662 0.10873859
-0.015171161 -0.10199554 0.44707197 -0.4765386 0.73762906 -0.47834554 0.10213032
0.014471313 -0.33474576 0.6669988 -0.36011049 -0.24978702 0.89884758 0.070397571
0.051933907 -0.28994989 0.67957538 -0.32496119 0.060281835 0.9438042 0.0045647221
-0.045813844 -0.37378564 0.64380693 -0.3740257 -0.71340317 0.59258825 0.091520533
-0.081256568 -0.28316915 0.61325496 -0.9700045 -0.014189695 0.24267231 0.067695878
-0.04122591 -0.15814349 0.63578916 -0.60050428 0.1494621 0.7855289 0.046355177
-0.024543887 -0.093636476 0.57006925 -0.26100788 0.96456403 -0.038614552 0.035440613
-0.075780384 -0.11488118 0.60438192 -0.80885077 0.55139631 0.20426074 0.099879637
-0.052261967 -0.19984373 0.63357884 -0.72493923 0.089217596 0.68301052 0.049090296
-0.031137027 -0.16990143 0.63953853 -0.5527637 0.045651559 0.83208668 0.026746789
0.0058121365 -0.16683905 0.65374643 -0.34580937 0.13765612 0.92815226 0.0075041009
0.1003645 -0.27155733 0.69259542 0.33170351 0.020218607 0.94316697 0.06302648
0.057661429 -0.19098414 0.67334217 -0.25814179 0.016710751 0.96596253 0.015436024
0.013817934 -0.186923 0.65612644 -0.35341361 0.035765264 0.93478322 0.00034800434
-0.077687867 -0.29285797 0.61585784 -0.94270647 0.015197348 0.33327696 0.074170388
-0.065488383 -0.10370293 0.62251216 -0.62318105 0.6445508 0.44294441 0.10665315
0.0080381036 -0.098288044 0.64793158 -0.17606923 0.83668226 0.51861596 0.064635083
-0.039744429 -0.097979948 0.63131696 -0.40988865 0.74328589 0.52869397 0.088248178
-0.032568417 -0.094974287 0.62478119 -0.35487846 0.83856219 0.41336998 0.081267208
-0.07896661 -0.26645479 0.61121064 -0.97879189 -0.0018118842 0.20484877 0.063546665
-0.028354539 -0.12375816 0.63746309 -0.39016125 0.52595973 0.75573844 0.080522187
-0.047847979 -0.1582265 0.63313508 -0.66639167 0.11490019 0.73669541 0.048942074
0.072766006 -0.36061522 0.68833113 -0.097538061 -0.52685291 0.8443414 0.12272054
-0.0035376735 -0.13068619 0.64756411 -0.26782739 0.54947239 0.79142183 0.064807072
0.02558987 -0.1455403 0.6596899 -0.33221537 0.44503227 0.83161241 0.063090861
0.015479266 -0.1686493 0.65675181 -0.34383047 0.13220884 0.92967808 0.0063355858
-0.077601619 -0.31302926 0.61760348 -0.8959167 -0.036631897 0.44270915 0.040891681
0.078159899 -0.31118563 0.69192833 -0.052412599 0.061022203 0.9967593 0.046887316
-0.069129273 -0.1141556 0.61298758 -0.74825221 0.55437499 0.36439946 0.10903907
-0.065895215 -0.22404343 0.62675893 -0.8577109 0.068333998 0.5095709 0.059444416
-0.055982839 -0.28597787 0.63181341 -0.68730873 0.025657674 0.72591203 0.053227972
-0.041472625 -0.17662312 0.63576025 -0.65641516 0.0029954852 0.75439394 0.046706155
-0.043567393 -0.225751 0.63656598 -0.68356705 0.079869017 0.72550464 0.050460927
0.065818936 -0.28858534 0.68584615 -0.12721273 0.07782153 0.98881787 0.039112911
-0.026669132 -0.28979647 0.45117253 -0.80097491 -0.012781569 -0.59856147 0.030719118
-0.069748379 -0.16740751 0.56767458 -0.98778188 0.078933045 -0.13437463 0.031755865
-0.079751112 -0.22731787 0.60880649 -0.98536998 0.063157864 0.15829399 0.054631066
-0.048465017 -0.0943629 0.60599762 -0.448468 0.86681002 0.21798383 0.079152346
0.13314375 -0.096228868 0.61407912 0.26097861 0.96003932 0.10106742 0.060740724
0.047535159 -0.35336304 0.67811787 -0.33449188 -0.50450909 0.79598105 0.10667539
-0.034634449 -0.12067808 0.63477618 -0.43595231 0.54783911 0.71401536 0.085920863
-0.065244071 -0.11028368 0.61602908 -0.70857751 0.57988101 0.40206477 0.11239996
-0.034305237 -0.37725252 0.65285987 -0.31162295 -0.72987157 0.60842305 0.085746571
0.022955308 -0.34684226 0.67063731 -0.33364969 -0.38827121 0.85902458 0.096402489
0.036538024 -0.19300196 0.66613287 -0.34431258 0.030888343 0.9383468 0.00093470141
-0.0056656431 -0.3369686 0.65921015 -0.3810837 -0.2925292 0.87704158 0.082067095
0.043645259 -0.22966747 0.67266017 -0.34070811 0.058677148 0.93833625 0.0014653084
-0.020761618 -0.2264355 0.6446206 -0.45237437 0.013197761 0.89173043 0.0062625632
-0.071181729 -0.21441044 0.62084192 -0.93555039 0.073901244 0.34537542 0.049868181
-0.025072372 -0.31327721 0.64880359 -0.44859308 -0.016506553 0.89358366 0.012098074
-0.0089899329 -0.30343428 0.6547249 -0.39795017 0.041166775 0.91648293 0.0021840411
0.057233136 -0.17274716 0.67341948 -0.2806581 0.074196085 0.95693576 0.0094435038
-0.041050725 -0.18990965 0.63701445 -0.67776835 0.067208223 0.73219752 0.046963554
-0.041332066 -0.13737977 0.6357134 -0.54184556 0.35820326 0.76032484 0.079078101
0.10937039 -0.094952419 0.57783461 0.097609743 0.9946878 0.032689389 0.019283688
0.065084502 -0.22945525 0.68103784 -0.13124032 -0.015297583 0.99123257 0.044019409
-0.03843895 -0.15241925 0.63681799 -0.56334877 0.21407096 0.79800481 0.053033557
-0.075855188 -0.27225071 0.6152395 -0.95396477 0.011014441 0.29971635 0.066331513
-0.0095365634 -0.18044659 0.64867967 -0.37786424 0.029818902 0.92538065 0.00098586094
-0.069181688 -0.35106608 0.62768084 -0.80746144 -0.34372014 0.47943974 0.11047779
0.089605257 -0.094487056 0.57761312 0.049985047 0.99842483 0.025483431 0.0047375471
-0.061088745 -0.19046538 0.62624156 -0.80561715 0.063184388 0.58905751 0.055638473
0.059211809 -0.13896471 0.67479038 -0.31226954 0.4076643 0.85807782 0.070216082
-0.053542059 -0.1857259 0.63188958 -0.70665306 0.04148028 0.70634329 0.046768192
-0.026032697 -0.2701613 0.64539909 -0.46552676 0.052193355 0.88349342 0.0067688744
0.05922899 -0.19201894 0.67419326 -0.26140636 0.021916687 0.96497995 0.014922537
-0.0044635362 -0.13478084 0.64874625 -0.2703802 0.52216697 0.80884862 0.06429667
0.032998506 -0.14734849 0.66300863 -0.34499785 0.40567756 0.84640539 0.056861304
0.021707768 -0.28508827 0.66511023 -0.38720977 0.060421471 0.92000967 0.00035312062
0.060307983 -0.18541348 0.67467135 -0.23038776 0.029162278 0.97266179 0.023938015
-0.0085076522 -0.099519886 0.63722354 -0.21984102 0.80282152 0.55420887 0.069414303
-0.062033828 -0.33974805 0.63388312 -0.7086072 -0.16912344 0.68503517 0.082610108
0.020484423 -0.096130133 0.42549798 -0.14975934 0.79311901 -0.59036803 0.10610962
-0.07591901 -0.23815705 0.61936605 -0.95884836 0.056887563 0.27816117 0.056200597
-0.077403381 -0.32916227 0.62328005 -0.84985483 -0.1194452 0.51330256 0.056833226
-0.075617298 -0.25215432 0.6198709 -0.96642494 0.046686523 0.25267228 0.060756836
-0.076728873 -0.22158806 0.61590129 -0.95829159 0.081973635 0.2737838 0.051383339
-0.033787362 -0.11519431 0.63284463 -0.41957492 0.62830311 0.65512747 0.091549411
-0.028248282 -0.17467105 0.64056045 -0.531142 0.034127783 0.84659523 0.023847545
0.018117663 -0.36814183 0.66486561 -0.29275233 -0.69937688 0.65204912 0.11082362
0.0029237135 -0.22613713 0.65260875 -0.3690204 0.038655341 0.92861706 0.0003873797
-0.067325383 -0.19597469 0.62118775 -0.89836735 0.091930784 0.42951694 0.049908709
-0.048178993 -0.16801697 0.63330454 -0.68368989 0.041362319 0.72859955 0.036737625
-0.063955694 -0.14934827 0.62122172 -0.77953005 0.20354588 0.59236991 0.065680854
-0.036078218 -0.13169645 0.6358766 -0.46868786 0.4432067 0.7641331 0.082505278
-0.028254425 -0.13358903 0.64044958 -0.39407355 0.45297134 0.79970181 0.070412047
-0.054288503 -0.25642237 0.63318121 -0.71450537 0.026010245 0.69914627 0.050767474
-0.042208627 -0.32916766 0.64335734 -0.54264843 -0.12622374 0.83042175 0.053347427
0.080952078 -0.20118427 0.68381381 -0.10734645 -0.029318349 0.99378932 0.052658178
0.037937395 -0.297941 0.6737963 -0.37578651 0.052414887 0.92522275 0.00089268084
0.01247471 -0.26274806 0.65920424 -0.38802806 0.066899575 0.91921633 0.00020717715
0.019919055 -0.29283854 0.66515911 -0.38614771 0.056938425 0.92067802 0.00047123202
-0.033954699 -0.24017762 0.64067709 -0.55226016 0.030748488 0.83310461 0.023591965
-0.065697782 -0.33734742 0.63171917 -0.734056 -0.16863343 0.65781802 0.081572518
-0.069949426 -0.25580093 0.62387431 -0.92631674 0.015184221 0.37643951 0.064500898
0.075680621 -0.095051005 0.46422735 0.15125798 0.93752551 -0.31331605 0.04829808
-0.066239901 -0.24393958 0.5516063 -0.95808637 0.023132019 -0.28554404 0.0063217343
-0.074874781 -0.11249623 0.61076957 -0.78771371 0.56276077 0.2506142 0.10591014
0.089753367 -0.095508255 0.66564983 -0.0072575035 0.97327352 0.22953458 0.04573936
0.055775866 -0.093030877 0.48478079 0.059003141 0.98575735 -0.15748399 0.018498486
-0.0085485606 -0.093193285 0.57800847 -0.1663453 0.98592693 0.016654441 0.021449072
-0.074130446 -0.20890349 0.61560941 -0.94881219 0.075150408 0.30676994 0.052032571
-0.027897598 -0.24775666 0.45498222 -0.81997609 0.0095867012 -0.57231754 0.026531726
-0.041605532 -0.094663903 0.61570853 -0.39384153 0.85525513 0.33679023 0.085888095
0.071048848 -0.098749958 0.66402787 -0.051216997 0.9611671 0.27117291 0.043813009
0.050741222 -0.12120899 0.66611695 -0.34390241 0.63254172 0.69398999 0.072315894
-0.037633333 -0.30695933 0.64382458 -0.54050529 0.028865123 0.84084529 0.020655645
-0.067562602 -0.20950632 0.62353003 -0.89339471 0.064228959 0.44465774 0.053109948
0.025598101 -0.14365377 0.65958482 -0.32433304 0.45876926 0.8272478 0.067567602
0.018915096 -0.36373949 0.6663065 -0.32463878 -0.61667806 0.71715963 0.11174518
0.003701969 -0.16374281 0.65315753 -0.33884934 0.17019163 0.92531937 0.013187079
0.0060462994 -0.32647225 0.66362476 -0.36951071 -0.15625715 0.91599423 0.04449594
-0.058957882 -0.14818722 0.6269387 -0.74586111 0.19755322 0.636132 0.063738301
0.0010343462 -0.37201795 0.65898061 -0.27604899 -0.73327899 0.62136853 0.09323208
0.049595751 -0.12970471 0.66893363 -0.35371974 0.55965674 0.74944425 0.072109371
-0.07154616 -0.10859974 0.61790162 -0.73036665 0.58928198 0.34541461 0.11196036
0.065217979 -0.12014283 0.67405856 -0.24130848 0.62046719 0.74618411 0.079169773
-0.054692172 -0.26419044 0.63284653 -0.70187646 0.018722108 0.71205264 0.051239666
0.059761297 -0.098868184 0.43935925 0.15608513 0.86199903 -0.48228115 0.063545473
-0.055169251 -0.37402123 0.63351852 -0.43823376 -0.76873922 0.46582314 0.10306098
0.043671098 -0.10298906 0.65671217 -0.23287813 0.87151372 0.43154562 0.061764296
0.082844131 -0.32916698 0.69389653 -0.023729192 -0.092005886 0.99547571 0.070179477
0.083278768 -0.33870879 0.69340444 0.015769815 -0.17879285 0.98376036 0.093851708
-0.006390559 -0.14982446 0.64858115 -0.3321631 0.34227991 0.87892675 0.048750464
0.021292735 -0.33220989 0.6696195 -0.35221636 -0.28173944 0.89250576 0.080394454
-0.0065013943 -0.096483923 0.46077973 -0.30330473 0.89431214 -0.32895601 0.079264536
-0.077507272 -0.21193373 0.60773849 -0.98046303 0.074940525 0.18186854 0.051973742
0.11500189 -0.097610563 0.4707047 0.15556319 0.90880311 -0.38713947 0.059127394
-0.049918577 -0.095571138 0.58208817 -0.52080208 0.85333699 0.024107745 0.088269383
-0.069374502 -0.24514832 0.62472379 -0.90356946 0.072551213 0.42225426 0.06090061
0.00093848613 -0.094057433 0.47572595 -0.22449757 0.95111519 -0.21208684 0.055586003
-0.075232416 -0.14021733 0.60989112 -0.90922815 0.28572693 0.30276102 0.07727927
0.06424772 -0.10377647 0.66574216 -0.099361412 0.94006419 0.32620046 0.047829457
0.056696832 -0.10817739 0.66362786 -0.20028952 0.86687142 0.45652813 0.068395332
-0.023477837 -0.094283961 0.55902386 -0.28432831 0.95646983 -0.065749802 0.041368306
0.023929536 -0.093546472 0.63813168 -0.1084699 0.93344557 0.34192625 0.057571534
-0.055675108 -0.096780218 0.61330485 -0.5052768 0.8194741 0.27047646 0.089785986
0.067744099 -0.094137348 0.62244457 -0.021085234 0.99245399 0.12079071 0.018202808
-0.032560837 -0.093967937 0.63023186 -0.3291885 0.83450162 0.44186199 0.081014261
0.11175609 -0.09445893 0.52026778 0.066083468 0.99335271 -0.094251238 0.011964243
0.050894804 -0.097692303 0.6601333 -0.14482576 0.92558068 0.34975126 0.051470365
-0.063215174 -0.099875487 0.6183061 -0.62775946 0.69045967 0.35942087 0.099551141
0.042345408 -0.2303697 0.67226577 -0.34070811 0.058677148 0.93833625 0.0014653084
0.046964135 -0.32194 0.68000627 -0.35333624 -0.1502782 0.92334718 0.039203074
-0.032532629 -0.36420193 0.64705771 -0.33242998 -0.66102093 0.67271227 0.096469052
0.099231459 -0.31920251 0.69528568 0.311064 0.0097489674 0.9503389 0.058051314
-0.06058665 -0.19534683 0.62597567 -0.79645437 0.081763946 0.59914535 0.053253669
0.0022362662 -0.14629467 0.65141809 -0.30959928 0.37324467 0.87454945 0.049530409
0.057167497 -0.34015843 0.68556684 -0.23778181 -0.29244894 0.92624694 0.091937348
-0.04795726 -0.29978159 0.63792086 -0.60934269 0.038941078 0.79195011 0.036312852
-0.012877788 -0.27296185 0.64864147 -0.42821768 0.063013941 0.90147585 0.0022938098
0.048288964 -0.12823582 0.6681456 -0.35750908 0.62222522 0.69643593 0.0742236
-0.046053786 -0.22524689 0.50488883 -0.93051481 0.023671053 -0.36548853 8.5633961e-05
0.018034946 -0.23160562 0.65963084 -0.37472269 0.052447736 0.92565233 0.00042657895
0.0057180282 -0.22028908 0.6541785 -0.36534232 0.037469998 0.93011886 0.00032589363
-0.012525289 -0.15543631 0.64654356 -0.35831985 0.25664005 0.89763176 0.032292277
-0.073848397 -0.23737063 0.61994946 -0.95727092 0.056417078 0.28363624 0.057620846
0.11780784 -0.23344387 0.69300449 0.29550672 -0.12452542 0.94719011 0.075840764
-0.0092704883 -0.37264806 0.42347518 -0.40821752 -0.54076153 -0.73548311 0.12062687
-0.060289592 -0.15809746 0.62508816 -0.77525872 0.1191594 0.6203022 0.04877305
0.0091656009 -0.29774135 0.66131103 -0.38900524 0.051084965 0.9198181 0.00061285734
-0.041707609 -0.098415591 0.5202207 -0.59854609 0.78732103 -0.14787854 0.06515184
-0.036936741 -0.18407983 0.63795626 -0.64142525 0.057613447 0.76501918 0.048029687
0.06384822 -0.28261304 0.68457913 -0.1708196 0.10713068 0.9794609 0.034586567
0.064801395 -0.1287154 0.67714983 -0.27382725 0.50615418 0.81781816 0.082104065
0.08806745 -0.19857755 0.6827693 0.019236475 -0.00020638849 0.99981499 0.073782057
0.0098464098 -0.093030915 0.62562448 -0.086249039 0.95080888 0.29752907 0.052374717
0.072257847 -0.096135475 0.65958256 -0.047574334 0.96555948 0.25579587 0.042560387
-0.006891265 -0.30154726 0.6554715 -0.3853828 0.042543359 0.92177552 0.00086258288
0.073228113 -0.32770059 0.68947697 -0.11542181 -0.094674014 0.98879445 0.065721631
0.017756348 -0.17471451 0.65787029 -0.348737 0.058149759 0.93541485 0.0010865377
0.026986593 -0.13052905 0.65911698 -0.26460445 0.56175041 0.78385007 0.0799824
0.0072346609 -0.32068768 0.66367549 -0.37652317 -0.14219368 0.91542947 0.041912328
-0.02536246 -0.32279089 0.64884269 -0.43825072 -0.1248211 0.89014381 0.034241386
-0.069788024 -0.14625762 0.61589456 -0.85584128 0.25332516 0.45095682 0.074111894
0.077031069 -0.12678848 0.6797756 -0.2131788 0.51931787 0.82756495 0.10348447
0.035323281 -0.3171117 0.67442214 -0.39014786 -0.13357639 0.91101158 0.033882558
-0.009543173 -0.098894127 0.43960518 -0.44288051 0.72273862 -0.5305711 0.10645158
-0.023559673 -0.309295 0.64879543 -0.45526657 0.0090832487 0.8903088 0.0072393031
-0.049131408 -0.17114882 0.6330601 -0.69009423 0.032167953 0.72300416 0.037965734
-0.057938784 -0.14037222 0.62782937 -0.70660394 0.30871603 0.63671452 0.081549101
0.1102691 -0.14044666 0.68925798 0.36247149 0.22494847 0.90444046 0.12313332
-0.040633477 -0.28044409 0.48598924 -0.92458993 0.015026242 -0.38066745 0.0004974801
-0.080677122 -0.27950725 0.61053061 -0.98266035 -0.010449355 0.18511994 0.067197792
-0.074939393 -0.16443595 0.60479563 -0.97663981 0.087485202 0.19626804 0.049686451
0.17129143 -0.09872026 0.4983224 0.51002973 0.79213357 -0.33525231 0.089524649
-0.065231591 -0.14378306 0.62257725 -0.79155058 0.25554004 0.55510998 0.073450856
0.025521601 -0.35250679 0.67033637 -0.33004558 -0.49218354 0.80549693 0.10944413
-0.043446764 -0.27606896 0.63853413 -0.59334105 0.017050287 0.80477059 0.03648828
-0.031841137 -0.097081378 0.49509206 -0.52625793 0.83198857 -0.17563495 0.071483195
-0.081912927 -0.31217158 0.61085349 -0.96685404 -0.016229618 0.25481328 0.043970194
0.044783488 -0.27316052 0.6731419 -0.34254825 0.084988162 0.93564826 0.0028908467
0.017877338 -0.31023738 0.66650844 -0.39551792 -0.055184908 0.91679901 0.013830827
0.041984901 -0.34573713 0.67857307 -0.38599309 -0.36873701 0.8456018 0.089519724
0.0076818974 -0.093095459 0.5664959 -0.062912159 0.99787569 -0.016918797 0.0057381671
0.052079927 -0.094049707 0.62193805 -0.034928329 0.98703778 0.15664101 0.02488419
0.11324459 -0.16880804 0.69648713 0.36274272 -0.027293935 0.93148959 0.074819341
-0.076571546 -0.37290102 0.6127708 -0.65219963 -0.73890173 0.1692922 0.11676824
0.096251927 -0.093827859 0.54408842 0.034191161 0.99940729 0.0040183314 0.00076685409
0.089963771 -0.093537942 0.5434671 0.026566681 0.9996444 0.0023155746 0.00027972276
-0.00037214649 -0.093317688 0.59919232 -0.11128181 0.98336101 0.14358748 0.032439362
0.077588215 -0.094188556 0.57933539 0.030878276 0.99937677 0.017105851 0.00073059544
0.14872441 -0.098461814 0.60056245 0.42605641 0.89326483 0.14336647 0.093274958
0.10986458 -0.094830751 0.64718789 0.11431095 0.98383647 0.13783583 0.057215188
0.15807657 -0.098462157 0.59526545 0.51884043 0.83408868 0.18735178 0.086981289
0.061237637 -0.094111256 0.62967932 -0.046137381 0.98863024 0.14311394 0.021725725
0.14937064 -0.35717586 0.6256485 0.81965834 -0.44507697 0.36064768 0.10040821
0.024447899 -0.093227588 0.60737872 -0.031216493 0.98340178 0.17873582 0.030572463
0.0091245994 -0.098243214 0.64833194 -0.17586914 0.83663774 0.51875556 0.065406531
0.1477875 -0.10099744 0.60628998 0.45116872 0.87732208 0.163563 0.098055869
0.13267091 -0.09565527 0.62123722 0.25704071 0.95957315 0.11467095 0.065135323
0.18387072 -0.19731252 0.53767538 0.9845171 -0.024768198 0.17353 0.018919231
0.13623436 -0.18256964 0.65008175 0.87355888 -0.0067843869 0.48667133 0.027858339
0.18818074 -0.20086865 0.51455212 0.99574423 -0.032198533 0.086351797 0.034197293
0.12721129 -0.095644444 0.63240755 0.22912413 0.96444094 0.13174127 0.067755811
0.16879438 -0.15834433 0.57059443 0.92346561 0.1723444 0.34279534 0.0275534
-0.027408589 -0.096302509 0.62570739 -0.31130871 0.81237477 0.49308637 0.080766894
-0.024736186 -0.093672141 0.56351143 -0.26510102 0.96304405 -0.047619462 0.03651588
0.14307113 -0.094924286 0.54573548 0.23488031 0.97091424 0.04644103 0.047868673
0.17559868 -0.097146735 0.50903392 0.55178976 0.81042302 -0.19683148 0.093726672
0.14221573 -0.097638972 0.48580626 0.26367009 0.90066034 -0.34538266 0.055795368
0.10134038 -0.093814395 0.51716065 0.055674411 0.99118137 -0.12024871 0.015495038
0.19023907 -0.1003313 0.51629257 0.79085827 0.6114831 -0.025132634 0.088847496
0.11513813 -0.17080133 0.69241482 0.41271576 -0.034002382 0.91022503 0.071374357
0.14386876 -0.29366267 0.63679719 0.89909548 0.0026963796 0.43774426 0.0035145192
0.11555263 -0.24333242 0.69322896 0.36743394 -0.117738 0.92256707 0.066082895
0.18136317 -0.10098045 0.54173124 0.80650735 0.568003 0.1640687 0.075827509
0.1922812 -0.18293287 0.49440387 0.98360056 0.026232986 -0.17844252 0.072580665
-0.046619628 -0.097655632 0.56269974 -0.52501237 0.84372687 -0.11174469 0.072376326
0.16622075 -0.31548265 0.58124745 0.92023021 -0.07810732 0.38350421 0.012159148
0.13507065 -0.09514448 0.50888264 0.17105415 0.96717513 -0.18791722 0.039590098
0.12731272 -0.095263161 0.61550331 0.23976129 0.96628213 0.093879677 0.059286531
0.10245942 -0.093819603 0.53200901 0.044165194 0.99857372 -0.029998375 0.002018942
0.16651297 -0.2841301 0.57959479 0.92892063 0.0087645156 0.37017515 0.00091758644
0.17268769 -0.22907795 0.56805384 0.9361797 0.0085560307 0.35141769 0.0016391008
-0.037394419 -0.094715506 0.55577087 -0.37084031 0.92333293 -0.099668063 0.04689192
0.1435995 -0.095156997 0.52132553 0.23790921 0.96522784 -0.10832541 0.047612511
0.11548569 -0.096943967 0.66511619 0.18652068 0.93175912 0.31150445 0.10171813
0.1814194 -0.1009645 0.50746828 0.63247663 0.73726064 -0.23752926 0.092222176
0.17991337 -0.29390433 0.54942375 0.97568792 -0.011869777 0.21884274 0.012347899
0.14297834 -0.16701488 0.63514102 0.90375638 0.099783197 0.41625443 0.016595349
0.14356862 -0.16197798 0.63351548 0.89010555 0.16646367 0.42426637 0.025127755
0.18417472 -0.28941944 0.54189372 0.98819357 0.011118311 0.15280639 0.021769619
0.13303672 -0.10382664 0.66104585 0.4851675 0.76962394 0.41507995 0.120521
0.18796791 -0.11488752 0.50907099 0.90368491 0.42133814 -0.076339461 0.093754359
0.19243763 -0.37791944 0.49835482 0.68163759 -0.72805852 -0.072807416 0.15298216
-0.016314315 -0.095590107 0.50041038 -0.34011295 0.93366826 -0.11219081 0.061978824
0.13329904 -0.24166057 0.65715504 0.81550384 -0.021577407 0.57834941 0.031441599
0.13376181 -0.102902 0.65947044 0.46210799 0.79314798 0.39670205 0.11282627
0.19127752 -0.27578524 0.50495052 0.96996313 -0.10045809 -0.22153915 0.067611493
0.15122211 -0.095040672 0.53808391 0.31963977 0.94719869 0.025397632 0.065892659
0.058496162 -0.095562488 0.44451085 0.14112656 0.92018145 -0.36517024 0.049547121
0.10557457 -0.09599302 0.68501598 0.021643069 0.92458248 0.38036659 0.081762917
0.1470535 -0.24244843 0.61949378 0.91746163 0.009111586 0.39771995 0.00038161379
0.13679808 -0.12638302 0.64929998 0.6955893 0.54166847 0.47196472 0.10278064
0.16639608 -0.18949197 0.57980889 0.92378533 0.02001263 0.38238749 0.0006794167
0.14884759 -0.27281663 0.6224153 0.91716379 0.014272355 0.39825484 0.00045494636
0.18039478 -0.097110637 0.52689147 0.70992923 0.70354891 0.031928159 0.095594324
0.11535364 -0.10337717 0.68739235 0.19212762 0.77702057 0.59943813 0.12970825
0.16969661 -0.24541724 0.57448786 0.92868328 0.0083097471 0.37078068 0.00089977891
0.15272073 -0.36821914 0.60998088 0.67857814 -0.65582186 0.33080113 0.10608003
0.18861108 -0.29299212 0.50902259 0.98894644 -0.068863787 -0.13131119 0.063863076
0.19505157 -0.15109821 0.49809599 0.96292061 0.19426927 -0.18719862 0.075625494
0.19078737 -0.18529786 0.49719888 0.98669672 0.019626593 -0.16138254 0.069724262
0.1902896 -0.23777515 0.49898201 0.97073638 -0.11621241 -0.2101562 0.061882347
0.14740804 -0.25338545 0.62115371 0.9163565 0.012095679 0.40018058 0.00045358879
0.13536094 -0.23987725 0.65161425 0.81656754 -0.019242726 0.57692909 0.029987611
0.18667303 -0.10400356 0.52107233 0.85430962 0.51682496 0.055199854 0.084475279
0.1712084 -0.32451802 0.5688839 0.92411453 -0.14964828 0.35159326 0.032805793
0.17326382 -0.18938792 0.56139004 0.95098281 0.025444198 0.30819508 0.0036500692
0.14269292 -0.096118458 0.60144907 0.30520692 0.94631177 0.10650244 0.077496655
0.11094413 -0.34340769 0.68685353 0.47698578 -0.18625131 0.85894996 0.11264452
0.096020706 -0.095033161 0.59756392 0.071968146 0.99625403 0.047941305 0.013773639
0.13085268 -0.32170558 0.66296893 0.77485532 -0.09015996 0.62567592 0.041934546
0.12545867 -0.11813653 0.67726719 0.56439787 0.53966063 0.62467706 0.13711105
0.12362161 -0.20406929 0.67688823 0.63022858 -0.015189389 0.77626103 0.081929497
0.10671376 -0.34194234 0.69627434 0.34477127 -0.14588548 0.92728108 0.10018336
0.12896293 -0.35077155 0.66493428 0.71239352 -0.34903309 0.60882789 0.10245885
0.11792645 -0.10914339 0.68365151 0.3722913 0.66564381 0.64677471 0.14977631
0.11125582 -0.1803298 0.69223511 0.41533959 -0.023436559 0.90936446 0.07981813
0.020878084 -0.093384363 0.5914672 -0.020276373 0.99815828 0.057174604 0.0092987018
0.17447361 -0.17427421 0.5574975 0.95601362 0.031247662 0.29165301 0.0048591415
0.1677594 -0.28109753 0.57740563 0.93267077 0.0074263602 0.36065218 0.0014171479
0.14520197 -0.14909174 0.62712455 0.87947738 0.25715762 0.40048644 0.050648913
0.0042428081 -0.093373738 0.49435288 -0.18471786 0.97939271 -0.081664726 0.031537559
-0.016220247 -0.092675194 0.59815967 -0.24579252 0.95794964 0.14804925 0.053812698
0.090095855 -0.097857624 0.67610496 -0.023256782 0.93490261 0.35414147 0.06930244
0.16734032 -0.34060597 0.58072031 0.88491863 -0.2652728 0.38281775 0.064287275
0.18010531 -0.26425627 0.55021316 0.97507799 -0.0020838331 0.22185253 0.014762972
0.18803848 -0.3175016 0.51571977 0.99996966 -0.0077920239 0.0003515502 0.039740521
0.19149467 -0.26509917 0.49669096 0.90292335 -0.10431293 -0.41695109 0.059842255
0.064267501 -0.09312392 0.49428627 0.068655074 0.99098402 -0.11505271 0.01392496
0.16932473 -0.21357438 0.57308561 0.92799896 0.010293242 0.37244058 0.00085714902
0.16641049 -0.16958416 0.57761121 0.92500651 0.065506421 0.37426171 0.0028263971
0.0622214 -0.092515193 0.55973631 0.012617952 0.99989551 0.0070455768 8.3219413e-05
0.1517926 -0.096398935 0.59068906 0.41087639 0.90262359 0.12826215 0.085260585
0.19391109 -0.15200149 0.49425682 0.9392662 0.18181351 -0.29107201 0.077217273
0.18477102 -0.2987437 0.539554 0.98612183 0.014500272 0.16538867 0.018792517
0.17972404 -0.1460392 0.54580325 0.94624203 0.22308244 0.2342227 0.037694834
0.18429849 -0.18262476 0.53426403 0.98336422 -0.012967153 0.18118165 0.013838579
0.17601399 -0.18766306 0.55397987 0.97014618 0.018538885 0.24181142 0.0087987287
0.18837665 -0.23811878 0.52543002 0.99878198 -0.048855625 0.0068993224 0.043063391
0.041759133 -0.0937218 0.63273233 -0.045886289 0.98076379 0.18972827 0.029172769
0.19280401 -0.36958289 0.51987165 0.91811055 -0.38102716 0.10904775 0.11482412
0.0369085 -0.092586175 0.56652945 0.0070660077 0.99996084 0.005324827 0.00012253369
-0.036338564 -0.095757023 0.62695217 -0.36372945 0.83131409 0.42025915 0.081434682
0.026437681 -0.093072645 0.57709521 -0.0024398561 0.99994481 0.01021765 0.00047158057
0.15577781 -0.27917367 0.60469359 0.91850078 0.013668432 0.39518288 0.00025654037
0.12400854 -0.12793601 0.67925787 0.60885823 0.40222889 0.68374234 0.13164757
0.10055463 -0.09494216 0.6383906 0.089487061 0.98836255 0.12301012 0.040439639
0.15683596 -0.09524408 0.56765485 0.33771685 0.93248254 0.12815471 0.076043338
0.15783556 -0.10241334 0.58331865 0.54738194 0.81488162 0.19063309 0.096095711
0.17926304 -0.32053775 0.553554 0.96334684 -0.092611089 0.25176597 0.028279383
0.17217791 -0.16178572 0.56246233 0.93122202 0.1507013 0.33183533 0.022408118
0.16484617 -0.13503076 0.57793874 0.87743473 0.31719905 0.35985157 0.062744342
0.16339432 -0.14446869 0.58101588 0.89140213 0.28460482 0.35270712 0.058987699
0.16759221 -0.17890199 0.57657319 0.9259249 0.033873901 0.3761856 0.00077141065
0.17027666 -0.35099477 0.56953657 0.86019343 -0.37222043 0.34859616 0.082619809
0.19025232 -0.25247809 0.51440138 0.99031591 -0.082000963 -0.11202773 0.057077024
0.17983016 -0.2342674 0.54831648 0.98116505 -0.011258184 0.19284298 0.012506453
0.13886632 -0.099345222 0.64663023 0.35475409 0.91208327 0.20555697 0.084299155
0.14383873 -0.29608199 0.63690734 0.89903194 0.0018101125 0.43787932 0.0032431921
0.13081962 -0.26175213 0.66224253 0.76781178 -0.038603343 0.63951141 0.047783803
0.1411107 -0.3510659 0.63993609 0.7848509 -0.44900504 0.42708737 0.09907043
0.15006979 -0.14325358 0.61301917 0.87235063 0.35850561 0.33238244 0.07711105
0.11734503 -0.26797405 0.68346381 0.63741577 -0.0063079824 0.77049428 0.057161167
0.11283934 -0.095409878 0.6532039 0.14050564 0.97775418 0.15574029 0.07223203
0.11294816 -0.10151209 0.68518269 0.12917902 0.83473712 0.53528196 0.12037192
0.14540026 -0.095025346 0.54523253 0.2489813 0.96737814 0.046775341 0.050863661
0.17016183 -0.096994482 0.56392062 0.63103533 0.74466747 0.21740447 0.090230741
0.17285222 -0.13147722 0.5567714 0.89299244 0.36319989 0.26580137 0.056334656
0.18817717 -0.27297568 0.52778482 0.9991805 -0.03212234 0.024626544 0.040603429
0.16638428 -0.29838255 0.57842869 0.92628151 0.0056441352 0.37679011 0.00085166615
0.17224094 -0.2243976 0.56866884 0.93418384 0.0052268584 0.35675398 0.0013268637
0.16039403 -0.2810154 0.59375858 0.9197349 0.012745627 0.39233306 0.0002784775
0.18665139 -0.22776526 0.52982271 0.99749798 -0.034368847 0.061777946 0.034344424
0.11144897 -0.094845667 0.57079417 0.098471746 0.99433476 0.04002161 0.02004949
0.11439037 -0.16429371 0.69548124 0.37218904 0.033795062 0.92754149 0.079938784
0.15652148 -0.34662542 0.60800308 0.85964519 -0.31055731 0.40566534 0.080020152
0.079009518 -0.09308143 0.51769423 0.043204017 0.99724108 -0.060362954 0.0053875218
0.13401578 -0.27044454 0.65625191 0.79216456 -0.071401022 0.60611647 0.041462712
0.15435423 -0.36828256 0.6069169 0.6861468 -0.66102546 0.30372339 0.10378382
0.15892468 -0.26727366 0.59479398 0.919451 0.013734795 0.39296469 0.00026754124
0.16541998 -0.36360186 0.58406442 0.79729587 -0.50673169 0.32793647 0.09648221
0.15102224 -0.30196878 0.62099367 0.91743875 -0.0060580918 0.39783078 0.00075109256
0.1554241 -0.15996107 0.60208637 0.90858305 0.1567589 0.38717362 0.025378058
0.17644653 -0.17265074 0.55270314 0.9676584 0.03297003 0.25010055 0.0084806252
0.14508843 -0.099442109 0.62299699 0.35638228 0.92528749 0.12974913 0.07740818
0.16620818 -0.20916928 0.57854235 0.92488325 0.012807047 0.38003537 0.00050590414
0.18307164 -0.34801173 0.54234964 0.92560124 -0.26682323 0.26845416 0.075084604
0.13866445 -0.28818354 0.64672261 0.88308543 -0.015745584 0.46894798 0.010231695
0.13406757 -0.26375985 0.65577608 0.80525601 -0.059616588 0.58992255 0.044396173
0.14061354 -0.3751893 0.64240247 0.56798351 -0.77422798 0.27922341 0.089966483
0.16582723 -0.095443584 0.53989303 0.50021154 0.86454266 0.048520375 0.084767029
0.18291925 -0.19322614 0.53874707 0.9817943 -0.01792879 0.18909916 0.012580473
-0.034137122 -0.097087041 0.52296406 -0.51847953 0.84866124 -0.10465688 0.066719726
0.096894093 -0.09429796 0.57093972 0.056213867 0.99805152 0.027075682 0.006456336
0.14227259 -0.29624158 0.64032269 0.89814711 0.0049648648 0.43966699 0.0035618027
0.19491529 -0.1983511 0.49843022 0.99703258 -0.035584409 -0.068262756 0.056952734
0.16094682 -0.11473911 0.57918715 0.74445415 0.60930514 0.27301171 0.10261392
0.19134715 -0.35867646 0.5123359 0.96639436 -0.25623316 0.020654324 0.10389829
0.1896466 -0.28896049 0.51223737 0.99099195 -0.079876058 -0.10749275 0.059642792
0.15731256 -0.1626942 0.59865081 0.91240031 0.1342044 0.38667142 0.017708369
0.017226679 -0.093327567 0.62213421 -0.058832709 0.97150403 0.22960536 0.042168226
0.18763906 -0.18683808 0.51698065 0.9966501 -0.047868937 0.06631095 0.050675027
0.13571936 -0.32790771 0.65467042 0.82350898 -0.13870937 0.55008423 0.04961561
0.15194872 -0.29940018 0.6187616 0.91794115 0.003903273 0.39669743 0.00054718333
0.051402807 -0.091945715 0.55898589 0.010079269 0.99993056 0.0061103343 8.7145825e-05
0.019881641 -0.09342628 0.50965595 -0.060858969 0.99733603 -0.040213469 0.0054460466
0.036231108 -0.09286841 0.54892421 0.0030267169 0.99998975 0.0033717814 0.00015518063
0.18330118 -0.13738339 0.53464276 0.94029027 0.30537954 0.15032458 0.052278478
0.038718741 -0.096516527 0.42932597 0.06892354 0.84635407 -0.52814221 0.070433475
-0.03007465 -0.095507219 0.54363018 -0.34659725 0.93407816 -0.085839555 0.049546678
-0.062522627 -0.10023055 0.60563689 -0.65916061 0.72295117 0.20699964 0.09958452
0.12092768 -0.18799534 0.67887038 0.47435263 0.026027888 0.87995005 0.088876009
0.11683612 -0.099311642 0.4632653 0.1811967 0.86345923 -0.47075024 0.064885862
0.099176675 -0.0973171 0.4646965 0.15842246 0.91279453 -0.37644181 0.060118768
0.18237002 -0.097663596 0.53155607 0.77092719 0.6301046 0.092947721 0.087099336
0.16136242 -0.095277347 0.58054632 0.49099317 0.85234594 0.18008937 0.082101949
0.016455796 -0.094042391 0.42935136 -0.19586149 0.82247555 -0.53401524 0.10099933
0.19215167 -0.15148507 0.50646245 0.97310758 0.20829082 -0.098369963 0.074965984
0.18869931 -0.16344787 0.52191907 0.98694944 0.089992799 0.13353711 0.026302552
0.18136778 -0.16741791 0.54045743 0.97520155 0.057003461 0.21385144 0.015801378
0.18817244 -0.16923107 0.52272034 0.99007446 0.046054691 0.13278352 0.025263432
0.15432777 -0.27086672 0.6068694 0.91864628 0.015152846 0.39479023 0.00027922273
0.079568774 -0.094610579 0.58891934 0.031170433 0.99910933 0.02844264 0.0012224411
0.18673591 -0.15948465 0.52683783 0.97727406 0.12893286 0.1682611 0.029764745
0.18897386 -0.11403546 0.52100343 0.90499306 0.42034924 0.065528832 0.077051453
0.19529404 -0.15855448 0.50464189 0.98630416 0.13562782 -0.09385705 0.066803269
0.18554549 -0.09795662 0.52143389 0.78840739 0.61497533 0.014804469 0.087122567
0.15035757 -0.12778229 0.60746449 0.77988601 0.5791173 0.23748885 0.093894452
0.19019185 -0.3430829 0.52700508 0.97381264 -0.1915807 0.1224165 0.078651935
0.16715719 -0.14920996 0.57238173 0.90475971 0.24463837 0.34865728 0.049851567
0.18937205 -0.18893562 0.50566757 0.99878877 -0.030915113 0.038278669 0.053592727
0.14383312 -0.13044605 0.62333047 0.79403156 0.54100859 0.27717078 0.092808291
0.11180034 -0.20607753 0.68773746 0.29686314 -0.0052340175 0.95490569 0.09204299
0.17601515 -0.37282234 0.55818939 0.73158836 -0.62411696 0.27432925 0.093564406
0.086418092 -0.095115423 0.47421315 0.14815079 0.93780506 -0.31396338 0.051771726
0.16639885 -0.34683651 0.58182508 0.87154841 -0.31585619 0.37501752 0.072752349
0.18136293 -0.10256573 0.50062406 0.62446314 0.69691652 -0.35263744 0.097946599
0.18693133 -0.10438008 0.51017237 0.80355603 0.58572829 -0.10592476 0.09536808
0.18362455 -0.34051058 0.48869315 0.87671167 -0.13993347 -0.46021214 0.084964015
0.18546247 -0.30907735 0.53496695 0.99107862 -0.0045927577 0.1331996 0.020265196
0.17048655 -0.22016957 0.57188326 0.93045706 0.008570658 0.36630067 0.0010242235
0.18463986 -0.20304312 0.5341534 0.99052203 -0.049726393 0.12803687 0.027904291
0.18211289 -0.27152917 0.54654753 0.98642725 -0.0064807828 0.1640708 0.018050319
-0.042408451 -0.093407959 0.59832394 -0.38313434 0.90762591 0.17153223 0.069402084
7.7439305e-05 -0.093687497 0.50411391 -0.2201516 0.97251403 -0.075827472 0.038232967
0.18991734 -0.38168213 0.50109839 0.57144737 -0.81569487 -0.089943118 0.13876112
0.17213091 -0.32573515 0.56721115 0.92384386 -0.15876612 0.34828988 0.037012421
0.15196213 -0.37055257 0.6114518 0.58546722 -0.76337105 0.27293384 0.10024329
0.19027032 -0.28109264 0.5011344 0.93497461 -0.08712744 -0.34384781 0.060418323
0.17187446 -0.098248735 0.50276369 0.53328997 0.79732567 -0.28261912 0.094210021
0.18884987 -0.28571716 0.50137824 0.94424194 -0.11827107 -0.30727673 0.061601333
-0.017157964 -0.092699997 0.59595501 -0.23888782 0.96376729 0.11868104 0.047421925
0.16570333 -0.2943967 0.58106434 0.92657411 0.0074352394 0.37603891 0.00091022102
0.18519652 -0.29819527 0.53793865 0.99398166 0.0069323429 0.10932714 0.030953754
0.17872888 -0.096900932 0.52724129 0.67178738 0.740183 0.028825514 0.095419571
0.18674752 -0.26651907 0.53287113 0.99635345 -0.036099803 0.07730832 0.032685976
0.1032832 -0.10398331 0.45586982 0.20402297 0.85612816 -0.47478324 0.071553104
0.18523495 -0.18824701 0.53240579 0.9888978 -0.033427492 0.1447888 0.02409507
0.05964905 -0.094776712 0.63822943 -0.064338967 0.98425132 0.16465047 0.025415517
0.13045675 -0.32508278 0.66336942 0.7686314 -0.098505512 0.63206202 0.047623813
0.11891944 -0.10123994 0.45998403 0.19962928 0.82371515 -0.53069907 0.068800911
0.088576786 -0.094704017 0.62175167 0.051096942 0.99450278 0.091396011 0.019320279
0.065203957 -0.09311077 0.4910616 0.078656696 0.98810244 -0.13216195 0.016668627
0.18498273 -0.10534989 0.51863146 0.84361649 0.53640968 0.023997055 0.092961296
-0.029100349 -0.0945329 0.62177545 -0.33775848 0.86601198 0.3687036 0.079354368
0.11292294 -0.095818289 0.65463185 0.14537095 0.97096765 0.1899716 0.077112027
0.14241634 -0.10008682 0.4785527 0.28782612 0.84585667 -0.44909099 0.06603276
0.082316719 -0.09536428 0.47172374 0.15746699 0.93763417 -0.30991334 0.051437858
0.054164294 -0.1019038 0.65886933 -0.13209827 0.93032604 0.34211618 0.049381882
0.18235251 -0.15122075 0.53942347 0.9568432 0.19646986 0.21412779 0.036593493
0.14815836 -0.25025496 0.61889863 0.91714984 0.011702679 0.39837074 0.0004389972
0.14820185 -0.25474426 0.61995262 0.9171719 0.011283995 0.39833203 0.00049655401
0.14720117 -0.28009769 0.62720919 0.91801083 0.01896497 0.3961015 0.00052457087
0.015064274 -0.093422346 0.58870089 -0.039912522 0.99774957 0.053877708 0.011478804
0.18753397 -0.23640703 0.52607131 0.99868006 -0.046859246 0.021033457 0.042046916
0.1902969 -0.24797992 0.4945772 0.94191164 -0.097437128 -0.32141641 0.059594527
0.15888785 -0.23832768 0.59538758 0.92012018 0.013872875 0.39139038 0.00019950283
0.17345743 -0.23693949 0.56567264 0.94135398 0.0017271045 0.33741629 0.0020185681
0.17874658 -0.10172004 0.53692967 0.77470672 0.62362903 0.10448175 0.083960027
-0.034463439 -0.093959019 0.57034445 -0.32811192 0.94352144 -0.04593388 0.051783539
0.16902477 -0.097589858 0.50132209 0.49048731 0.81564444 -0.30683267 0.086995058
0.19239555 -0.15966938 0.49163815 0.93624109 0.14253913 -0.32114682 0.072460242
0.1914691 -0.19187696 0.49089837 0.98245394 -0.019615503 -0.18547079 0.071331039
0.035410654 -0.09633176 0.42658949 0.048085604 0.8123185 -0.58122826 0.079262555
0.16362911 -0.20750424 0.58239496 0.92311549 0.013134706 0.38429844 0.00032764621
0.12962116 -0.095632322 0.50599784 0.13389082 0.96858966 -0.20954055 0.034619331
-0.010582275 -0.093151085 0.57617754 -0.16391623 0.98646671 0.0038575693 0.018879894
0.1672698 -0.29008046 0.57745272 0.93085611 0.00960002 0.3652598 0.0012952638
0.15588854 -0.12972465 0.59588724 0.84470105 0.43345857 0.3139964 0.083431132
0.078002468 -0.094532087 0.63121432 0.00048457569 0.99043232 0.13799848 0.023672234
0.020523462 -0.09341526 0.61322737 -0.045187414 0.97795671 0.20385966 0.035948519
0.14623901 -0.097350053 0.49354783 0.29922768 0.90539223 -0.30121055 0.060968708
0.056336094 -0.093886994 0.62709892 -0.049306847 0.9866569 0.15516725 0.024802873
0.14000735 -0.1034456 0.64587212 0.53439009 0.78981876 0.30102065 0.099611901
0.055612925 -0.098405518 0.44001412 0.12798749 0.87258083 -0.47140417 0.061144717
0.14592029 -0.29458314 0.63349515 0.90993094 0.011998811 0.41458607 0.0021937285
0.045827162 -0.093617037 0.60854232 -0.01447979 0.99139827 0.13007678 0.020631583
0.13583265 -0.24632886 0.65216672 0.82050663 0.010427913 0.57154185 0.033684548
0.16767006 -0.17654434 0.5759607 0.92761815 0.032318376 0.37212908 0.00094116142
0.18053353 -0.30295935 0.54786283 0.97544307 0.003264393 0.2202273 0.011223515
0.076987803 -0.094624989 0.62012422 0.021512473 0.99550778 0.092203058 0.012554175
0.093968727 -0.094655879 0.62705863 0.062549263 0.99217349 0.10807077 0.025176972
0.013723531 -0.093938425 0.51773804 -0.10063344 0.9945026 -0.02893848 0.011900148
0.011251775 -0.093546316 0.50516939 -0.13057381 0.99006522 -0.05216489 0.01977089
0.18349667 -0.17906292 0.53660029 0.98258936 -0.0085593164 0.18559307 0.012667089
0.013863207 -0.09330561 0.63526362 -0.11426876 0.92170841 0.37067005 0.060356874
0.14125562 -0.095586903 0.51717722 0.23020063 0.96177435 -0.14831638 0.048141565
0.1109728 -0.095057994 0.63081056 0.13453805 0.98345685 0.12129312 0.048525341
0.071529433 -0.098966382 0.66520828 -0.05308871 0.96046913 0.27327764 0.044108186
0.0055268612 -0.09355326 0.59786493 -0.069661632 0.99158448 0.10912106 0.022309357
-9.7847093e-05 -0.093698561 0.51918232 -0.1753148 0.98362851 -0.041708454 0.029676059
0.087789536 -0.097705208 0.67520368 -0.054515295 0.92664582 0.37196198 0.070889488
0.093995616 -0.094630182 0.63453066 0.051452748 0.99113494 0.12249099 0.027578393
0.11316075 -0.095648371 0.64411646 0.14743829 0.97665465 0.15622948 0.068274371
0.10405406 -0.094187044 0.51073754 0.066249363 0.98796284 -0.1397872 0.018897345
0.13093257 -0.097367562 0.6420213 0.24145956 0.9585911 0.15099798 0.071948007
0.12035849 -0.10004044 0.67191434 0.28273606 0.87030983 0.40326321 0.12827696
0.12474969 -0.10047357 0.66832268 0.3762213 0.83604425 0.39935884 0.12799615
0.10725781 -0.10061839 0.68978864 0.069049545 0.80966306 0.58281893 0.11866453
0.16882959 -0.0959488 0.53543103 0.50876558 0.86017275 0.035503697 0.087052606
0.15530342 -0.099958941 0.59835786 0.56477082 0.79912108 0.20600851 0.093518034
0.16978662 -0.25160217 0.57392538 0.92997915 0.0057318392 0.36756748 0.0010527459
0.066480942 -0.094652608 0.45507726 0.152568 0.93526614 -0.31937483 0.042655211
0.051687386 -0.094025902 0.61736161 -0.032204118 0.9873113 0.1554969 0.024772855
0.078664668 -0.098454274 0.66795743 -0.057945203 0.9511978 0.3030926 0.054484803
0.13108239 -0.20788352 0.6630078 0.74967486 0.017416455 0.66157705 0.072424717
0.13357309 -0.24549496 0.65677756 0.82344383 -0.00071030919 0.56739736 0.031014355
0.071851872 -0.093975961 0.6434325 -0.020906558 0.98418671 0.17589602 0.027870893
-0.022541365 -0.092924342 0.60586894 -0.28390321 0.93717176 0.20275117 0.062653475
0.004755022 -0.093347766 0.58941162 -0.072054558 0.99565458 0.058991812 0.014682349
0.052940805 -0.093993045 0.60910028 -0.015891766 0.99188721 0.12612353 0.019962057
0.056689456 -0.094235145 0.60771239 -0.0062238276 0.99517238 0.097944386 0.014136411
0.015822057 -0.093243323 0.49732536 -0.081882358 0.99432868 -0.06786532 0.009857337
-0.024635497 -0.092744857 0.59023982 -0.26257384 0.96080118 0.088972263 0.045322619
0.064765722 -0.09317904 0.51381397 0.038146384 0.99805003 -0.049407363 0.004220115
-0.023293871 -0.097463451 0.4811596 -0.47747549 0.85579187 -0.1990916 0.066310473
0.10477896 -0.097989902 0.68599498 0.017264102 0.92011762 0.39126164 0.083116062
0.11891692 -0.095224135 0.62868464 0.19255914 0.97307551 0.12666889 0.063042291
0.13782942 -0.096233234 0.59899491 0.27373371 0.95631462 0.10262626 0.070644692
0.14880265 -0.10004543 0.60488349 0.45980039 0.8725487 0.16505243 0.098169535
0.13171645 -0.10174634 0.65882069 0.38885224 0.84828931 0.35944289 0.1126739
0.11501983 -0.12882948 0.68911725 0.43163145 0.34532574 0.83333331 0.13999768
0.1335662 -0.29089686 0.65749806 0.7718004 -0.02668188 0.63530487 0.036663674
0.088275872 -0.096069604 0.46951824 0.15794131 0.92938513 -0.33361331 0.053663891
0.07771036 -0.095129974 0.4722169 0.14957842 0.94281316 -0.29787502 0.048061382
0.054954804 -0.092940338 0.4810096 0.075203896 0.97978503 -0.18537995 0.02465529
0.046249073 -0.097033538 0.44116431 0.061309014 0.90106761 -0.42932314 0.060156822
0.0027916005 -0.10541279 0.42000365 -0.38075528 0.63844115 -0.66889334 0.11063047
0.091736004 -0.10181693 0.45244697 0.20805591 0.8721137 -0.44286609 0.069115162
0.15961277 -0.099657714 0.48081675 0.3986226 0.78638899 -0.47190312 0.068393417
0.16616207 -0.10044943 0.48669875 0.47494853 0.76678032 -0.43182385 0.082668811
0.1677672 -0.096281394 0.54380012 0.5148567 0.85360962 0.079203345 0.085907131
0.072240621 -0.092601284 0.5438208 0.015082645 0.99987966 0.003634945 0.00011302503
0.14863884 -0.10231891 0.60912102 0.46553162 0.86725271 0.17650236 0.098747209
0.17855307 -0.17581452 0.54761732 0.97579449 -0.0023639873 0.21867649 0.011018978
0.077521525 -0.097271524 0.67094505 -0.06547378 0.95236164 0.2978597 0.05105558
0.096291311 -0.093516923 0.54050297 0.035058931 0.99938506 0.00063244929 0.00082217332
0.12655655 -0.17887443 0.66966677 0.68402588 0.0045177508 0.72944379 0.077030584
0.076134332 -0.093962893 0.57744849 0.026509991 0.99953759 0.014894327 0.0002203292
0.11154908 -0.095309742 0.60046905 0.11248557 0.99247992 0.048276208 0.024756083
0.057958908 -0.092210904 0.56167632 0.012002748 0.99990255 0.0071271998 8.5691507e-05
0.027108014 -0.092970483 0.56583196 -0.0067405179 0.99997675 0.0010312385 0.0004065762
0.060071435 -0.092251495 0.5596894 0.012429431 0.99989831 0.0069812401 8.1945385e-05
-0.058984533 -0.097224019 0.60858321 -0.55058521 0.79696739 0.24839251 0.090652831
0.0044410573 -0.093106277 0.56980664 -0.070219666 0.99747837 -0.010305034 0.0058933184
0.04142651 -0.093132794 0.58201146 0.009212574 0.99980205 0.01764003 0.00047786385
0.031144317 -0.092874795 0.56459463 0.0001857754 0.99999583 0.0028723108 0.00023979614
-0.034671877 -0.094037518 0.56474614 -0.33000591 0.94067991 -0.078850865 0.047806136
0.11315242 -0.095162414 0.61499435 0.1462037 0.98679733 0.069682606 0.036209516
0.12077378 -0.095493034 0.62090516 0.21302269 0.97102821 0.10828444 0.060950551
0.069071077 -0.094632797 0.60975218 0.007767458 0.99587399 0.090413958 0.010423898
0.032608084 -0.09347748 0.61242431 -0.03639023 0.98505402 0.16835803 0.028252138
0.022021631 -0.092966631 0.58004624 -0.010945194 0.99987835 0.011115463 0.0012002219
0.10332581 -0.094776601 0.64936393 0.076955341 0.98781055 0.13530755 0.042479355
-0.019863652 -0.094407707 0.6260972 -0.25307173 0.87296861 0.41698968 0.071930669
0.041296769 -0.092757449 0.56917566 0.0078239357 0.99995238 0.0058308421 0.0001237603
0.080037311 -0.093351446 0.56295753 0.021722328 0.99970502 0.010867451 9.7135016e-05
0.092673086 -0.09500815 0.5950951 0.058422707 0.99741244 0.041895594 0.0080011869
0.094755098 -0.094848976 0.5792653 0.051185127 0.99836838 0.025311507 0.0049051153
0.10682411 -0.095434405 0.66017574 0.078326449 0.98076844 0.17876905 0.055343091
0.15002927 -0.09668684 0.59042317 0.3973977 0.91025776 0.11621502 0.084363997
0.13756892 -0.096666045 0.60645676 0.29469979 0.94869357 0.11459739 0.07833831
0.1547505 -0.09757717 0.58846515 0.40312111 0.90662527 0.12459554 0.082013018
0.13653357 -0.096512124 0.61347616 0.28363624 0.95219988 0.11342771 0.064075433
0.1431891 -0.098164827 0.62037396 0.34010965 0.93344867 0.11401325 0.074875198
0.10823193 -0.099156871 0.68330163 0.078961492 0.88290387 0.46286702 0.10856932
0.12618172 -0.1752495 0.67230314 0.66067278 -0.029428648 0.75009698 0.067997687
0.14349206 -0.16330779 0.63345039 0.89547509 0.15234414 0.41822907 0.022632826
0.13011067 -0.094984323 0.56597227 0.19875896 0.97682106 0.079468943 0.048625633
0.13670513 -0.095309421 0.53737885 0.17964399 0.98365635 0.012173773 0.035505895
0.1353914 -0.095031142 0.54016471 0.17179503 0.9849993 0.016209144 0.034873169
0.091155127 -0.093190029 0.52600718 0.040668383 0.9981637 -0.044891078 0.0027601584
-0.014721779 -0.098488897 0.45464972 -0.43127683 0.81636345 -0.38412362 0.095194198
0.03407773 -0.092858166 0.47385186 -0.010704424 0.98163468 -0.1904697 0.023895912
0.029342188 -0.092907175 0.48387802 -0.030500824 0.98882782 -0.1459084 0.018667603
0.06271033 -0.093125567 0.50529069 0.053767644 0.99564773 -0.076123372 0.0085093128
