# .PCD v0.7 - Point Cloud Data file format
VERSION 0.7
FIELDS x y z
SIZE 4 4 4
TYPE F F F
COUNT 1 1 1
WIDTH 1393
HEIGHT 1
VIEWPOINT 0 0 0 1 0 0 0
POINTS 1393
DATA ascii
0.074064612 -0.1480469 0.46757549
0.073485047 -0.27343231 0.4621636
0.1037272 -0.2369923 0.55614179
0.079978168 -0.05490971 0.48234761
0.1031562 -0.25592479 0.53538448
0.057759281 -0.1661737 0.41993481
0.046428561 -0.14808489 0.3926183
0.042072769 -0.24221469 0.3856757
0.098314553 -0.21834619 0.53940201
0.1074798 -0.1734568 0.56829083
0.033040401 -0.088033259 0.3630169
0.086627387 -0.136328 0.50587618
0.093155652 -0.1644842 0.53012359
0.066487253 -0.18485279 0.45513269
0.055603921 -0.2471973 0.4234511
0.082552344 -0.2006758 0.4987289
0.069306493 -0.23666529 0.46478719
0.091235816 -0.26516119 0.52741402
0.078504197 -0.1499961 0.4866735
0.08911708 -0.2431335 0.51727122
0.097981483 -0.28408101 0.53727847
0.066687293 -0.2401908 0.4500376
0.034127951 -0.2369274 0.37527159
0.055344731 -0.27948111 0.41185951
0.083190471 -0.1535822 0.49868661
0.097440541 -0.23716269 0.54697257
0.01518565 -0.028712951 0.59751213
0.077292137 -0.06460087 0.4750492
0.1016209 -0.2290113 0.54916799
0.098213881 -0.06144819 0.53991812
0.094207577 -0.079748593 0.53699672
0.1000279 -0.059617721 0.5459584
0.1007116 -0.060261872 0.55829448
0.095331907 -0.229847 0.51944947
0.099700242 -0.26822531 0.55715781
0.040133599 -0.096934408 0.38040799
0.04079026 -0.047702521 0.3770749
0.064941883 -0.1054565 0.4380261
0.074460693 -0.1048344 0.47228971
0.033372879 -0.04141764 0.36347681
0.092285931 -0.081504829 0.52035052
0.041074421 -0.1150965 0.37471619
0.058151718 -0.066581599 0.41282979
0.064154208 -0.05293534 0.44396821
0.050193369 -0.18011969 0.39952281
0.084886968 -0.19489031 0.4816657
0.055027962 -0.2461592 0.39243171
0.076277882 -0.1413829 0.48750231
0.044983979 -0.1675466 0.37681851
0.075971536 -0.1220959 0.48319361
0.081750602 -0.178094 0.50914049
0.097055413 -0.058483221 0.53859597
0.077935159 -0.16501521 0.4752728
0.05934459 -0.27818331 0.43054751
0.042167369 -0.1338488 0.37832421
0.036388811 -0.042268358 0.35631979
0.079459071 -0.1462121 0.48182479
0.1050051 -0.2484545 0.56735921
0.066253297 -0.27454171 0.45465299
0.088692158 -0.127079 0.48873359
0.088369548 -0.071140572 0.5156759
0.05123109 -0.2548506 0.4076663
0.099985242 -0.2074883 0.55083859
0.046729561 -0.1212264 0.399674
0.07366097 -0.070326693 0.4800126
0.1045014 -0.1271174 0.5616194
0.096534729 -0.033710349 0.55314958
0.099844433 -0.28387311 0.55638409
0.077189207 -0.24878161 0.48420081
0.092563212 -0.27727649 0.52407891
0.051942941 -0.081005633 0.39900449
0.092691988 -0.067066923 0.52426583
-0.1106933 -0.03172531 0.55550009
0.094590008 -0.17803369 0.52985221
0.105256 -0.1663357 0.55413902
0.099526882 -0.1001784 0.56119841
0.059699118 -0.036707889 0.4196766
0.05608356 -0.055322152 0.41775489
0.062044378 -0.037909292 0.43077591
0.04369444 -0.04563576 0.38621041
0.01447147 -0.118568 0.3451038
0.04993486 -0.1812961 0.39862469
0.04347289 -0.19423971 0.36980081
0.05005753 -0.183313 0.42765811
0.03394163 -0.2393101 0.3620095
0.042509791 -0.17764249 0.36429459
0.050283369 -0.046634238 0.400289
0.04399598 -0.079246737 0.3839862
0.073112071 -0.28159311 0.4732545
0.04095852 -0.085985392 0.38411579
-0.1261721 -0.03154321 0.56827188
0.1046279 -0.1688111 0.57170761
0.081695467 -0.25033641 0.4939923
0.079809643 -0.096406966 0.49383879
0.059616391 -0.1178899 0.42815661
0.063075177 -0.09341085 0.43948609
0.06130236 -0.036305781 0.50571269
0.06312412 -0.1470913 0.4445231
0.038295809 -0.074876197 0.37536871
0.043921411 -0.095784217 0.39249879
0.064936101 -0.1535963 0.45163819
0.07950905 -0.2371859 0.48537779
0.068958998 -0.1771754 0.46023449
0.055098061 -0.047764782 0.42460659
0.032019671 -0.2094073 0.3567529
0.08100009 -0.1635066 0.49857491
0.05478609 -0.240372 0.41835079
0.1006016 -0.25126711 0.5537408
-0.093619637 -0.070843458 0.64505368
0.03400135 -0.20606171 0.36576721
0.055858079 -0.2622498 0.42542619
0.09578371 -0.048747681 0.51408899
0.1078041 -0.033579741 0.5652715
0.098379336 -0.22631159 0.5714699
0.03016907 -0.035277579 0.50319058
0.054418691 -0.035306219 0.44167241
0.06412679 -0.032198701 0.51045948
0.106946 -0.058743268 0.57108939
0.076007649 -0.034568999 0.49591991
0.1042465 -0.03172091 0.56926352
0.098991074 -0.270376 0.56892568
0.1017062 -0.110142 0.56691271
0.096439123 -0.1607668 0.57244742
0.04281038 -0.2053299 0.59489387
-0.03037494 -0.036276039 0.62185723
-0.09549886 -0.1840474 0.63327342
-0.096446872 -0.1699333 0.63601232
-0.02425912 -0.071291238 0.61846417
-0.0082604894 -0.18800829 0.61118722
-0.14696559 -0.03098035 0.43735921
0.02274579 -0.031956341 0.50217909
0.06140596 -0.05003589 0.5859521
-0.05532727 -0.21809059 0.62783968
0.084234737 -0.1057333 0.5797925
0.049838688 -0.1290427 0.59183693
-0.01325083 -0.27390161 0.61590952
-0.02567381 -0.100396 0.61781168
-0.1293833 -0.036424641 0.53910178
-0.018968429 -0.068101138 0.61658728
0.068284661 -0.041265119 0.58086479
-0.094965458 -0.1151314 0.64315331
-0.093161494 -0.2679334 0.63918918
-0.092587017 -0.1952894 0.63781112
-0.05290306 -0.1621252 0.62482947
0.03956911 -0.2769613 0.59274668
0.070773147 -0.1230706 0.58770782
-0.0163486 -0.2066952 0.62154287
-0.065210998 -0.089702673 0.63324863
-0.065328419 -0.24972799 0.63206643
-0.025895661 -0.27510339 0.62209481
-0.01288512 -0.027266949 0.40371999
-0.1697724 -0.036521051 0.4352546
-0.1577567 -0.032215118 0.460899
0.09854807 -0.2441275 0.56198132
-0.057454079 -0.2030324 0.62526679
-0.01787615 -0.13006461 0.61692548
0.070030943 -0.089940518 0.58542389
0.083079927 -0.224565 0.48805389
-0.067818142 -0.1415868 0.63109982
-0.05783239 -0.077355802 0.62613791
0.063027076 -0.071366914 0.58843768
-0.033266898 -0.088178404 0.61886168
0.077834733 -0.2658256 0.58350903
-0.02391571 -0.035797361 0.60669738
-0.1324677 -0.02947511 0.55815703
-0.02816212 -0.037171781 0.61825669
-0.057664841 -0.033230688 0.52905631
-0.0988639 -0.191769 0.64351362
-0.02487582 -0.095560431 0.61545569
-0.040816661 -0.082165092 0.61684477
-0.01316461 -0.1646806 0.61415702
0.034064531 -0.27583221 0.59377593
-0.056513309 -0.1709294 0.62447888
0.078727193 -0.2218816 0.58226001
-0.14986029 -0.031808019 0.47665301
0.1049924 -0.25267211 0.56208092
0.0729855 -0.039274719 0.47644421
-0.066531003 -0.1847268 0.63109511
-0.027453929 -0.1928587 0.62602878
-0.045544859 -0.185527 0.62547642
-0.089784503 -0.1021733 0.63559872
0.1035487 -0.160438 0.57072091
0.080266267 -0.1064683 0.57984722
0.1047701 -0.167142 0.57172948
0.082471609 -0.2242887 0.57781613
0.01228413 -0.1082129 0.60764712
-0.076476872 -0.033570979 0.62593228
-0.07696861 -0.03222486 0.63057297
-0.05538559 -0.02866924 0.60304922
-0.070559978 -0.03210545 0.6123451
-0.094011717 -0.089805923 0.63502657
-0.1373744 -0.03115885 0.53397483
-0.03476074 -0.25941819 0.62313622
-0.054664019 -0.2660071 0.63074881
-0.080475003 -0.037362579 0.63644397
0.072755158 -0.062357631 0.58483863
-0.085780174 -0.1199605 0.63831133
-0.1241913 -0.05701283 0.57082641
0.069671959 -0.2021592 0.58325952
-0.094159573 -0.048045959 0.63784212
-0.1065649 -0.02856979 0.60479558
-0.102183 -0.065146767 0.64325279
-0.1275291 -0.033160541 0.47445869
-0.087836623 -0.1436422 0.63754749
0.093962729 -0.033792142 0.53378087
0.096970603 -0.050485611 0.58045292
0.066669822 -0.2533544 0.58954942
-0.01489663 -0.2123785 0.61953622
-0.05830792 -0.2051492 0.63511902
0.1018012 -0.2062666 0.56838793
-0.1026609 -0.033565521 0.61728781
-0.088324822 -0.033284519 0.57010472
0.076581337 -0.03017807 0.52730668
0.016644301 -0.035206791 0.3814806
-0.109419 -0.23022 0.6365248
-0.1157687 -0.23727641 0.62167603
-0.1085789 -0.28856859 0.633555
-0.1346589 -0.053163741 0.5591476
-0.1652007 -0.04524751 0.46909931
-0.1519468 -0.1842692 0.51414132
-0.1718224 -0.1429306 0.4542146
-0.16879509 -0.070248507 0.455717
-0.1110899 -0.122633 0.62680632
-0.1067372 -0.1505321 0.63466018
-0.14563739 -0.1820703 0.53070492
-0.16907731 -0.2272757 0.46765849
-0.1306911 -0.040779769 0.54815441
-0.12831759 -0.1121526 0.5772506
-0.1709616 -0.2154354 0.4788177
-0.16912539 -0.1114835 0.45942459
-0.1471379 -0.26743931 0.55875611
-0.16221049 -0.1802776 0.47901681
-0.14869121 -0.080439247 0.51199502
-0.1119426 -0.1388977 0.62575603
-0.1657842 -0.19871899 0.4731521
-0.1270968 -0.232783 0.58756781
-0.120795 -0.16035201 0.59796089
-0.13593081 -0.05327088 0.54896641
-0.1151757 -0.1035277 0.61150789
-0.18398421 -0.28828481 0.43187109
-0.172962 -0.03271715 0.4422681
-0.112526 -0.02619482 0.60412759
-0.16373581 -0.055116732 0.4686603
-0.144339 -0.065510087 0.52043372
-0.15491401 -0.068340853 0.48715749
-0.1280403 -0.1310973 0.57869673
-0.1188188 -0.25300169 0.62214363
-0.1151192 -0.1199067 0.62857902
-0.1389973 -0.2494467 0.55802149
-0.1481258 -0.16476651 0.54059923
-0.127 -0.230692 0.59936053
-0.1409194 -0.25446799 0.5691582
-0.1492525 -0.1693438 0.5154736
-0.1290012 -0.1689167 0.59888971
-0.1145571 -0.27424869 0.63172269
-0.1171177 -0.20923419 0.60939372
-0.1124006 -0.1698765 0.62888682
-0.1438258 -0.2342471 0.5343765
-0.1087413 -0.086745687 0.63109732
-0.1067907 -0.1027368 0.63252431
-0.16277879 -0.1741879 0.4931877
-0.14611819 -0.03886091 0.52127409
-0.1584748 -0.057496689 0.49497479
-0.12948459 -0.089242771 0.56141579
-0.1793042 -0.126886 0.44868141
-0.1553711 -0.1019436 0.51459467
-0.1538725 -0.1068251 0.49970129
-0.16254251 -0.030963911 0.47629789
-0.1371928 -0.072216667 0.55303818
-0.16957881 -0.1481638 0.46289971
-0.12610041 -0.1149049 0.58378702
-0.1271389 -0.2382074 0.59940332
-0.119876 -0.28321341 0.6150409
-0.1253555 -0.1285558 0.59544909
-0.152299 -0.2744315 0.53332168
-0.1368093 -0.276907 0.58210802
-0.146005 -0.1545954 0.53034031
-0.1710709 -0.26535931 0.48270309
0.00034493211 -0.035965849 0.38539869
-0.1215711 -0.082969062 0.60175508
0.0045805569 -0.025833961 0.44968629
-0.1003428 -0.19073839 0.63070101
-0.1165587 -0.20632461 0.63227528
-0.1137653 -0.062151842 0.61808997
-0.17747059 -0.185344 0.46638951
-0.1484153 -0.2326023 0.55287111
-0.1710438 -0.1382717 0.4701046
-0.1543816 -0.1781245 0.51432598
-0.1441453 -0.16482539 0.54090458
-0.15113001 -0.071227789 0.50719452
-0.1682128 -0.05807038 0.45347729
-0.1638037 -0.2229398 0.48678851
-0.1188177 -0.1337394 0.60050339
-0.1273804 -0.070693523 0.57639402
-0.1296431 -0.2031547 0.58705282
-0.1189344 -0.2554881 0.62138653
-0.1379101 -0.2011975 0.57677507
-0.1182882 -0.2033215 0.62413758
-0.1396831 -0.28252271 0.56303781
-0.1028173 -0.2561335 0.63416111
-0.1510459 -0.21312 0.54247153
-0.13250069 -0.15581121 0.59163249
-0.1583686 -0.1335088 0.4940998
-0.1300227 -0.1243787 0.58038503
-0.1339933 -0.16732059 0.55886543
-0.1517812 -0.033067171 0.50662929
-0.1747276 -0.04489832 0.4438628
-0.16282371 -0.1767749 0.50471067
-0.17765529 -0.1013927 0.45019871
-0.1776063 -0.27151281 0.43470961
-0.14600161 -0.27058059 0.55586308
-0.1151778 -0.22378249 0.622576
-0.13223609 -0.28276861 0.59726071
-0.1056764 -0.23786139 0.63265771
-0.1198959 -0.1210711 0.61568022
-0.17289931 -0.207241 0.45216641
-0.15882491 -0.088795401 0.50669342
-0.171005 -0.097928427 0.46225661
-0.16419581 -0.17882331 0.47678441
-0.15971141 -0.26759511 0.51794761
-0.1577834 -0.2792401 0.50929242
-0.12786441 -0.028544061 0.52909511
-0.1119986 -0.1899808 0.622437
-0.1267152 -0.1725605 0.59492552
-0.1054208 -0.030960949 0.56582069
-0.1202244 -0.1463031 0.61419362
-0.175824 -0.2032761 0.46781409
-0.1729611 -0.172272 0.44417039
-0.1548432 -0.1004141 0.50167882
-0.17731319 -0.060060181 0.46322379
-0.1558881 -0.089242771 0.49691689
-0.1819651 -0.1032497 0.4382745
-0.1524692 -0.079080753 0.51795441
-0.1450073 -0.069194853 0.51261008
-0.1633855 -0.1018055 0.48953629
-0.1581091 -0.1789283 0.48479241
-0.1673767 -0.2057493 0.4799293
-0.1187287 -0.08494743 0.58563107
-0.13402119 -0.045181852 0.56414592
-0.1162439 -0.1241759 0.60925889
-0.1248969 -0.28289691 0.62218118
-0.1115041 -0.141884 0.63849831
-0.1618948 -0.19002301 0.51064962
-0.1403558 -0.14463191 0.55570811
-0.1605659 -0.067173824 0.4815059
-0.1745224 -0.2745792 0.43731019
-0.16733161 -0.25849709 0.4722544
-0.1488947 -0.20574801 0.5292666
-0.14567439 -0.2318372 0.52555829
-0.1606025 -0.28812271 0.52870291
-0.1594485 -0.1579392 0.48246631
-0.14066149 -0.1497324 0.5337522
-0.1755002 -0.26226151 0.46073699
-0.15029339 -0.1706638 0.52619761
-0.119675 -0.085549273 0.59289378
-0.14644 -0.12657949 0.55451649
-0.1548298 -0.1192911 0.5639146
-0.12769189 -0.1972509 0.58141422
-0.1008846 -0.20364609 0.63015169
-0.139349 -0.16528501 0.56029058
-0.16199119 -0.1216627 0.48129159
-0.15601259 -0.1362806 0.55276102
-0.1719241 -0.26212391 0.42919809
-0.16072141 -0.2011482 0.47903439
-0.1601844 -0.040286429 0.487804
-0.1654395 -0.099569313 0.47539631
-0.1763524 -0.28802219 0.45711109
-0.1177619 -0.14913671 0.6006152
-0.1613005 -0.2216119 0.4785189
-0.1760892 -0.1808679 0.43389931
-0.149767 -0.27999529 0.52524883
-0.130868 -0.25286999 0.58271468
-0.1374159 -0.18249381 0.56011081
-0.1401069 -0.1508802 0.5613389
-0.1388592 -0.14698149 0.54382551
-0.1242476 -0.1540218 0.58901131
-0.18289369 -0.22566 0.4696689
-0.1669488 -0.0941379 0.4836171
-0.1145419 -0.2165814 0.63336802
-0.17451911 -0.28701341 0.44056901
-0.1785536 -0.2038063 0.43327409
-0.1687648 -0.2386016 0.43217081
-0.1848339 -0.2184006 0.4576188
-0.1151583 -0.037275892 0.58877522
0.034941379 -0.019762229 0.59057271
-0.1125932 -0.02828287 0.59619612
-0.1708806 -0.089566849 0.46477669
-0.1588483 -0.086545527 0.4849849
-0.1581497 -0.170265 0.47165209
-0.13889159 -0.2291729 0.55663389
-0.15706129 -0.19433209 0.54183769
-0.1192238 -0.1183524 0.59815133
-0.1115108 -0.1282744 0.60295677
-0.1240979 -0.234336 0.60532761
-0.14114369 -0.18862811 0.60915297
-0.13129599 -0.1595763 0.58547127
-0.15653481 -0.2043079 0.50385249
-0.1122818 -0.22128379 0.61435109
-0.1595536 -0.26094481 0.49257079
-0.1778805 -0.09120471 0.45818549
-0.15082911 -0.094631113 0.50613981
-0.1633545 -0.1136788 0.4509241
-0.074666619 -0.02988911 0.3999899
-0.1683681 -0.031978581 0.46815979
-0.1364034 -0.082366921 0.55004501
-0.1346191 -0.1894007 0.62571949
-0.1173658 -0.099015377 0.61288738
-0.1091546 -0.26887241 0.63278741
-0.128318 -0.085498579 0.57892507
-0.1185817 -0.1124075 0.59160048
-0.15346199 -0.073472217 0.49572861
-0.1662489 -0.05047819 0.45754021
-0.112253 -0.039376009 0.60970592
-0.1656165 -0.28770861 0.4701919
-0.14457209 -0.034317229 0.52374822
-0.036385451 -0.03255903 0.56249148
-0.086565971 -0.031447761 0.56769383
-0.1169349 -0.036570471 0.40999001
-0.1348671 -0.03014959 0.54224759
-0.086507253 -0.069336914 0.4028222
-0.029061681 -0.077989154 0.3790088
-0.055092629 -0.071447819 0.3870773
-0.1689287 -0.034206871 0.43734181
-0.092802972 -0.048046101 0.4013541
-0.04731616 -0.037448991 0.39016321
-0.1250668 -0.058627021 0.41201141
-0.05620924 -0.07702212 0.38531649
-0.1695282 -0.076017223 0.42482939
-0.067711294 -0.031878989 0.5401184
-0.069011182 -0.04056168 0.39542031
-0.02453595 -0.05550722 0.3777926
-0.019346951 -0.066282213 0.37662491
-0.01041752 -0.101156 0.37386981
0.0090375543 -0.15285701 0.3640492
0.019697521 -0.1385103 0.36406389
-0.1132869 -0.045437802 0.40808529
-0.015847679 -0.03706333 0.3755804
-0.0021066959 -0.032664191 0.40463531
0.008695811 -0.09409079 0.36323911
-0.1047437 -0.063712612 0.4056637
-0.01548637 -0.1005168 0.37386599
-0.003616184 -0.1250339 0.37297231
-0.02112982 -0.097293347 0.37822211
-0.1239345 -0.05007628 0.41343549
-0.072715431 -0.04972215 0.39598641
0.01043278 -0.044293448 0.3681106
-0.1161414 -0.03084472 0.42631471
-0.086217701 -0.0299947 0.46414411
-0.067313053 -0.04490095 0.39399719
0.02246806 -0.14487369 0.35935989
0.01322946 -0.14469831 0.36165681
0.0112057 -0.1318132 0.3658691
-0.15438449 -0.13283861 0.4246332
0.019575089 -0.039967131 0.36715809
-0.1223613 -0.03581959 0.41280639
-0.1108073 -0.2573047 0.4024893
-0.032194611 -0.077344313 0.3809602
-0.1483926 -0.1498445 0.41535151
-0.1547302 -0.1198181 0.42228141
-0.1441545 -0.1409293 0.41611981
-0.1512984 -0.2191515 0.4179945
-0.13130949 -0.061715089 0.4083834
-0.1073574 -0.063622922 0.4107767
-0.032164831 -0.03093845 0.59098279
-0.1489452 -0.2561484 0.41620079
-0.06358625 -0.089098901 0.39108339
-0.135672 -0.067048177 0.42308009
-0.1250646 -0.069717601 0.412577
-0.15401471 -0.09226121 0.42150789
-0.1093694 -0.069676153 0.4065333
-0.058539391 -0.035975181 0.3926897
-0.0038009579 -0.03618668 0.37372729
-0.1609026 -0.1249764 0.42298761
-0.171754 -0.087399483 0.43010151
-0.1000061 -0.048845541 0.40887019
-0.0277234 -0.2493152 0.3720949
-0.1187611 -0.2033505 0.41003051
-0.0070775449 -0.1460381 0.36763781
-0.1434101 -0.2692008 0.4092907
-0.021595869 -0.246307 0.37530661
-0.086994559 -0.087467507 0.39836669
-0.083137147 -0.084061183 0.4029935
-0.1173439 -0.08036384 0.4124057
-0.1182448 -0.13647629 0.4154551
-0.1416074 -0.1639248 0.41858509
-0.1420366 -0.24494819 0.4115766
0.0028961301 -0.091262028 0.37023321
-0.1762892 -0.1897379 0.4330858
0.02334341 -0.25896561 0.36119169
0.02551135 -0.25520769 0.36305761
-0.065270238 -0.0303022 0.59178102
-0.1588347 -0.1564301 0.41573429
-0.12688769 -0.1082352 0.42310899
-0.1316345 -0.22748511 0.41278249
-0.1554601 -0.2817663 0.41688201
-0.037021369 -0.097576678 0.37808529
-0.1619072 -0.25534821 0.42478901
-0.1648954 -0.1986227 0.43224651
-0.01308376 -0.084479928 0.3805472
-0.115865 -0.2307364 0.40861759
-0.095388249 -0.1313957 0.4051823
-0.0082395365 -0.096273631 0.37629309
-0.1546088 -0.2771129 0.41297299
-0.042632561 -0.043414012 0.392176
-0.1215456 -0.085040241 0.41166291
-0.0086440444 -0.1180009 0.3763707
0.01022774 -0.05610295 0.36779159
0.019801861 -0.193524 0.36218259
-0.02103552 -0.1101459 0.37310669
-0.15785161 -0.22607321 0.42505449
-0.094420373 -0.089040689 0.4008736
-0.0099431574 -0.1387749 0.37243131
-0.1481913 -0.1373257 0.42096561
-0.074424952 -0.08324907 0.4009296
-0.14316741 -0.19518369 0.41564849
-0.13447841 -0.16635109 0.41776341
-0.1067719 -0.135327 0.40641451
-0.1338734 -0.25820741 0.40981191
-0.06077585 -0.27307919 0.3839536
0.045312259 -0.03211952 0.44635591
-0.1159365 -0.065537103 0.41165999
-0.1051524 -0.029839789 0.41445309
-0.03640252 -0.2152297 0.3821196
-0.1072848 -0.1706893 0.401315
0.0071530342 -0.16684081 0.3592588
-0.053509679 -0.2463444 0.38937351
-0.11721 -0.12839469 0.409998
0.001620561 -0.27834409 0.3616913
-0.04522869 -0.2732192 0.37696749
-0.0367814 -0.1176029 0.3718186
-0.083785303 -0.2823875 0.39321119
-0.0040696561 -0.22955871 0.36875519
0.027410951 -0.26564011 0.3647452
-0.064738721 -0.17228121 0.39122301
-0.03824294 -0.1649172 0.3826001
-0.087529391 -0.2352159 0.4016566
-0.041355882 -0.2678704 0.37829009
-0.1163614 -0.2331637 0.40253061
-0.003827363 -0.27862599 0.3625305
-0.129048 -0.2543318 0.4087989
-0.1039183 -0.2391807 0.40093061
-0.071935982 -0.1297828 0.39771509
-0.1025114 -0.1186477 0.40628669
-0.03887859 -0.21163911 0.37937289
-0.055184841 -0.1499594 0.38652059
-0.043602381 -0.28523421 0.37739509
-0.17379969 -0.1778588 0.43399391
-0.074657321 -0.26340321 0.38976821
-0.16231699 -0.19147649 0.420912
-0.072533131 -0.19695809 0.39307091
-0.073241137 -0.1103033 0.39771861
-0.086614609 -0.2265573 0.39594159
-0.01427597 -0.1383632 0.37747329
-0.01313242 -0.2489896 0.36918059
-0.1155375 -0.26081201 0.40409121
-0.02625367 -0.26908389 0.36748561
-0.0081033111 -0.2049364 0.36738789
-0.039074689 -0.2445033 0.38257301
-0.099985451 -0.26237929 0.40383479
-0.03065777 -0.20335419 0.3768692
-0.117069 -0.1145905 0.41286951
-0.03957713 -0.2214191 0.38376921
-0.065245628 -0.1095084 0.3949199
0.01221994 -0.1929013 0.36622101
-0.03657249 -0.25954601 0.37922701
-0.1552055 -0.031286079 0.43202659
-0.1084792 -0.27319151 0.3975859
0.02067193 -0.1302661 0.35764351
-0.030009329 -0.2464067 0.3828482
-0.1727851 -0.049878191 0.4341628
-0.074521929 -0.2381414 0.3922748
-0.041555669 -0.25388721 0.38070229
-0.1505018 -0.2719107 0.4185456
-0.1761684 -0.27690911 0.43226269
0.0052838922 -0.04844743 0.36983979
-0.02477956 -0.055830941 0.37808669
-0.14254171 -0.1419958 0.4189623
-0.15288059 -0.093235791 0.42384371
-0.15475491 -0.087255977 0.42720291
-0.1589523 -0.099746764 0.43517071
-0.15115841 -0.1330283 0.4226796
-0.15865199 -0.1269473 0.4271479
-0.0213733 -0.039304659 0.36995879
-0.1728721 -0.087524652 0.42861459
-0.1485339 -0.04424597 0.42806
-0.1628585 -0.1097588 0.42954409
-0.1531356 -0.101192 0.4230997
-0.017830789 -0.066232063 0.37665841
0.031143609 -0.088781327 0.36200511
-0.16422071 -0.2167735 0.42119199
-0.1755462 -0.1903407 0.4326328
-0.14962751 -0.2198437 0.42009479
-0.063662201 -0.1713095 0.3926529
0.01229393 -0.04873462 0.36743379
-0.1671335 -0.21600731 0.42750561
-0.082003653 -0.2854977 0.39755991
-0.041155461 -0.27646509 0.38223749
-0.13960239 -0.30446461 0.41048929
-0.16177399 -0.2547968 0.42227191
-0.1677676 -0.29997209 0.42970401
-0.1739227 -0.30544379 0.42948619
-0.1029735 -0.30148849 0.3994647
-0.1511033 -0.32103291 0.41260511
-0.1761412 -0.2395599 0.43868691
-0.17399371 -0.30960751 0.45040309
-0.1290523 -0.31809041 0.6328724
-0.1436968 -0.2595925 0.42298919
-0.13407411 -0.2724691 0.4066824
-0.1718065 -0.2522285 0.4255088
-0.04927725 -0.2086214 0.3789947
-0.16688021 -0.28203681 0.4231708
-0.1584131 -0.2247996 0.4240014
-0.14537901 -0.29311231 0.41311651
0.017430419 -0.046840642 0.36158699
-0.16320039 -0.19868539 0.42707399
-0.1151794 -0.31329161 0.40194169
-0.08481735 -0.2374482 0.39724979
-0.16270719 -0.1499154 0.42583719
-0.1431855 -0.1949759 0.41519779
-0.02183306 -0.074043013 0.37711149
-0.1114976 -0.030932199 0.60813248
-0.15462349 -0.079327807 0.42526701
-0.1653679 -0.06099873 0.42886791
-0.1709431 -0.23879559 0.4272646
-0.1220139 -0.30263489 0.6296367
-0.1666749 -0.05811746 0.42824161
-0.1680847 -0.1904628 0.4281396
-0.1717076 -0.22179911 0.42512369
-0.1544091 -0.2438117 0.42135781
-0.1540519 -0.059329599 0.42384869
-0.1447278 -0.20039 0.4160133
0.0091441572 -0.032369491 0.37404001
-0.17273261 -0.25643009 0.43611461
-0.1350611 -0.2006492 0.41334799
-0.14388689 -0.05268741 0.42305431
-0.1395324 -0.2132142 0.41614509
-0.1439404 -0.085571483 0.41818231
-0.1350973 -0.21729741 0.41176081
-0.0011839269 -0.041218761 0.36804909
0.00894171 -0.044977728 0.36830211
0.029313739 -0.049275309 0.35798749
-0.0151583 -0.03674731 0.3761954
0.01769015 -0.03864802 0.36470401
-0.034185499 -0.02953383 0.58598381
-0.05945069 -0.030105939 0.59270328
-0.16841599 -0.075722143 0.42848879
-0.0064963698 -0.030307449 0.60261661
-0.14343069 -0.034825061 0.42750901
-0.1665144 -0.32205769 0.42058659
0.023762381 -0.062656179 0.36602131
-0.1316877 -0.2273472 0.41260231
-0.073836707 -0.03189208 0.60690087
-0.1740943 -0.069992296 0.42873669
-0.069251209 -0.030528611 0.53617942
-0.1656625 -0.051300421 0.43047521
-0.048583921 -0.036213409 0.38724959
-0.046525929 -0.040100642 0.38901031
-0.1180945 -0.319098 0.63837779
-0.116917 -0.097854599 0.61205608
-0.16523691 -0.21932261 0.47174931
-0.1738501 -0.2130302 0.44559759
-0.1072706 -0.091826327 0.62707561
-0.1383047 -0.163734 0.55717498
-0.1440265 -0.2029151 0.53554672
-0.1135209 -0.2015612 0.62132847
-0.1333414 -0.12723009 0.55698979
-0.17133109 -0.28362289 0.46617681
-0.1637411 -0.2260576 0.4785215
-0.16137721 -0.21854369 0.48235291
-0.1698419 -0.208092 0.44208461
-0.1736455 -0.22608539 0.4508521
-0.1217687 -0.1315951 0.59288079
-0.13065951 -0.32316911 0.59325719
-0.1219626 -0.09529569 0.58224708
-0.17172331 -0.29038051 0.45678541
-0.1205347 -0.1092057 0.58216739
-0.1300889 -0.1987814 0.58166569
-0.1211662 -0.2074305 0.60511351
-0.14976341 -0.03457148 0.50407201
-0.1124593 -0.1409177 0.62157297
-0.1609371 -0.06765613 0.48365709
-0.1425015 -0.163811 0.53552502
-0.1055706 -0.1269004 0.61876148
-0.13530301 -0.18398909 0.55704212
-0.171244 -0.18286289 0.43589821
-0.1435812 -0.04216633 0.52132243
-0.1253915 -0.2401358 0.59858263
-0.1004288 -0.096967608 0.6399045
-0.1414551 -0.1649929 0.55907261
-0.1161973 -0.05189801 0.61537379
-0.1083205 -0.20226 0.63429987
-0.17159159 -0.065241091 0.45959321
-0.1099843 -0.032833159 0.6099844
-0.1185657 -0.087469406 0.59476137
-0.1292316 -0.08874473 0.5600425
-0.1332746 -0.092148513 0.55899101
-0.1289213 -0.2069792 0.58615547
-0.1139171 -0.2024288 0.61827463
-0.1008469 -0.033462081 0.63772291
-0.12762789 -0.04775127 0.56303549
-0.13871279 -0.06673786 0.53769922
-0.14181 -0.2461988 0.55443311
-0.1364301 -0.31044471 0.57884699
-0.1171689 -0.1036306 0.6117444
-0.1284062 -0.1046435 0.57232308
-0.1470554 -0.1537668 0.52668422
-0.13854849 -0.1546459 0.55951422
-0.1690723 -0.14403459 0.4481976
-0.13928831 -0.21825901 0.55605769
-0.1234191 -0.1673208 0.59336269
-0.114239 -0.2598069 0.62088352
-0.1464262 -0.1817207 0.52772361
-0.1715627 -0.23723429 0.45386699
-0.023709949 -0.077912427 0.3821114
-0.1572343 -0.069688007 0.483082
-0.1686331 -0.28528291 0.46459419
-0.12874781 -0.23338801 0.58336842
-0.1312665 -0.13099121 0.55575991
-0.154119 -0.0548044 0.492939
-0.1229422 -0.1333317 0.59468222
-0.1094393 -0.1235669 0.62649131
-0.1109565 -0.1258554 0.62116838
-0.13152181 -0.040772181 0.54156858
-0.1103966 -0.039340861 0.61078459
-0.1192647 -0.20302209 0.60436583
-0.1287144 -0.25946689 0.58523607
-0.1212854 -0.2739206 0.60972649
-0.1065872 -0.25993389 0.63771248
-0.1123785 -0.25345609 0.62574542
-0.1543086 -0.31112769 0.52221918
-0.1268504 -0.31056741 0.60275102
-0.12941711 -0.318232 0.59403789
-0.1052371 -0.062880158 0.62332511
-0.1150593 -0.1273299 0.61041611
-0.1616803 -0.1848224 0.47976759
-0.1259186 -0.20789 0.57807833
-0.1157502 -0.21587171 0.6199162
-0.1210778 -0.1141181 0.59325349
-0.140304 -0.1535593 0.53745413
-0.1091453 -0.062534809 0.60263848
-0.17074759 -0.230671 0.46764979
-0.1430437 -0.170601 0.54791331
-0.164786 -0.23232929 0.476724
-0.1374888 -0.15072 0.55438888
-0.16449749 -0.19019701 0.4768613
-0.1682867 -0.2268839 0.46728569
-0.1027046 -0.1515462 0.6372565
-0.1261825 -0.1617399 0.58591849
-0.1681304 -0.31218779 0.47773409
-0.13566589 -0.1453824 0.53567922
-0.1251709 -0.1269871 0.58103287
-0.1681768 -0.29366511 0.47718519
-0.12517039 -0.174997 0.58958471
-0.1257588 -0.1323664 0.57758981
-0.1292284 -0.052944411 0.56903732
-0.1649431 -0.1428313 0.46891081
-0.164388 -0.1788732 0.4756203
-0.038597289 -0.2145796 0.38015521
-0.1686911 -0.1135502 0.4586179
-0.1681376 -0.052143589 0.45455921
-0.1436467 -0.1536593 0.42164299
-0.1656267 -0.1395939 0.47040761
-0.01468378 -0.10432 0.3728323
-0.0061876178 -0.22758961 0.36642411
-0.17104641 -0.1933268 0.4314867
-0.1636021 -0.1749644 0.4795109
-0.166519 -0.045051221 0.4613221
-0.1687806 -0.068270177 0.45649341
-0.16074941 -0.1448084 0.425762
-0.16876329 -0.1154115 0.4616769
-0.1682564 -0.1079829 0.45940319
-0.1649477 -0.1483165 0.4714486
-0.1624079 -0.2182719 0.42191201
-0.054910779 -0.2435652 0.38565111
-0.1670977 -0.25881749 0.4709073
-0.1678189 -0.254868 0.47057191
-0.1702715 -0.27856031 0.4291712
-0.17485949 -0.30634379 0.42813289
-0.1675854 -0.31600669 0.42158821
-0.16984209 -0.30294871 0.42739341
-0.1744612 -0.31841579 0.42923841
-0.1619366 -0.3137376 0.4847813
-0.098835893 -0.03237984 0.61451763
-0.1275951 -0.1131751 0.5794549
-0.152235 -0.1813484 0.51407641
-0.1242182 -0.034214929 0.56926328
-0.1061369 -0.089356571 0.62979889
-0.1518411 -0.18510731 0.51010698
-0.0028853421 -0.025838381 0.61967772
-0.14984091 -0.1063676 0.49727309
-0.1532809 -0.060267359 0.4950119
-0.15420979 -0.072260886 0.49265441
-0.142304 -0.1990637 0.52933991
-0.141783 -0.2100679 0.54088491
-0.1364318 -0.03497085 0.52884132
-0.12713569 -0.1115905 0.5760752
-0.1248542 -0.033836339 0.56224352
-0.153418 -0.1093124 0.4975082
-0.14030559 -0.27414101 0.55594712
-0.1295311 -0.25470921 0.58449191
-0.1430281 -0.27279931 0.55824769
-0.1410014 -0.2780242 0.55490178
-0.1344877 -0.2608279 0.56959409
-0.149661 -0.30232659 0.5367642
-0.15082429 -0.32203129 0.52231991
-0.1243075 -0.2874071 0.59880447
-0.1359037 -0.28381151 0.56915498
-0.1192591 -0.2848742 0.60192561
-0.1387209 -0.2392294 0.55316788
-0.149771 -0.3008745 0.53976327
-0.1465449 -0.29661971 0.55288208
-0.1307545 -0.28303149 0.58273172
-0.107723 -0.28934741 0.63290358
-0.1126745 -0.27809101 0.62211382
-0.1166272 -0.30385661 0.61948699
-0.140559 -0.31951559 0.56755769
-0.16309731 -0.055576999 0.46649319
-0.1616601 -0.12339 0.48199731
-0.17023911 -0.1299748 0.45265889
-0.1668067 -0.1280663 0.4240061
-0.15889519 -0.094995096 0.47267541
-0.16855469 -0.1886882 0.45560041
-0.1582761 -0.31878501 0.48607919
-0.1436138 -0.21819989 0.54160511
-0.1550488 -0.098544739 0.50270778
-0.14610019 -0.064980783 0.51881242
-0.13259199 -0.1701031 0.56649297
-0.1117114 -0.2309642 0.64007193
-0.1293131 -0.2850261 0.58667451
-0.1458697 -0.1324615 0.51646262
-0.1199588 -0.085344844 0.60088539
-0.1266339 -0.1180577 0.57799518
-0.1457091 -0.29020461 0.5450024
-0.1648135 -0.049845789 0.4549261
-0.1412625 -0.2261198 0.55604339
-0.1680627 -0.1459011 0.4539254
-0.1426439 -0.29056451 0.55483168
-0.146455 -0.24812029 0.53663528
-0.1725342 -0.067870289 0.4336879
-0.1162856 -0.2036541 0.61480951
-0.14097799 -0.06562376 0.53302097
-0.16615739 -0.25536379 0.4790915
-0.1547043 -0.093083613 0.4964062
-0.16184691 -0.035426609 0.45573571
-0.13487729 -0.311753 0.40538549
-0.140562 -0.1644436 0.54910022
-0.15581089 -0.1788377 0.4951863
-0.17182679 -0.23989239 0.43284449
-0.17536999 -0.121491 0.4346416
-0.064416587 -0.02847657 0.62175548
-0.1735557 -0.2258229 0.45296249
-0.1137731 -0.20937081 0.63229221
-0.17094579 -0.2946597 0.458334
-0.1390945 -0.14905579 0.54519898
-0.119536 -0.097238019 0.59627688
-0.167303 -0.30657569 0.47162959
-0.1735009 -0.264092 0.4291507
-0.1346316 -0.1267091 0.56404722
-0.16784769 -0.32032821 0.48269799
-0.1315311 -0.046629459 0.5545727
-0.1063468 -0.1917357 0.63097042
-0.13773189 -0.139258 0.53955883
-0.0230543 -0.03105415 0.61427718
0.065215051 -0.03359966 0.58995211
-0.033684731 -0.032948639 0.62161767
-0.1006022 -0.1968296 0.64094537
-0.03463459 -0.034817461 0.62193882
-0.035541888 -0.2584835 0.62462509
-0.0057021379 -0.31737569 0.6124227
-0.078552932 -0.2470663 0.64042199
0.07677722 -0.31837171 0.58491218
-0.091326363 -0.1185258 0.63894081
-0.1206281 -0.03253888 0.42451981
-0.05673385 -0.20087519 0.62662542
-0.034200732 -0.110139 0.61898148
-0.00048395991 -0.097215071 0.60641658
0.087181151 -0.2072684 0.57827163
-0.021280499 -0.029394159 0.61075181
-0.062481109 -0.2477726 0.63504112
-0.09594956 -0.26516059 0.63662958
-0.035454389 -0.3250331 0.62482709
0.01513216 -0.1708063 0.6045559
-0.0021392109 -0.044403542 0.61072749
-0.099880926 -0.116632 0.63786572
-0.061008241 -0.25338131 0.63361388
-0.080791533 -0.1248657 0.63709342
-0.081916027 -0.03408524 0.6382916
-0.080030173 -0.1966709 0.63832963
-0.05147028 -0.033476658 0.62594438
-0.061309699 -0.035411019 0.6267432
0.04411656 -0.03516667 0.59410822
0.022050319 -0.037564918 0.60026568
-0.038379639 -0.25396109 0.62385708
0.074526846 -0.26573771 0.58557189
-0.0086484849 -0.2310846 0.6147511
0.034144219 -0.29946551 0.6007157
0.064403467 -0.2710517 0.58702308
-0.04565182 -0.1702641 0.62222117
0.060948011 -0.071191519 0.58988488
0.04250297 -0.13164879 0.59490627
-0.058577061 -0.17189319 0.62691462
-0.080998003 -0.084509097 0.63756859
-0.080000907 -0.1809091 0.63727587
0.066194654 -0.059279129 0.58493018
-0.055564761 -0.2643443 0.63258249
0.099893302 -0.26802361 0.56207973
0.051297009 -0.30600381 0.59609568
0.01246312 -0.2683942 0.60781348
0.072542399 -0.14223909 0.58597869
0.04755944 -0.02560088 0.5825358
0.02367267 -0.27716941 0.60502422
-0.018747211 -0.30063039 0.62005961
-0.0082134902 -0.18418621 0.61318779
-0.022921059 -0.068818137 0.61562598
-0.049277961 -0.2050371 0.62829572
-0.056151811 -0.1567882 0.62628949
-0.0057678521 -0.033499021 0.60855472
-0.054018971 -0.02972449 0.60700911
0.016601769 -0.31364569 0.60482931
-0.067424357 -0.2074355 0.63305211
-0.016596559 -0.031492431 0.3944976
-0.06032094 -0.038298622 0.61962068
0.038822949 -0.2057007 0.59548461
0.099178463 -0.30067319 0.57640982
-0.01385203 -0.24103449 0.61442608
-0.064148813 -0.3166424 0.63631493
0.05574381 -0.1973384 0.59752321
-0.059614211 -0.07544525 0.62687331
-0.04932433 -0.1514792 0.62820292
0.0081002712 -0.28408721 0.61189657
-0.062451631 -0.2070632 0.63261223
-0.119338 -0.3148427 0.64754558
0.05243462 -0.2273545 0.59431487
0.078683317 -0.1009288 0.58334237
-0.097811759 -0.1848478 0.63946378
0.079088807 -0.1412673 0.58327562
0.065740287 -0.17455269 0.58626229
-0.057516489 -0.076272704 0.62377042
-0.04750526 -0.1852368 0.62666488
-0.021266339 -0.051847201 0.61295629
-0.059502691 -0.030999471 0.59990168
0.06132862 -0.02949469 0.5155347
0.087721139 -0.2471568 0.58035278
-0.03085601 -0.1715083 0.62289327
0.036006749 -0.2637116 0.59971023
-0.029044211 -0.1799061 0.62553549
-0.031066891 -0.064121261 0.6214788
-0.072217263 -0.042741861 0.63155061
-0.04565889 -0.15994979 0.62347293
-0.039926559 -0.1014495 0.62134469
-0.02541912 -0.060194179 0.61310267
-0.076596528 -0.1885929 0.63272607
0.0099396706 -0.1821257 0.60689318
-0.01092204 -0.13490669 0.61205709
0.01640391 -0.035006821 0.4438976
0.04572171 -0.033697169 0.4367801
0.095256843 -0.034532141 0.58137792
0.04239887 -0.03057698 0.58349979
0.098723263 -0.20251229 0.56170738
0.1031407 -0.1675258 0.57339448
-0.080736756 -0.1074272 0.63819581
0.083916336 -0.1816126 0.58065498
0.068648458 -0.059612691 0.58582222
0.01366407 -0.1207768 0.60237342
0.06189397 -0.125857 0.58771122
0.021465359 -0.035702419 0.59920162
-0.090669572 -0.05928199 0.6348713
-0.1072005 -0.28469649 0.63549441
0.091106892 -0.2208222 0.58002448
0.098016143 -0.2667338 0.57128048
0.098616838 -0.202609 0.5637877
0.082635216 -0.1806179 0.57735842
0.090424567 -0.1649622 0.57814038
-0.029617431 -0.2688452 0.62443483
-0.096054547 -0.25422159 0.63743073
0.080859073 -0.15902629 0.57714099
-0.056925301 -0.235274 0.62797081
-0.04790625 -0.25666821 0.62808949
0.071658552 -0.1751789 0.58507508
0.046665851 -0.15498289 0.5939914
-0.080484569 -0.30955711 0.64219999
0.05891782 -0.037003871 0.58891112
0.041186091 -0.20433611 0.59666872
-0.069319248 -0.13701031 0.63354743
-0.033510741 -0.084135771 0.62248278
-0.076532014 -0.1300125 0.63238931
-0.079297513 -0.28174949 0.63962138
-0.073707521 -0.05528979 0.63100839
0.05274361 -0.068000868 0.59249997
-0.073774517 -0.32029989 0.63671398
-0.065512359 -0.2856155 0.63541079
-0.041877329 -0.058046311 0.61788082
0.089511693 -0.16759101 0.57643503
0.024065079 -0.098301768 0.59985709
0.071801931 -0.2257133 0.58747238
-0.0038155911 -0.2435963 0.61434919
-0.07975173 -0.21036141 0.6378271
0.060265958 -0.029839501 0.57436961
-0.1024778 -0.037206609 0.63758647
-0.09753567 -0.26509479 0.64110291
-0.067981184 -0.1839499 0.63240951
-0.096384414 -0.2054684 0.64136308
-0.002564728 -0.032240849 0.38402149
0.02947429 -0.03167206 0.50704688
-0.01236925 -0.029211029 0.43217379
0.1014766 -0.059516549 0.56713748
-0.03404909 -0.044114899 0.62154782
0.057372332 -0.044817701 0.58541739
-0.050443769 -0.29713881 0.63039798
-0.060820822 -0.28992629 0.63355488
0.01432657 -0.061151739 0.60081148
0.067668617 -0.20327181 0.58466738
0.017100871 -0.31631699 0.60551882
-0.026530501 -0.1866779 0.6211884
-0.01368994 -0.3227171 0.61651617
-0.02829593 -0.2093142 0.62139982
0.072103798 -0.26952821 0.58918267
0.063535087 -0.31674069 0.59110719
0.03103593 -0.25085729 0.60391158
-0.05715448 -0.3006103 0.62662143
-0.041563209 -0.20991381 0.62667489
0.082744211 -0.1889782 0.58335209
0.05928066 -0.2035604 0.5897724
-0.1071022 -0.032402039 0.61975229
-0.02191758 -0.03973626 0.61459249
-0.095808446 -0.04661411 0.63590008
0.095632464 -0.2132733 0.57875121
0.049161609 -0.2562339 0.59467697
-0.04508698 -0.042965472 0.62497038
-0.09937036 -0.042886902 0.63631737
-0.16329341 -0.033130299 0.46311149
-0.13850459 -0.032136042 0.53436822
-0.1065255 -0.1658709 0.62788439
-0.091759317 -0.14742599 0.63688117
-0.091048092 -0.1023417 0.63698971
-0.0824821 -0.1536257 0.63760233
-0.088959843 -0.1181545 0.63759428
-0.11693 -0.2762337 0.64262348
-0.1059627 -0.30038169 0.63719738
-0.054876029 -0.3095544 0.62802601
-0.0001169145 -0.03015353 0.60015452
0.009516567 -0.029491009 0.58543903
-0.002717793 -0.03249919 0.52933651
0.014467 -0.1243533 0.6174801
-0.01532295 -0.27175701 0.61578882
-0.041061189 -0.25047481 0.62386167
0.01233649 -0.25417799 0.60809612
0.1098725 -0.28022149 0.5665465
0.105554 -0.30681589 0.56206679
0.00062960392 -0.1878176 0.60820502
-0.033325851 -0.1996751 0.62279838
-0.036154691 -0.1941568 0.62844008
-0.017744871 -0.2158978 0.61902249
-0.0159865 -0.1946454 0.61705917
-0.02552411 -0.23987509 0.62090379
0.1007637 -0.24785399 0.57177383
0.01374751 -0.046101879 0.60446543
0.0040263832 -0.13713001 0.60442227
-0.016735081 -0.1642855 0.61126512
0.068907082 -0.087264173 0.58788681
0.090963811 -0.2213815 0.57444787
0.091893516 -0.25976971 0.57648492
0.02915314 -0.2251472 0.6067667
0.01388586 -0.169828 0.60702002
-0.02031973 -0.2374818 0.62055832
-0.03528947 -0.17465641 0.62242132
0.0050614178 -0.1549347 0.60674411
0.068650544 -0.1237325 0.5876469
0.01823825 -0.092285588 0.60245478
-0.024121519 -0.02878822 0.54572529
0.027825059 -0.17917199 0.5999015
-0.047090892 -0.1207212 0.62301522
0.098350823 -0.1583516 0.56480622
0.094111741 -0.2545166 0.57790339
-0.01019013 -0.113782 0.61114782
-0.01319855 -0.080786243 0.6088447
0.001676828 -0.17058709 0.60949332
-0.033997089 -0.2210627 0.62645662
0.006897002 -0.1035561 0.60682642
0.0377337 -0.32197171 0.5995537
0.1002004 -0.15626851 0.56139338
-0.044241849 -0.29087329 0.62381917
0.018848481 -0.2420485 0.60633051
0.0066633518 -0.200619 0.60604382
0.0096916854 -0.23329601 0.61430502
0.058677349 -0.3004348 0.59011167
0.088002503 -0.31277391 0.57786292
-0.038556751 -0.1227573 0.62210268
0.037794381 -0.123159 0.59828538
0.0065597892 -0.085985683 0.60606289
-0.1200684 -0.031475291 0.57214499
-0.089087993 -0.099443138 0.63670552
-0.089204222 -0.1913956 0.64420199
-0.0548811 -0.2137754 0.63028759
-0.1125344 -0.3081654 0.64050323
-0.0049514771 -0.032527689 0.6097129
-0.078662962 -0.036111549 0.52050191
-0.027974689 -0.093929932 0.61408043
0.01547453 -0.089172348 0.60301727
0.04637986 -0.26673311 0.60134268
0.063982546 -0.03225356 0.5025686
0.049316172 -0.126276 0.593072
-0.056186318 -0.1169323 0.62850988
-0.0095115602 -0.16207211 0.61736321
-0.027049569 -0.071771681 0.61792421
0.0057801311 -0.15836111 0.61067122
0.01600614 -0.21968441 0.60965592
0.027421741 -0.1072259 0.60052907
0.02777645 -0.1411133 0.59911478
0.047737479 -0.19228581 0.5964424
-0.036747519 -0.1183978 0.61832088
0.071375042 -0.31873879 0.59272271
0.031997029 -0.23128439 0.60242897
-0.001602739 -0.1457275 0.60933638
0.022121521 -0.2254145 0.61024791
-0.042140041 -0.1338156 0.61542201
0.0904814 -0.27316001 0.575728
-0.021159589 -0.2002649 0.6210674
0.088379771 -0.29457349 0.5808475
0.020884659 -0.21191511 0.6057393
0.043916579 -0.2883108 0.5979079
0.068985641 -0.30619881 0.58808511
0.04883543 -0.1569657 0.59059119
0.0098947883 -0.075083241 0.60519558
0.034259651 -0.1093861 0.59827548
-0.0080559254 -0.1201932 0.61289752
0.049356218 -0.1631825 0.59393108
0.07349956 -0.094565026 0.5851329
0.088980436 -0.088584267 0.58779538
-0.087238282 -0.032638531 0.56528068
0.0085335374 -0.034394588 0.60197848
0.065680496 -0.030866619 0.57014751
0.035796851 -0.24682149 0.59970009
-0.064163029 -0.3224923 0.63396049
0.065724283 -0.035043299 0.5846833
0.089248031 -0.1622344 0.56882173
0.072870493 -0.034760822 0.4810349
-0.02323693 -0.036135212 0.38421059
-0.04848969 -0.30082119 0.62827188
0.089642867 -0.036254451 0.52876079
0.079036713 -0.25981781 0.58759189
-0.049344599 -0.034032341 0.62436128
0.080371112 -0.1010707 0.58475041
0.06212825 -0.068925649 0.58963042
0.086739659 -0.1768373 0.5808388
-0.028729981 -0.2749086 0.62316757
0.05010679 -0.30778399 0.59299028
-0.070820078 -0.3183322 0.63660473
0.070431218 -0.061371971 0.58671099
0.03972131 -0.19755 0.60366893
-0.054688159 -0.19545271 0.63331932
0.076498777 -0.31473541 0.58643049
-0.053703312 -0.1688384 0.63043189
-0.06031549 -0.069071554 0.63875842
0.070697822 -0.1926443 0.5865531
0.085838437 -0.17316359 0.58191222
0.06032341 -0.04618676 0.59017432
0.03590345 -0.2967777 0.60360688
0.080584437 -0.13936239 0.58615059
0.01752096 -0.31587431 0.60434091
-0.065161839 -0.02972661 0.62897527
0.080441616 -0.21629681 0.58917058
-0.031878829 -0.20054279 0.62003893
0.098104537 -0.26878291 0.57417482
0.091760412 -0.22251721 0.57549411
-0.046920341 -0.18495511 0.62514019
-0.032960579 -0.036477879 0.62443602
-0.09738785 -0.1203173 0.64131719
-0.05469504 -0.2646257 0.63173068
-0.066567764 -0.1830198 0.6329093
-0.059645321 -0.034513611 0.62989002
-0.089155897 -0.14655989 0.63943511
-0.045345001 -0.15932471 0.62610841
-0.056894239 -0.02936776 0.56688678
-0.057571501 -0.039796252 0.62556499
-0.082186803 -0.03688987 0.63695729
-0.098807096 -0.1910634 0.64692807
-0.0361613 -0.2590526 0.62240273
-0.081106767 -0.12592191 0.63582772
-0.079847291 -0.19790789 0.63729018
-0.019225171 -0.2988365 0.61937839
0.073570587 -0.035308879 0.52681732
-0.07125628 -0.1432748 0.63000882
0.099824563 -0.30043161 0.57412302
0.1022749 -0.1704582 0.57051718
-0.062663376 -0.2074548 0.63176173
0.088910364 -0.1634212 0.57735711
-0.088085517 -0.1200113 0.63829702
-0.073184021 -0.25625959 0.63651448
0.063256249 -0.1249447 0.59018868
-0.042310011 -0.1401467 0.62256467
-0.046404451 -0.2552112 0.62935978
-0.035681549 -0.045550361 0.62018669
-0.079197243 -0.2468137 0.63835531
-0.055441499 -0.1573678 0.62889433
-0.042759981 -0.17147461 0.62437218
-0.1130966 -0.029641639 0.61243331
-0.06405706 -0.31907219 0.63586742
-0.073448449 -0.1872631 0.63627899
-0.093898073 -0.25382879 0.63959348
-0.05923504 -0.03103466 0.52998751
-0.055381268 -0.21442001 0.62926459
-0.03501296 -0.1762138 0.62152261
-0.049922921 -0.1523113 0.62580162
-0.096444443 -0.1860778 0.64038861
-0.046113372 -0.030572159 0.54452842
0.0726033 -0.1428591 0.58460379
0.06871815 -0.1258826 0.58687848
0.1020101 -0.2028289 0.57007861
0.066668868 -0.26881471 0.59087759
0.066317551 -0.17292809 0.5876894
0.04222212 -0.3156552 0.58340591
0.067922167 -0.058468979 0.59045231
-0.053789452 -0.07355909 0.63099593
-0.083191574 -0.033342998 0.57162809
0.01640157 -0.031162569 0.44040719
-0.091275871 -0.029579639 0.5937106
0.0048830132 -0.030364171 0.42877439
-0.02553588 -0.036191929 0.39854059
0.1034078 -0.034250099 0.56760532
0.087898716 -0.2477219 0.57961363
0.092766151 -0.19435079 0.5758639
-0.066644549 -0.1836742 0.63099623
0.08555378 -0.034926642 0.54856467
-0.079589158 -0.031297188 0.62773448
-0.063464843 -0.24544279 0.63327748
0.047669649 -0.1564803 0.59383577
0.053021211 -0.067718372 0.59152818
-0.060668789 -0.25394729 0.633237
-0.037857398 -0.1238385 0.62182438
-0.061741181 -0.2369817 0.63196617
-0.065435492 -0.28544751 0.63247949
-0.039105751 -0.056857988 0.62018412
0.096958458 -0.038035318 0.57414609
0.0035646809 -0.038400609 0.47671559
-0.1016182 -0.159944 0.63976699
0.042982969 -0.20084301 0.59801137
0.04493095 -0.26613939 0.6010502
-0.052474599 -0.1630467 0.62890941
-0.08065211 -0.1098532 0.6372174
-0.05194328 -0.2038749 0.62834787
0.01098613 -0.28813171 0.61054832
-0.081040442 -0.1539454 0.6384874
0.01182047 -0.033888709 0.45494011
0.02790465 -0.03278004 0.52615339
0.098983578 -0.15573201 0.56874663
0.099541843 -0.1057115 0.57066083
0.1029161 -0.1525833 0.56914991
0.1073663 -0.315285 0.5694803
-0.064097591 -0.090540871 0.63414133
-0.096712433 -0.2714754 0.63419592
-0.033876508 -0.31709939 0.62400287
0.02501977 -0.27801499 0.60536152
0.053711399 -0.22963341 0.59322572
-0.0780067 -0.30873939 0.63969523
-0.1202934 -0.032423299 0.42021319
-0.081156477 -0.03114949 0.47585291
-0.0040861862 -0.03575946 0.4262518
-0.021930231 -0.028402761 0.61204249
-0.098761283 -0.03102787 0.42081109
-0.084159091 -0.031529319 0.44966149
-0.030693639 -0.035502002 0.61749709
-0.089534134 -0.031366449 0.61936831
-0.1377784 -0.034498051 0.43096179
-0.16554759 -0.034997329 0.46044481
-0.033384211 -0.085590467 0.61949652
-0.037437599 -0.1967531 0.62382299
0.064405464 -0.031346191 0.52214313
0.084317409 -0.04162224 0.58459002
0.043289158 -0.034083109 0.56854701
0.0454906 -0.03105088 0.44608811
0.044148441 -0.03672336 0.59284371
0.04461541 -0.066534497 0.59500808
0.098908693 -0.32069251 0.57418382
0.043113809 -0.1317732 0.59697843
-0.1195466 -0.310963 0.6465897
-0.2031859 -0.32227811 0.55869842
0.03576225 -0.0312276 0.57687622
0.069253244 -0.087241814 0.5874064
0.085262023 -0.25670221 0.57964993
0.061543789 -0.267223 0.59712672
0.03688642 -0.1232505 0.59597367
-0.094519094 -0.2084659 0.64087403
-0.054597721 -0.2342743 0.63049412
-0.1392194 -0.03138499 0.53433043
-0.079061657 -0.1802385 0.63836282
-0.03407298 -0.066655561 0.61710578
-0.072943933 -0.03073965 0.6140669
-0.044394299 -0.03169651 0.56371373
-0.1749801 -0.05293436 0.46113369
-0.04122746 -0.0319045 0.59325379
-0.1133561 -0.03308345 0.54812843
-0.02952092 -0.1029911 0.61548042
-0.070012324 -0.14113431 0.63188511
-0.030533491 -0.1712485 0.62248433
0.021343431 -0.030501621 0.580172
0.002434338 -0.02879758 0.60514092
-0.02170236 -0.03054552 0.61830252
0.066789277 -0.03090106 0.5693574
-0.005772253 -0.03246592 0.60935009
-0.052459959 -0.032887891 0.4020994
-0.040773891 -0.030475959 0.44027489
0.01241405 -0.027674841 0.59450448
-0.046715889 -0.031427011 0.45129681
0.02216097 -0.037860379 0.60255587
-0.02130832 -0.030827809 0.4521741
-0.02031257 -0.040381711 0.61587018
-0.01124686 -0.02649866 0.52865797
0.01008943 -0.03416197 0.60531718
-0.05386892 -0.02955113 0.47122729
0.080483243 -0.03752096 0.5819481
0.1035909 -0.1062614 0.57007128
0.01316106 -0.2542958 0.60818642
-0.0052461452 -0.3177571 0.61072218
-0.069481619 -0.02940153 0.45517191
0.01222128 -0.04924966 0.60100168
0.0285234 -0.2234318 0.60602659
-0.032944191 -0.031436581 0.4861128
-0.002957256 -0.045326959 0.60929233
-0.024054 -0.060250569 0.61423612
-0.0054696552 -0.29809871 0.61184633
0.01498135 -0.048624381 0.6017344
-0.062804148 -0.17681549 0.63155228
-0.074313536 -0.13115171 0.63498777
-0.079009183 -0.2135244 0.63639879
-0.072525293 -0.2036677 0.63673311
-0.1303754 -0.02562861 0.41959199
-0.1610132 -0.03272916 0.45004559
-0.1023088 -0.040267538 0.63640589
-0.098388761 -0.090054743 0.63534713
-0.090706877 -0.036289621 0.51521218
-0.08141797 -0.085420057 0.6362288
-0.13014241 -0.037470359 0.49008411
-0.1052854 -0.2597369 0.63925737
-0.098941192 -0.1011714 0.63852757
-0.1025076 -0.23254099 0.63648331
-0.0058699972 -0.034310151 0.60795432
0.005786824 -0.03183423 0.58685547
-0.094493508 -0.03097241 0.4608674
-0.0096044699 -0.02941896 0.59524113
-0.0141773 -0.2714361 0.61725831
-0.094526127 -0.047032852 0.63885969
0.049552001 -0.1248754 0.59434181
0.029350709 -0.14299271 0.60432678
-0.01393317 -0.03121902 0.50329709
-0.1738493 -0.2949383 0.50659329
0.03012263 -0.2193993 0.60377657
-0.053005219 -0.3046259 0.63150811
-0.079415679 -0.05693467 0.63486791
-0.071866237 -0.0566382 0.63298601
0.002184062 -0.1792914 0.60896468
-0.1289988 -0.03011361 0.55875063
-0.128656 -0.1124163 0.57992911
-0.1184396 -0.0336884 0.59310281
-0.1687821 -0.062644303 0.4616935
-0.1704209 -0.1120567 0.45989871
-0.1161352 -0.1247774 0.61117631
-0.1356367 -0.12802669 0.55746138
-0.1431991 -0.0371725 0.52352172
-0.1626765 -0.1806929 0.4790704
-0.16885909 -0.195356 0.47195441
-0.1083826 -0.086745709 0.62934572
-0.1261396 -0.163211 0.59795767
-0.1653489 -0.2737332 0.48146939
-0.1465673 -0.066115677 0.52058262
-0.1401584 -0.2467227 0.55705369
-0.127188 -0.22894339 0.59901828
-0.1626399 -0.31393591 0.52630007
-0.1589043 -0.068141252 0.48450029
-0.1154587 -0.088219337 0.60021561
-0.1199181 -0.13331831 0.5986011
-0.1228455 -0.27801329 0.61250532
-0.13045099 -0.2029288 0.58894968
-0.1335052 -0.075420886 0.55355722
-0.16594221 -0.1449731 0.4707202
-0.1552216 -0.1012122 0.50052798
-0.15049019 -0.076205038 0.50875288
-0.1651606 -0.05581272 0.46838149
-0.1719685 -0.1053322 0.4503763
-0.1547347 -0.056831479 0.49622971
-0.1520272 -0.27225891 0.51967412
-0.1704742 -0.035130739 0.44002181
-0.17841659 -0.043161418 0.44703099
-0.17370041 -0.2054214 0.45281649
-0.177708 -0.31417519 0.43134871
-0.1288794 -0.089732677 0.56322742
-0.14892571 -0.033122178 0.50792772
-0.13789961 -0.034183621 0.50234932
-0.081497818 -0.030651029 0.57207078
-0.14098319 -0.033920381 0.52619457
-0.1661732 -0.28651309 0.4708918
-0.1639089 -0.1274447 0.48013309
-0.1509804 -0.28519699 0.42301571
