# .PCD v0.7 - Point Cloud Data file format
VERSION 0.7
FIELDS x y z normal_x normal_y normal_z curvature
SIZE 4 4 4 4 4 4 4
TYPE F F F F F F F
COUNT 1 1 1 1 1 1 1
WIDTH 589
HEIGHT 1
VIEWPOINT 0 0 0 1 0 0 0
POINTS 589
DATA ascii
0.085801303 -0.038415749 0.53469217 0.69174761 0.71929502 0.06402991 0.11120192
-0.01117688 -0.028019229 0.53594619 0.034026034 0.99857289 0.041164517 0.0083101392
0.07283181 -0.029293336 0.53611243 0.44545764 0.8935079 0.056666963 0.094603315
-0.11422165 -0.33011645 0.54526621 -0.46180126 -0.8626163 0.20647711 0.11100695
-0.067711294 -0.33004421 0.5401184 -0.0058187679 -0.99997127 0.0048637623 0.00014728046
-0.055668276 -0.33004421 0.54473138 0.0010836927 -0.99998724 0.0049366187 8.9303438e-05
-0.046460539 -0.33004421 0.54245543 0.0025749779 -0.99996912 0.007426016 0.00010343648
0.0047791009 -0.33004421 0.54529071 0.039057374 -0.99422717 0.099934429 0.023298221
0.02713877 -0.33004421 0.5476861 0.059550703 -0.98020595 0.1888123 0.04772545
0.042454351 -0.33004421 0.54643673 0.153863 -0.96560246 0.20961431 0.089750342
0.0784536 -0.33004421 0.54791099 0.56973165 -0.78730291 0.23571168 0.14215218
0.085847735 -0.33004421 0.54603148 0.645468 -0.74624962 0.16273478 0.14562054
-0.15356545 -0.32849574 0.54171574 -0.85104609 -0.41913164 0.3163057 0.082245842
-0.14411007 -0.32955348 0.54369944 -0.80675817 -0.50811619 0.30159464 0.094954818
-0.13427149 -0.32981446 0.54589951 -0.67394447 -0.689358 0.26567745 0.11483414
-0.12875505 -0.32987601 0.54955429 -0.6630668 -0.70340019 0.2560676 0.11593931
0.098303646 -0.3297227 0.54700398 0.80856538 -0.56762636 0.15499166 0.14566517
0.10133484 -0.32980192 0.54609245 0.83383119 -0.53895843 0.11937116 0.14604421
-0.1472629 -0.2900123 0.54545701 -0.9385491 -0.13020277 0.3196449 0.03507841
0.098402344 -0.28371012 0.54523933 0.98080921 -0.13084717 0.14454186 0.088847615
0.099623471 -0.26786393 0.54721999 0.97825164 -0.050537091 0.20117098 0.071605712
0.10032398 -0.25038174 0.54464477 0.98291361 0.0094691366 0.18382414 0.071769893
-0.1441941 -0.24169745 0.54992026 -0.9425751 0.043360177 0.33116779 0.0014881862
0.10037064 -0.23710063 0.54669005 0.98960608 -0.028746469 0.14090241 0.057457056
0.099720351 -0.22903979 0.54949069 0.97001094 -0.010254975 0.24284495 0.065671258
-0.14542206 -0.21599013 0.54136133 -0.94610631 0.040741455 0.32128328 0.00075543229
0.099116877 -0.21930198 0.5457626 0.98206651 -0.0082435654 0.18835455 0.065436207
-0.14574194 -0.20492005 0.54144251 -0.94708347 0.036948308 0.3188538 0.0010426088
-0.14364693 -0.19317426 0.54439723 -0.94704103 0.036057848 0.31908187 0.0014244197
0.099558592 -0.19720209 0.5483079 0.97760713 0.023945287 0.20907164 0.070153594
-0.14082797 -0.17027879 0.54754668 -0.94607377 0.04267098 0.3211287 0.0017023378
-0.14216764 -0.16573976 0.5435943 -0.94600582 0.041456386 0.32148775 0.0016842447
0.099552356 -0.16701442 0.54618597 0.98967856 0.032604177 0.13954671 0.061393101
-0.1407447 -0.15210697 0.54655004 -0.94465899 0.040817555 0.32550484 0.0015601661
0.099345371 -0.15918426 0.54292446 0.99205798 0.017599786 0.12454416 0.058189798
-0.14121315 -0.14707795 0.54296124 -0.94463658 0.04073349 0.32558045 0.0014613533
-0.13973914 -0.14772378 0.54840809 -0.9444834 0.041121215 0.32597578 0.0015152082
-0.15505145 -0.13391584 0.54859161 -0.94348383 0.043218456 0.32858849 0.0015449969
-0.14103064 -0.13908996 0.54027337 -0.94434148 0.041137211 0.32638466 0.0013981964
-0.12960246 -0.12976122 0.54582208 -0.94249284 0.046272859 0.33100772 0.0015639047
0.099442333 -0.10483149 0.54202354 0.98805982 0.017458223 0.15307823 0.058007337
0.099917106 -0.097064056 0.54514694 0.97874933 0.082589343 0.18769357 0.061168876
-0.1363553 -0.085288748 0.54976869 -0.92388266 0.14434618 0.35440809 0.015446531
0.099435642 -0.079291321 0.54456377 0.97690743 0.16406268 0.13687697 0.090751462
-0.13823922 -0.068672426 0.54165769 -0.90102929 0.23935233 0.3617413 0.036936276
0.098260693 -0.064902991 0.54330558 0.89239198 0.42885089 0.14043996 0.11276953
-0.13383691 -0.055412401 0.54849774 -0.88527185 0.32130542 0.33623901 0.053570718
0.098244421 -0.055560891 0.54672134 0.84665084 0.50459552 0.16901405 0.11364725
-0.13224916 -0.041437443 0.54457021 -0.78157431 0.55224824 0.29010943 0.08093226
0.096062146 -0.044330955 0.54876149 0.80585313 0.57117748 0.15606716 0.11768121
-0.12891035 -0.03554504 0.54286218 -0.7263974 0.63684624 0.25840625 0.08293771
-0.11488494 -0.032898627 0.54591304 -0.57520062 0.79505396 0.19244084 0.085515141
-0.055607855 -0.031948816 0.54486346 -0.055753987 0.99797815 0.030513721 0.0067124129
-0.046564896 -0.032177158 0.54463655 0.0013365045 0.99926066 0.038424153 0.0051495684
0.0048274328 -0.032649767 0.54541856 0.063208446 0.99187475 0.1104051 0.026093399
0.028096722 -0.033488054 0.54788572 0.16354509 0.97112387 0.17369933 0.04161476
0.086392343 -0.03293993 0.54575288 0.65564901 0.73900771 0.15489376 0.11514027
0.091333613 -0.036658783 0.54470831 0.7450875 0.65094507 0.14531094 0.11253805
0.077265918 -0.023981979 0.54891366 0.41716897 0.89815646 0.13887081 0.092469126
-0.11408432 -0.33002427 0.55477273 -0.49602973 -0.83309835 0.2447481 0.12303583
-0.056634981 -0.33004421 0.55682862 0.017667176 -0.99644643 0.082355686 0.014255202
-0.046195511 -0.33004421 0.55738533 0.023819329 -0.99532425 0.09360709 0.018390529
-0.005125389 -0.33004421 0.55514342 0.069397539 -0.98845977 0.13465258 0.04260876
0.02425611 -0.33004421 0.5530045 0.088790298 -0.96211821 0.25776893 0.068329364
-0.1554721 -0.32882598 0.55499381 -0.89765722 -0.31087527 0.31235909 0.06282448
-0.14295168 -0.32940689 0.55545056 -0.84585416 -0.44050825 0.30080438 0.086917885
-0.13545829 -0.32927963 0.55587256 -0.78858435 -0.53472596 0.30364925 0.098572008
-0.12706846 -0.329422 0.55931389 -0.67278278 -0.69409263 0.25612256 0.11780922
0.089378737 -0.32993117 0.55453461 0.72173637 -0.61951345 0.30870664 0.15443374
0.098761477 -0.32916597 0.5533303 0.83421129 -0.5046078 0.22240198 0.1473996
0.10230871 -0.32829258 0.55511308 0.84481448 -0.48305434 0.23010242 0.14351356
0.11433219 -0.32878527 0.5571245 0.92412478 -0.34234375 0.16968864 0.12756127
-0.14451915 -0.29363352 0.5538429 -0.92924887 -0.14639464 0.33921248 0.040304087
-0.14570372 -0.28668186 0.5500645 -0.93800324 -0.11150395 0.32820243 0.032650176
0.10024082 -0.28379008 0.55630058 0.92473543 -0.14517295 0.35183701 0.092780292
-0.14301312 -0.27500391 0.5563978 -0.93863988 -0.065157332 0.33868831 0.020710733
-0.14220518 -0.26795807 0.5576722 -0.93825489 -0.028621007 0.34475881 0.012179314
0.10013098 -0.26826093 0.55708462 0.90662801 -0.074777089 0.41525179 0.074455343
-0.14290519 -0.25072902 0.55306894 -0.94083041 0.042905986 0.33615065 0.0023898315
0.10048185 -0.25126645 0.55370969 0.96707827 0.030805727 0.25260788 0.070660494
-0.14165004 -0.24606593 0.55647409 -0.93851095 0.046697278 0.34207681 0.00097781268
-0.15431011 -0.23445453 0.55282402 -0.94226164 0.047300372 0.33152023 0.00092059397
-0.14203934 -0.23547716 0.55392522 -0.94089144 0.042947967 0.33597431 0.00085158891
0.09946759 -0.23161818 0.55933934 0.90592849 -0.03200525 0.42221943 0.068787381
0.1004035 -0.23713721 0.55596226 0.93850553 -0.037201673 0.34325418 0.070860691
-0.14053141 -0.22583821 0.55576819 -0.94232482 0.039237168 0.33239204 0.00085378287
-0.1395271 -0.22628963 0.55860794 -0.94055104 0.03798227 0.33752173 0.00094348547
0.099595353 -0.2074637 0.5508495 0.97169465 0.020143542 0.2353801 0.069359101
0.10074382 -0.19708513 0.55062258 0.966398 0.034170315 0.25476933 0.070437454
-0.13532776 -0.18495579 0.55873209 -0.94177973 0.036571056 0.33423555 0.0018788943
0.10082032 -0.17467496 0.55232769 0.97293067 0.035335075 0.22837995 0.05892162
-0.13818944 -0.16534878 0.5589779 -0.94316685 0.040556565 0.3298355 0.0017765898
0.10051297 -0.16575027 0.55230099 0.97150838 0.037133999 0.2340779 0.062347129
-0.13984178 -0.15507008 0.55527991 -0.94404137 0.042026713 0.32713857 0.0016241461
0.099124864 -0.15738191 0.5507217 0.96902382 0.041751709 0.24341257 0.067701675
-0.14028883 -0.14463313 0.55572969 -0.94311392 0.04349928 0.32961184 0.0015188748
-0.1422042 -0.13054453 0.55619913 -0.94161814 0.047460273 0.33332092 0.0015262847
-0.1374622 -0.13351786 0.55334711 -0.94212836 0.046678867 0.33198693 0.0014927768
-0.14580502 -0.12808979 0.55712241 -0.94103795 0.049235214 0.33469927 0.0015929008
-0.13414884 -0.12632641 0.55711508 -0.94030035 0.051508956 0.33642548 0.0016475663
0.098706096 -0.1297089 0.55208302 0.94215429 0.01440221 0.33487001 0.076100096
0.099715412 -0.1088052 0.55243444 0.92549568 -0.0034031011 0.37874287 0.060159769
0.10107732 -0.10196822 0.55876148 0.86830437 0.041518256 0.49429131 0.058621805
-0.13407366 -0.094316788 0.55657417 -0.92949098 0.11808802 0.34943056 0.0098031126
0.10104728 -0.097833432 0.55007398 0.9464708 0.072316185 0.31458452 0.061032433
-0.13451336 -0.086872183 0.5547179 -0.92325938 0.14467481 0.3558951 0.015324683
0.10255825 -0.087743327 0.55728883 0.91658241 0.092981808 0.38888448 0.072442092
-0.13417527 -0.075725749 0.55327249 -0.91423613 0.19768296 0.353686 0.027896818
0.10087131 -0.060212828 0.55830801 0.86234546 0.3872329 0.3262068 0.11365018
-0.12919624 -0.051359933 0.55777639 -0.83888263 0.41571093 0.35136947 0.073045239
-0.13051869 -0.046906129 0.55413818 -0.8065322 0.49187025 0.32797787 0.078762695
0.098392293 -0.045154184 0.55431652 0.80920798 0.53767633 0.23682605 0.11719579
-0.12403589 -0.038294435 0.55720174 -0.6994881 0.65141058 0.293906 0.090682544
-0.1139204 -0.033821877 0.5537253 -0.56683147 0.79786623 0.20521095 0.081800885
-0.056455892 -0.030770222 0.55666238 -0.028943999 0.99751693 0.064204663 0.018659025
-0.046884842 -0.030910041 0.55776376 0.034142654 0.9951039 0.09275008 0.021307308
-0.003646954 -0.037983682 0.55382097 0.073430918 0.97977901 0.18612093 0.051558413
0.023613416 -0.03317868 0.55393714 0.16379179 0.95847797 0.23343569 0.050717041
0.089666225 -0.0336782 0.55468988 0.6958431 0.67918831 0.23346458 0.12186386
0.095619403 -0.036581639 0.5539217 0.75240326 0.60522532 0.25998414 0.12023022
0.11435451 -0.030445158 0.55694306 0.83323282 0.50526673 0.22456335 0.11165603
-0.1054208 -0.33004421 0.56582069 -0.485026 -0.85659701 0.17604385 0.10341695
-0.095907152 -0.33004421 0.56451231 -0.35377184 -0.92447168 0.1421182 0.087984353
-0.087471716 -0.33004421 0.56635815 -0.29511905 -0.94575584 0.13583326 0.080798566
-0.057064287 -0.33004421 0.56602055 0.013221316 -0.99518156 0.097153738 0.017373789
-0.044496827 -0.33004421 0.56195641 0.021010812 -0.99537629 0.093726568 0.017694309
-0.036385451 -0.33004421 0.56249148 0.024689849 -0.99429625 0.10375663 0.022771692
-0.0057553048 -0.33004421 0.56298548 0.10041262 -0.97642672 0.19107106 0.06668216
0.01289891 -0.33004421 0.56243646 0.11052205 -0.94938982 0.29401338 0.081502095
0.066786796 -0.33013406 0.56937045 0.4715468 -0.70045555 0.53572917 0.14607717
-0.15491134 -0.32891965 0.56363672 -0.90960956 -0.25325227 0.32935363 0.055343922
-0.14212522 -0.32870868 0.56573129 -0.86428714 -0.406562 0.2961674 0.091839954
-0.13530263 -0.32899281 0.56470138 -0.8120867 -0.49884221 0.30277333 0.10138111
-0.12733126 -0.32942513 0.56480902 -0.71228838 -0.64879316 0.2677924 0.11487865
0.0432874 -0.32995224 0.56853878 0.22780314 -0.87235111 0.43256128 0.11046517
0.077962257 -0.32976162 0.56826234 0.59050214 -0.60535938 0.5337109 0.14972983
0.087400816 -0.32963762 0.56703472 0.66934639 -0.54006749 0.51019853 0.15330398
0.098479219 -0.3279258 0.56410766 0.80407542 -0.45073393 0.38768771 0.14804296
0.10707287 -0.32696992 0.56334627 0.86488098 -0.36178875 0.34797964 0.13337885
0.1030262 -0.31501326 0.56603783 0.81458807 -0.3119849 0.48899055 0.1219546
0.10715991 -0.30672425 0.56306815 0.87679482 -0.25240231 0.40929672 0.10645325
-0.14056085 -0.28262815 0.5632773 -0.92974061 -0.095364593 0.35565153 0.0285461
-0.13794713 -0.28485653 0.56918377 -0.92671043 -0.099130452 0.36246496 0.028540937
0.099847242 -0.2825627 0.56607741 0.80682278 -0.1316655 0.57593518 0.068968654
0.10041105 -0.28702724 0.56450307 0.80041212 -0.14634617 0.58131164 0.078992911
-0.13972986 -0.27735323 0.56481194 -0.93004984 -0.082415059 0.35807121 0.026706241
0.097985566 -0.27070674 0.56806993 0.77709657 -0.061123256 0.62640631 0.060331091
-0.13769475 -0.26025176 0.56754637 -0.93045765 -0.013934573 0.36613443 0.0082924422
0.099590078 -0.26803476 0.56196213 0.83440351 -0.056273438 0.54827386 0.0621983
-0.13723664 -0.25484714 0.56761265 -0.9301942 0.013363437 0.36682448 0.0039981003
0.099302895 -0.25747117 0.56146854 0.81601077 -0.01351757 0.57787853 0.056434937
0.10003853 -0.25236973 0.56121123 0.83499283 -0.0025455083 0.55025494 0.057433184
0.098421358 -0.24681981 0.56535769 0.80080104 -0.028393775 0.59825712 0.063021332
0.098466747 -0.23575091 0.56677443 0.81167608 -0.031264711 0.58327055 0.061375245
0.098724857 -0.2231369 0.56596839 0.85102057 -0.030259995 0.52425981 0.067825459
0.098791368 -0.21727282 0.56366634 0.88269538 -0.018397346 0.46958548 0.071446419
0.098772302 -0.20401934 0.56574482 0.8628723 0.016777586 0.50514346 0.06205013
-0.13435808 -0.18582255 0.56037968 -0.94082487 0.035861995 0.3369903 0.0019244041
0.10044838 -0.18836489 0.56709063 0.85551685 0.045952536 0.51573193 0.059987679
-0.13489293 -0.17037904 0.56694639 -0.93759596 0.038453236 0.34559402 0.0021271573
0.098934785 -0.17048799 0.56843728 0.83585364 0.020211192 0.54858023 0.060434274
0.10176563 -0.17726851 0.564134 0.87511975 0.016007012 0.48364159 0.061685961
-0.13669431 -0.16841815 0.5625546 -0.94146818 0.039073251 0.33482987 0.0018630252
0.098341964 -0.16690864 0.56865811 0.83165425 0.017047754 0.55503207 0.061822724
0.10101707 -0.16939801 0.56108111 0.89608771 0.030297931 0.44284189 0.06582652
-0.14053616 -0.15092117 0.56095278 -0.94277638 0.041997977 0.33077031 0.0015452887
-0.13925037 -0.15561299 0.56138456 -0.94213003 0.04068619 0.33276966 0.0016471323
0.09615688 -0.15841548 0.56550974 0.85288996 0.034966424 0.52091855 0.070399418
-0.13361318 -0.12691984 0.5637309 -0.93642396 0.054484721 0.34661457 0.002146858
0.10376897 -0.12739171 0.5620802 0.89976782 0.02510215 0.43564647 0.06435176
-0.1548298 -0.1192911 0.5639146 -0.93990445 0.053800963 0.3371723 0.0018237857
-0.13182843 -0.11483371 0.56542349 -0.93448806 0.064253487 0.35014796 0.0025989229
0.09867394 -0.11957184 0.5639137 0.85871243 0.028103134 0.51168662 0.061323632
0.098792955 -0.10685202 0.56826395 0.80698538 0.022082428 0.5901584 0.050623339
0.10121441 -0.10054293 0.56124824 0.86609268 0.050230488 0.49735346 0.059017979
-0.13170613 -0.09118297 0.56328779 -0.92417473 0.13824283 0.35607594 0.012855717
0.10161388 -0.098118387 0.56590664 0.83097422 0.056444626 0.55344009 0.053184532
-0.13182032 -0.087927543 0.56280535 -0.92245847 0.14265288 0.35877651 0.013445662
0.10404986 -0.086038701 0.56579703 0.83416486 0.098838814 0.54258627 0.061678812
0.10367753 -0.073127389 0.56993413 0.800852 0.17791444 0.57182389 0.083141103
-0.12714452 -0.063905746 0.56603086 -0.8825438 0.29077828 0.36954638 0.045557439
-0.12735957 -0.053744022 0.56308371 -0.84221613 0.40811166 0.3523021 0.066821754
0.10149441 -0.058154564 0.56640857 0.82703048 0.36580276 0.42685947 0.1085475
-0.12679066 -0.047747124 0.56304353 -0.81023699 0.47863978 0.33826029 0.074574895
-0.0057553048 -0.042584561 0.56298548 0.11526263 0.94247556 0.31377435 0.089589819
-0.12155455 -0.038291391 0.56336904 -0.70302171 0.65224051 0.28344825 0.086405315
-0.11995202 -0.037251756 0.56617498 -0.69378024 0.6703797 0.26317307 0.084141925
-0.10544244 -0.034088321 0.56556726 -0.52803373 0.82315725 0.20878835 0.071873643
-0.096424237 -0.033230416 0.56546706 -0.46042174 0.87040168 0.17439245 0.068256699
-0.087609202 -0.03200056 0.56664127 -0.35359871 0.92094493 0.16379344 0.063520104
-0.056962028 -0.03068072 0.56576842 -0.02120153 0.99197823 0.12461837 0.036195986
-0.044601526 -0.03056249 0.5619719 0.044018611 0.99258697 0.11328527 0.029548068
-0.038333356 -0.030130832 0.5623914 0.056220587 0.98966086 0.13194953 0.038825408
0.013076946 -0.032863274 0.56239605 0.1348287 0.95202559 0.27471533 0.05558417
0.043202262 -0.031399369 0.56853318 0.28233704 0.89584321 0.34314835 0.074475609
0.066814564 -0.030775545 0.56938821 0.43871689 0.83806944 0.32429484 0.1002235
0.077385634 -0.033179045 0.56747961 0.55501467 0.74583966 0.36835027 0.11096588
0.085542329 -0.034376908 0.56516814 0.6390543 0.67893177 0.361471 0.11710229
0.099914528 -0.039693542 0.56411165 0.7847687 0.50199145 0.36351448 0.11761215
0.10439497 -0.035422038 0.56728005 0.78252733 0.48826161 0.38633096 0.11541324
-0.1014245 -0.33004421 0.57002789 -0.44011411 -0.88053858 0.17593032 0.099734098
-0.094590597 -0.33004421 0.57778639 -0.35625911 -0.90518731 0.23176572 0.098469667
-0.084401704 -0.33004421 0.57354778 -0.24250318 -0.95125979 0.19051774 0.082267024
-0.045551755 -0.33004421 0.5722599 0.042050291 -0.98330295 0.17705128 0.05011062
0.063588917 -0.33020914 0.5739156 0.42210796 -0.6853736 0.59337002 0.1445981
-0.14407247 -0.32693785 0.57069743 -0.89799434 -0.28307709 0.33685821 0.064370349
-0.13261142 -0.32718623 0.57519406 -0.78562617 -0.53730023 0.30675721 0.10066357
-0.12621783 -0.32941988 0.57655704 -0.74200529 -0.5985021 0.30203211 0.10346332
0.018340282 -0.32978246 0.57825983 0.18208471 -0.8744083 0.44972804 0.10873963
0.029141473 -0.32981324 0.57012278 0.16077475 -0.87524557 0.45617613 0.10476512
0.033896402 -0.32916567 0.57480383 0.20791692 -0.83149701 0.51515371 0.11062158
0.087954581 -0.32587564 0.5797109 0.62084925 -0.39915723 0.67469972 0.12258287
0.096560404 -0.32632577 0.57342732 0.72927076 -0.38912484 0.56280196 0.13745272
0.10323913 -0.32749909 0.57297313 0.81527656 -0.33828539 0.46998629 0.1336249
-0.13760178 -0.31067267 0.57937753 -0.90115917 -0.19996242 0.38461304 0.049331788
0.088616833 -0.31278834 0.57926679 0.64622003 -0.32303041 0.69141239 0.11551011
0.097048946 -0.30093122 0.57259941 0.75339514 -0.2253855 0.61773545 0.096712664
-0.13584347 -0.27923134 0.57437807 -0.91969341 -0.063210234 0.38751575 0.021485245
0.09034393 -0.2728658 0.57542062 0.67202294 -0.072831072 0.73694021 0.05053062
-0.13504398 -0.26475394 0.57469803 -0.92252916 -0.03408207 0.38441962 0.014313941
0.094845951 -0.26648542 0.57228124 0.72676402 -0.04119812 0.68565059 0.053288121
-0.13559557 -0.25623533 0.57213414 -0.92203027 -0.0016423436 0.38711435 0.0067017344
0.091631502 -0.25713953 0.5760383 0.6458047 -0.0070334426 0.76347023 0.04124786
0.089270324 -0.24695298 0.57976037 0.64670652 -0.035068572 0.76193237 0.041321319
-0.13529229 -0.23148409 0.57245165 -0.92996353 0.031557657 0.36629489 0.0020507677
0.095272206 -0.23390628 0.57211465 0.74286807 -0.037926659 0.66836262 0.052253708
-0.13394675 -0.22600135 0.57552248 -0.92589813 0.031481884 0.37645921 0.0029702457
0.093118086 -0.22381003 0.57572526 0.72947818 -0.026632234 0.68348539 0.054481119
0.093734689 -0.2130093 0.57622015 0.74554938 -0.01534992 0.66627371 0.056706261
-0.13329248 -0.20823145 0.57655215 -0.92302454 0.044273075 0.38218525 0.0042825895
0.095935248 -0.20548812 0.57447517 0.76900744 0.0091077285 0.63917506 0.057064224
-0.13500661 -0.19977702 0.57593626 -0.92553443 0.039217394 0.37662718 0.0038036304
0.092376433 -0.19554046 0.57695985 0.73930264 0.013219124 0.67324358 0.050821222
-0.13205169 -0.16121048 0.57828718 -0.91558659 0.029588666 0.40103084 0.0062086722
0.088742793 -0.16546911 0.57789904 0.702582 0.033526085 0.71081257 0.049268935
0.094984412 -0.16592601 0.57269287 0.7597577 0.031243635 0.64945525 0.056222361
0.088541739 -0.15462697 0.57895595 0.68371737 0.019216409 0.72949386 0.045554262
0.092247486 -0.15632042 0.5740267 0.73159963 0.024475981 0.68129504 0.053936858
-0.14213979 -0.14666061 0.57234895 -0.9363547 0.040743802 0.34868315 0.0024014956
-0.13316205 -0.13285185 0.5759266 -0.91873121 0.052262262 0.39140984 0.006773327
-0.12982157 -0.13139871 0.57931221 -0.89978725 0.050149582 0.43343738 0.012477554
-0.12900893 -0.12687206 0.57943749 -0.89970893 0.049504705 0.43367389 0.013093336
-0.12811472 -0.11384547 0.57675534 -0.91176194 0.063292362 0.40581301 0.0086242864
0.089153349 -0.11741785 0.57438791 0.72581345 0.027250595 0.68735164 0.044630628
-0.12922904 -0.10360117 0.57195586 -0.92365867 0.095118187 0.37122387 0.0064156866
0.09455812 -0.10711429 0.57266623 0.73529202 0.028065857 0.67716908 0.04078022
0.099071614 -0.092800312 0.57195312 0.74761611 0.083810031 0.65882176 0.043986551
-0.12771511 -0.085152552 0.57510817 -0.90751421 0.15142722 0.39177522 0.015078345
0.10348875 -0.081638105 0.57416308 0.76421732 0.1068784 0.63604164 0.052895531
-0.12522179 -0.071152858 0.57559747 -0.88025343 0.2560586 0.39948457 0.033202093
0.10175407 -0.064103507 0.57417423 0.79278904 0.25662753 0.5528363 0.095329136
-0.12542915 -0.057371378 0.57115853 -0.85778153 0.35870773 0.368157 0.055245712
0.097028673 -0.053316388 0.57744765 0.75896519 0.34560087 0.55184406 0.10605465
-0.12413857 -0.04479482 0.57564992 -0.78535175 0.50657964 0.35580847 0.066930227
0.095323846 -0.042663839 0.57502705 0.73571348 0.50303686 0.45351917 0.11774847
-0.12153527 -0.038634643 0.57872629 -0.72848725 0.58950585 0.34898308 0.074735515
-0.11819004 -0.037102021 0.57099509 -0.69721407 0.65339303 0.294907 0.08025533
-0.10159523 -0.034101825 0.57174838 -0.54315352 0.80444604 0.24052215 0.075264327
-0.09589003 -0.033921197 0.57780576 -0.47379935 0.82485837 0.30841991 0.082487904
-0.084847026 -0.03215453 0.57366431 -0.32537183 0.92392933 0.20121562 0.070215322
-0.045548834 -0.030252168 0.57229179 0.035354756 0.97555989 0.21687058 0.04953121
0.018346921 -0.031458966 0.57821137 0.19365124 0.89528686 0.40119892 0.075332806
0.029216459 -0.031783774 0.57016915 0.19363059 0.91882253 0.34390754 0.059218541
0.034134824 -0.031887718 0.57512462 0.23939832 0.88292396 0.40389818 0.068062007
0.059990883 -0.032176711 0.57356071 0.39052129 0.83837587 0.38028815 0.089036614
0.064577609 -0.032030605 0.5734266 0.43304601 0.81684095 0.38110635 0.094468616
0.095642321 -0.039142165 0.57253265 0.719944 0.53868103 0.43761098 0.11705473
0.10181766 -0.037826382 0.57063216 0.78049576 0.48509142 0.39435098 0.11565178
-0.11588273 -0.33139867 0.58523399 -0.59783548 -0.74027318 0.30755222 0.11198714
-0.088582508 -0.33004421 0.5857687 -0.28124103 -0.9161166 0.28571644 0.095624022
-0.034185499 -0.33004421 0.58598381 0.08814963 -0.93674695 0.33872524 0.086933352
0.0075957351 -0.33043054 0.58459002 0.17997475 -0.83343029 0.52249694 0.1109937
0.10617186 -0.33007467 0.5838061 0.7155062 -0.27721947 0.641249 0.11757832
0.11000729 -0.33084103 0.58333725 0.75881642 -0.29205942 0.58215028 0.11923693
-0.13126469 -0.32623801 0.58351243 -0.78687567 -0.49958265 0.36227596 0.097304866
-0.12586361 -0.32836947 0.58460718 -0.74605191 -0.55901754 0.3618094 0.098314941
0.011342677 -0.32961884 0.58906412 0.1993102 -0.71726024 0.66769242 0.1180331
0.021840917 -0.32952431 0.58353573 0.20930628 -0.81906474 0.53415722 0.12095114
0.035763223 -0.32822385 0.58669412 0.25628328 -0.72404402 0.64037424 0.1154194
0.044879887 -0.32745063 0.58362442 0.32576823 -0.68284881 0.65390563 0.11838898
0.058080614 -0.32742929 0.58763671 0.44510025 -0.46806252 0.76341552 0.10351797
0.065312609 -0.32656035 0.58638352 0.46931449 -0.4557054 0.75635737 0.11031333
0.074858673 -0.32611555 0.58406276 0.55042994 -0.42231706 0.72019112 0.11918479
0.081642441 -0.32589149 0.58033925 0.57810313 -0.42906699 0.69404495 0.1242317
0.094555244 -0.32781264 0.5824753 0.65774608 -0.35352856 0.66512233 0.12732369
0.042639371 -0.3159402 0.58373392 0.36568797 -0.5356828 0.76112831 0.11204757
0.074377537 -0.31771097 0.58627552 0.5498758 -0.36182824 0.75280601 0.10933954
0.068698145 -0.30637762 0.58737004 0.54528588 -0.26229849 0.79615504 0.092040941
0.088413514 -0.2945863 0.58092368 0.63095874 -0.18332183 0.75384623 0.077399574
-0.13206698 -0.28337228 0.58310974 -0.9064042 -0.093842901 0.41185558 0.028243322
-0.12992577 -0.28520462 0.58689761 -0.89402777 -0.10629828 0.43521842 0.031897243
-0.13348135 -0.27709904 0.58064389 -0.91361952 -0.072732456 0.40001172 0.023864353
0.066615969 -0.27239871 0.58970118 0.4994691 -0.070530273 0.86345595 0.033519473
0.075512476 -0.26717538 0.58618522 0.55605853 -0.037882451 0.83027935 0.036345538
-0.13105537 -0.25628391 0.58452314 -0.90552211 0.0077214544 0.42422867 0.013147696
0.078887522 -0.25587201 0.5871923 0.56736416 -0.016854331 0.82329452 0.032552481
0.086640291 -0.25707427 0.5814659 0.58773923 -0.0025439067 0.80904651 0.03496331
-0.13165723 -0.24243632 0.58287954 -0.90528834 0.011225358 0.4246493 0.0091833025
0.086827695 -0.24708486 0.58236492 0.61674953 -0.038594484 0.78621268 0.036775015
-0.1309794 -0.23360631 0.58549279 -0.89952636 0.019983426 0.43640912 0.010454072
0.084224351 -0.23561382 0.58350813 0.61674088 -0.048169371 0.78569108 0.036673568
0.072468534 -0.22609794 0.58886522 0.57671744 -0.025522329 0.81654501 0.032066338
0.083133258 -0.22311768 0.58316493 0.63378865 -0.019094348 0.77327049 0.03993611
-0.12998492 -0.21059047 0.58631259 -0.89515555 0.046923682 0.44327724 0.012407311
0.076935969 -0.21509634 0.58712739 0.59371012 -0.0078627449 0.80464059 0.036756538
0.084263369 -0.21829356 0.58333266 0.64451844 -0.016451355 0.76441181 0.040399
0.1071893 -0.21632507 0.58111024 0.75974172 -0.0031807565 0.65021729 0.041032169
-0.13145998 -0.20268559 0.58464444 -0.90531397 0.046151385 0.42222828 0.010239589
-0.12928471 -0.20533983 0.58826691 -0.89197761 0.046169199 0.44971573 0.014762658
0.072830118 -0.20154373 0.58900964 0.56241655 0.016901212 0.82668138 0.031099493
0.085732549 -0.2044214 0.58246845 0.66342688 0.004750316 0.74822605 0.04753809
-0.13266064 -0.1998644 0.5831027 -0.91061109 0.041301038 0.41119549 0.0087656109
0.072455734 -0.19255501 0.58983368 0.53712052 0.028248111 0.84303242 0.02833426
0.084680833 -0.18404691 0.5825007 0.62040359 0.018974233 0.78405315 0.039999902
-0.1295592 -0.17281717 0.58808619 -0.88627136 0.021106826 0.46268523 0.017978741
0.076160863 -0.17439416 0.58614707 0.5682959 0.0046211504 0.82281131 0.038193669
0.083950624 -0.17616141 0.58247584 0.60822725 0.014902487 0.79362309 0.039109331
-0.12916066 -0.1628678 0.58687782 -0.88405389 0.030380813 0.46639657 0.016180821
-0.12866947 -0.15833348 0.58725274 -0.88339239 0.030055286 0.46766922 0.01620777
0.084134847 -0.15807971 0.58189565 0.65271896 0.021316189 0.7573002 0.044223521
0.069814429 -0.14342621 0.58959204 0.53899491 0.020184526 0.84206718 0.029583843
0.074890167 -0.14244138 0.58741456 0.55412519 0.020462828 0.83218181 0.030145105
0.082746476 -0.14126697 0.58466697 0.63170457 0.030777169 0.77459806 0.036986642
-0.12957934 -0.1332919 0.58044356 -0.89672559 0.048943732 0.43987244 0.013594355
0.080416366 -0.13784206 0.58587039 0.59221107 0.019345932 0.80555063 0.030341502
0.090058111 -0.13787216 0.58369416 0.68011582 0.046934761 0.7316007 0.037261479
-0.12793633 -0.1270583 0.58203387 -0.89193606 0.044794273 0.44993731 0.016309466
0.069671445 -0.12599409 0.58989501 0.53455913 0.018387146 0.84493101 0.028553985
0.071336895 -0.12289362 0.58893687 0.54430324 0.016716953 0.83872193 0.031527888
-0.12629248 -0.11409711 0.58236784 -0.89646894 0.054057352 0.43979684 0.01352637
0.070130192 -0.11419953 0.58927262 0.57607532 0.033447351 0.81671202 0.032807786
-0.12524168 -0.1087881 0.58399761 -0.89107984 0.071288034 0.44821289 0.016216949
0.078617208 -0.10080531 0.58502489 0.61631256 0.058851611 0.78529954 0.034285355
0.083099633 -0.10682516 0.5817039 0.64741075 0.038526483 0.76116699 0.034093872
-0.12509805 -0.095208891 0.58337528 -0.89532912 0.12660877 0.42703152 0.018999772
0.074362807 -0.095740065 0.58729482 0.58267826 0.083952114 0.80835515 0.038080227
-0.12350025 -0.085515954 0.58851486 -0.87166828 0.17270802 0.45865718 0.025142347
0.069737218 -0.087004967 0.58918458 0.53902406 0.12303254 0.83325636 0.047808375
0.085819259 -0.089612924 0.58104986 0.65777463 0.097013541 0.74694109 0.04967327
-0.12121308 -0.042007767 0.58486021 -0.76190013 0.51869053 0.38790247 0.070844248
-0.11982069 -0.040208444 0.58944798 -0.74967933 0.51682526 0.41336748 0.070923887
0.059261035 -0.043446835 0.58856744 0.46344697 0.50942701 0.72505248 0.083683439
0.062354743 -0.045972638 0.58821702 0.48264411 0.43232313 0.76167667 0.082449049
0.075567193 -0.041927129 0.58627278 0.54813546 0.53910518 0.63946319 0.097347133
0.083499141 -0.043804541 0.58624476 0.60942614 0.48151559 0.629875 0.10112846
-0.12145966 -0.039636869 0.58084178 -0.73279631 0.5815208 0.35333151 0.075711265
-0.11639897 -0.037417144 0.58611661 -0.70491391 0.60775965 0.36568388 0.079861641
-0.088692591 -0.033032745 0.58577853 -0.40218437 0.85039222 0.33923572 0.091179378
-0.03423842 -0.03017834 0.58598244 0.098478951 0.92124212 0.37631747 0.082336649
0.021707382 -0.032055248 0.58323491 0.23599678 0.82074594 0.52027065 0.080740191
0.034859359 -0.034053076 0.58716565 0.31641072 0.68881184 0.65224415 0.077925928
0.045063097 -0.03483399 0.58434409 0.35262093 0.71061409 0.60883999 0.081365503
0.056984141 -0.038592055 0.5872255 0.43651342 0.56053877 0.70374155 0.083629303
0.065064639 -0.038936906 0.58444262 0.4851743 0.58320445 0.65152013 0.090840057
0.079980575 -0.039589562 0.58097899 0.59434301 0.59938848 0.53618085 0.10661764
0.0079188636 -0.029587151 0.58653098 0.17735228 0.85694468 0.48393387 0.080798551
-0.0914976 -0.33004421 0.59567952 -0.32761911 -0.87691957 0.35167849 0.10882727
-0.078320377 -0.33004421 0.59829599 -0.15293872 -0.87937039 0.45090735 0.11073452
-0.063318267 -0.33004421 0.59371775 0.018802274 -0.93101376 0.36449954 0.093648151
-0.059476689 -0.33004421 0.59630251 0.07116431 -0.90638685 0.41641155 0.09430436
-0.041227479 -0.33004111 0.59325373 0.12288952 -0.88239801 0.45417166 0.10897812
-0.032164823 -0.33003724 0.59098262 0.12367731 -0.87229156 0.47308704 0.10725939
-0.0096008554 -0.33011773 0.59525216 0.17359474 -0.84698802 0.50247014 0.098035127
-0.13080233 -0.32442236 0.59395969 -0.80126542 -0.36238214 0.47608075 0.076930285
-0.12412147 -0.32792044 0.59594202 -0.75716782 -0.44830951 0.47509527 0.091307163
-0.11831344 -0.32940164 0.59539998 -0.68195438 -0.55424058 0.47723737 0.10648365
-0.023812704 -0.32985303 0.59614801 0.14380477 -0.8204847 0.55328578 0.10592323
-0.011810119 -0.32994792 0.59682053 0.16545497 -0.82942462 0.5335536 0.09591984
0.0036423695 -0.32928994 0.5965519 0.2382777 -0.65664101 0.71557415 0.10824183
0.014856126 -0.32779381 0.59381932 0.23962966 -0.57700729 0.78079462 0.11263771
0.025329284 -0.32701519 0.59851694 0.26543966 -0.50691819 0.82010716 0.10882027
0.03737922 -0.32842189 0.59665978 0.30141017 -0.47360086 0.82755911 0.097745307
0.045822822 -0.32810414 0.59627831 0.34807074 -0.44357064 0.82588857 0.09182401
0.053628702 -0.32693684 0.59445995 0.40655974 -0.40926558 0.8168298 0.095699124
0.064915918 -0.32700998 0.59444398 0.43577749 -0.39390743 0.80928051 0.10016821
0.075726502 -0.32712623 0.59419703 0.50985241 -0.35362396 0.7842198 0.10553882
0.08403936 -0.32911769 0.59363967 0.52687544 -0.30565509 0.79308087 0.10436886
-0.13015099 -0.31841707 0.5942598 -0.80896121 -0.32084179 0.49258745 0.069936976
0.063329235 -0.31681943 0.59056872 0.46714261 -0.37211925 0.80206305 0.098890498
0.053168666 -0.30408403 0.5918898 0.43508908 -0.25553095 0.86336631 0.076877236
-0.1263568 -0.28291032 0.59705549 -0.84507555 -0.12345801 0.52019751 0.046221673
0.043608885 -0.28824547 0.59900713 0.38069764 -0.14687018 0.91296136 0.04243616
0.0453481 -0.2707687 0.59931058 0.40432999 -0.082894258 0.91084903 0.021607941
0.053625826 -0.27346671 0.59654897 0.4386583 -0.084342062 0.89468729 0.029303428
0.046397179 -0.26805103 0.59895778 0.41239327 -0.07248392 0.90811777 0.01928517
0.063888527 -0.26748037 0.5926711 0.49330992 -0.054806422 0.86812538 0.029412532
0.049960446 -0.25551432 0.59769499 0.44692627 -0.037528738 0.89378327 0.013950816
0.067776829 -0.25474808 0.59353179 0.54951584 -0.023597442 0.83515 0.031254288
0.073000655 -0.25607795 0.59209812 0.5583517 -0.015450593 0.8294605 0.032767572
-0.12668118 -0.24151918 0.59846884 -0.84524113 0.0078173 0.53432798 0.034660436
-0.12645353 -0.23409502 0.59874588 -0.83324987 0.017682666 0.55261374 0.036994696
-0.12584224 -0.22500202 0.59862995 -0.82170153 0.036125395 0.56877196 0.040174454
0.053096432 -0.22629142 0.59604341 0.44433376 -0.0076715206 0.89582849 0.012897086
0.06802845 -0.22814822 0.59048462 0.55616379 -0.030214811 0.83052331 0.029939102
0.046083745 -0.21847056 0.59869063 0.42313948 0.0079224482 0.90602994 0.010269377
-0.12912454 -0.20223218 0.59010035 -0.87897193 0.048550762 0.47439566 0.021436909
0.045716103 -0.20736076 0.59952438 0.4110209 0.018932514 0.91142929 0.0085302414
0.064914301 -0.20368406 0.59139681 0.51178485 0.015857177 0.8589673 0.024097845
-0.13055936 -0.19725829 0.59002483 -0.88541436 0.044079587 0.4627077 0.019130928
0.056113422 -0.19809401 0.59809625 0.45085427 0.016253244 0.89244962 0.014571611
0.068398058 -0.19380677 0.59200388 0.52287197 0.027789639 0.8519581 0.026981121
-0.12794086 -0.17338274 0.59295928 -0.86554319 0.032658219 0.49976841 0.024298536
0.065159671 -0.17447799 0.59104246 0.50165379 0.004702332 0.86505568 0.027907737
-0.12603869 -0.1658677 0.5968768 -0.84042865 0.02428061 0.54137796 0.032526691
0.051878527 -0.16103962 0.59314156 0.45333716 0.0033636433 0.89133281 0.019182201
-0.12610486 -0.156592 0.5939036 -0.85633123 0.022540182 0.51593482 0.025228167
0.047404557 -0.15634876 0.59288448 0.43190277 0.012938158 0.90182734 0.013715249
0.051839102 -0.15967071 0.59858209 0.43441522 0.0096973134 0.90066051 0.01345206
0.068242125 -0.14096217 0.59016174 0.53140259 0.0065819779 0.84709394 0.026980095
-0.12256909 -0.13378192 0.59654635 -0.85674888 0.04609317 0.51366985 0.027419457
0.04251533 -0.13164367 0.59843177 0.3839331 0.0078002121 0.92332804 0.0070908898
-0.12168068 -0.12616068 0.59717023 -0.85703892 0.037528507 0.51388311 0.028807368
0.037878692 -0.12334688 0.59973276 0.35969406 0.015480965 0.93294185 0.0065025096
0.047600344 -0.12520665 0.59692717 0.41124919 0.010853294 0.91145831 0.010399177
0.055060014 -0.12564202 0.59453243 0.46212879 0.01281406 0.88672024 0.018401125
0.065867588 -0.12430086 0.59117031 0.50997561 0.01347534 0.86008334 0.026300991
-0.1219692 -0.11581872 0.59443533 -0.86955982 0.045301076 0.49174544 0.023475068
-0.12215605 -0.10590658 0.59323907 -0.87448895 0.063445769 0.48087806 0.021578226
-0.12082443 -0.097256519 0.5966121 -0.85271484 0.12946586 0.50607914 0.031352248
-0.12151223 -0.087133944 0.59502012 -0.84754598 0.17315845 0.50167912 0.033058163
0.053357199 -0.082607761 0.59668726 0.42357481 0.13876002 0.89517045 0.030445695
0.064674698 -0.089531101 0.59234762 0.49814653 0.11085704 0.85997719 0.038045432
0.059375953 -0.070373207 0.59335965 0.47161064 0.21375793 0.8555063 0.049533937
0.06291052 -0.072152294 0.59213489 0.49073863 0.20283076 0.84736967 0.051148709
0.076633587 -0.07010442 0.59553564 0.52472216 0.18400837 0.83114839 0.055574935
0.044627186 -0.067490637 0.59760785 0.38554463 0.21122511 0.89818668 0.039567597
0.055120334 -0.06831535 0.59438151 0.45081151 0.2312758 0.86213708 0.050693471
0.064954624 -0.065308057 0.59150094 0.50072992 0.24019718 0.83160979 0.060311679
0.071722507 -0.061470196 0.59087503 0.52643853 0.24978486 0.81269312 0.068359323
0.06803368 -0.058674634 0.59052473 0.52038586 0.28636512 0.80448341 0.074003264
-0.11810409 -0.044108309 0.59555453 -0.75481075 0.45214567 0.47521049 0.071787648
0.016041454 -0.041713402 0.59965599 0.27301952 0.45904025 0.84542435 0.07565476
0.02121377 -0.040613547 0.59908634 0.28007361 0.48813555 0.82660902 0.075339213
0.058832377 -0.049223468 0.59036243 0.4695597 0.35839313 0.80688792 0.076326817
-0.11320995 -0.035904057 0.59414822 -0.66395885 0.61329299 0.42782041 0.085801244
-0.091700874 -0.033325687 0.59596336 -0.42421469 0.80562335 0.41353706 0.10023636
-0.078502461 -0.032938834 0.5983274 -0.26644954 0.86348343 0.42825353 0.10758292
-0.063005976 -0.032198988 0.59384012 -0.071738899 0.93003833 0.36039183 0.0855124
-0.059313983 -0.031791899 0.59637868 -0.017026624 0.92418694 0.38156065 0.08114925
-0.041292768 -0.030738566 0.5932163 0.090580605 0.90724093 0.4107421 0.080119357
-0.032218397 -0.030469449 0.5910666 0.10896865 0.89298677 0.43669268 0.084757149
-0.023563677 -0.030335195 0.5960018 0.13639364 0.86513531 0.48263627 0.090887785
-0.011275288 -0.030341815 0.59814656 0.18583785 0.77815825 0.59994513 0.08350499
-0.00038776532 -0.032056097 0.59948766 0.22091523 0.68232101 0.69687486 0.078562029
0.0041359179 -0.031367425 0.5948773 0.2127225 0.74120331 0.6366843 0.084452063
0.015042222 -0.033814821 0.59311897 0.2427049 0.66206992 0.70905411 0.083658196
0.021334153 -0.039035689 0.59813136 0.27729377 0.50498474 0.81737298 0.076786086
0.044011686 -0.037615478 0.5942722 0.36822826 0.5195716 0.77100796 0.065601997
-0.012350535 -0.029790737 0.59545994 0.17388858 0.8072902 0.56395507 0.085246198
-0.0095994882 -0.029818285 0.59525847 0.18083067 0.79293317 0.58185673 0.083600491
-0.097614467 -0.33004421 0.60018653 -0.41373709 -0.78384632 0.46304056 0.11950284
-0.083147496 -0.33000541 0.60701537 -0.2031758 -0.78451389 0.58588189 0.11654698
-0.07426022 -0.33004421 0.6042372 -0.10519819 -0.84565693 0.5232569 0.11177671
0.024450924 -0.33122757 0.6060729 0.26125076 -0.40427271 0.87653381 0.096053585
0.070217147 -0.3303836 0.60695553 0.42684087 -0.2624003 0.8654207 0.0713396
0.086233579 -0.33059189 0.60769242 0.48406231 -0.20954315 0.84957361 0.074539535
-0.14116153 -0.32874465 0.60911036 -0.83089656 -0.30797088 0.46342728 0.074906327
-0.13269511 -0.32626706 0.60413849 -0.79517317 -0.34019959 0.50196004 0.076259464
-0.12271327 -0.32695645 0.60593534 -0.7448535 -0.38271943 0.54655212 0.086052351
-0.11606833 -0.32939306 0.60525388 -0.67262042 -0.487582 0.55663782 0.10231453
-0.10620239 -0.32977012 0.60688192 -0.49807957 -0.65902454 0.56356311 0.12227657
-0.064882725 -0.32995614 0.60570997 0.020107506 -0.79459506 0.60680681 0.11432367
-0.055891152 -0.32988772 0.60385299 0.11470017 -0.78077358 0.61419588 0.10730851
-0.025833242 -0.32922757 0.60545838 0.19690615 -0.7050634 0.6812588 0.11308897
-0.0150939 -0.32845923 0.60487437 0.24800444 -0.61936665 0.7449019 0.10527671
-0.0036018868 -0.32761207 0.60686815 0.26521617 -0.53127086 0.80461895 0.094722249
0.0048968103 -0.32555714 0.60537905 0.26141515 -0.52640188 0.8090508 0.098231971
0.011717413 -0.32581875 0.60443711 0.24898355 -0.51136446 0.82250446 0.10267533
0.034755893 -0.32970288 0.60427195 0.30411753 -0.3407433 0.88961035 0.079303578
0.043771863 -0.32929555 0.6029194 0.31496656 -0.37913674 0.87008703 0.084530026
0.05414024 -0.32916728 0.60197306 0.36656296 -0.40428013 0.83796734 0.092528395
-0.12624411 -0.31056333 0.60245955 -0.79736334 -0.26321715 0.54307324 0.068231478
0.016591838 -0.31545931 0.60330313 0.27118367 -0.37595379 0.88606888 0.089009076
0.035133608 -0.29798353 0.60229146 0.33436 -0.17945595 0.92520213 0.047995135
-0.12167348 -0.28411585 0.60571384 -0.77617949 -0.14297789 0.61408687 0.064164333
0.037787363 -0.28121367 0.6019578 0.36125067 -0.11103622 0.92583418 0.026639044
-0.13369331 -0.27254069 0.60599178 -0.86635846 -0.048275951 0.49708405 0.030996155
-0.12720101 -0.27697277 0.60964507 -0.80421054 -0.092905685 0.58703822 0.053156804
0.023457497 -0.27808729 0.60679513 0.32422295 -0.13138779 0.93681198 0.025786519
0.035577245 -0.27663428 0.60277104 0.36742967 -0.1090793 0.92363262 0.024790484
0.040346973 -0.27758497 0.60116839 0.37511563 -0.10188083 0.9213624 0.025467023
0.036524627 -0.26368567 0.60183603 0.37741151 -0.069282934 0.92345029 0.010028703
0.041188952 -0.268002 0.60043275 0.39428568 -0.079800636 0.91551661 0.018676242
0.028295062 -0.25931707 0.60488874 0.34864175 -0.061610773 0.93522888 0.0068169571
0.03090721 -0.25083119 0.60371119 0.35624844 -0.032693304 0.93381917 0.0034561434
-0.12558815 -0.24510252 0.60066944 -0.83582944 0.016608316 0.548738 0.039452247
0.020109368 -0.24246979 0.60888445 0.32065195 -0.01080676 0.94713545 0.0016653402
0.034179665 -0.24499771 0.60275698 0.36883605 -0.023613278 0.92919445 0.0044279727
-0.12473582 -0.23605309 0.60333228 -0.80984938 0.011575442 0.58652365 0.043617118
0.032901246 -0.23140773 0.60397398 0.36068901 -0.0015114644 0.93268496 0.0034239441
0.025475226 -0.22347915 0.60742337 0.33320999 0.010587567 0.94279319 0.0018099374
-0.12142497 -0.21064113 0.60667598 -0.76827687 0.030031098 0.63941288 0.049981665
0.021264894 -0.21166469 0.60668558 0.32570234 0.017861767 0.94530368 0.001453077
0.030870944 -0.21924397 0.60514277 0.3521986 0.013980345 0.93582088 0.0027997345
-0.12197046 -0.20593941 0.60619938 -0.77120292 0.033687178 0.63569742 0.047624666
0.0083351173 -0.20054121 0.6094327 0.30505896 0.020158041 0.95212013 0.0013155438
0.04303091 -0.20418029 0.60181046 0.39944449 0.017621903 0.91658801 0.0066433302
-0.12516882 -0.19922619 0.60026252 -0.82410985 0.030739326 0.56559533 0.039888684
0.039553832 -0.1966612 0.60862613 0.36711574 0.017886879 0.93000329 0.003623592
0.041340541 -0.19904327 0.60542727 0.38196877 0.020561947 0.92394644 0.0046715047
0.050837152 -0.19676863 0.6005097 0.43111965 0.015785091 0.90215671 0.010808537
0.010469766 -0.18221776 0.60848379 0.30443248 0.030049905 0.95205981 0.0012811692
0.025270216 -0.18131638 0.6033783 0.33143231 0.0211448 0.94324207 0.002009019
0.067775391 -0.18917534 0.60558397 0.47341144 0.018401148 0.88064921 0.019240377
0.013322173 -0.17196628 0.60732436 0.30621928 0.030827682 0.95146173 0.0012870519
0.024549603 -0.17791271 0.60372335 0.33295184 0.022629628 0.94267231 0.0022889492
-0.12366043 -0.16444227 0.60377175 -0.8136996 0.027825767 0.58061922 0.03925335
0.008328991 -0.16841747 0.60889137 0.29728362 0.03461431 0.95416158 0.0011322604
0.013902537 -0.16982788 0.60705513 0.30550116 0.031702567 0.95166385 0.0013105428
0.0058162799 -0.15652409 0.60951328 0.29272225 0.038992386 0.9554022 0.0011089684
0.047028437 -0.15270588 0.60081339 0.41437909 0.018621175 0.9099139 0.010224697
-0.12184539 -0.14855532 0.60205889 -0.8168326 0.012809387 0.57673252 0.043061309
0.02719014 -0.14377293 0.60328752 0.32335407 0.020234229 0.94606173 0.0029102978
-0.12054974 -0.13361572 0.60115957 -0.824444 0.028804809 0.56521004 0.039958749
-0.11847647 -0.1355202 0.60702258 -0.78696901 0.0097540878 0.6169154 0.04957502
-0.11763478 -0.12616572 0.60738331 -0.79491538 0.010183352 0.60663491 0.050467458
0.015205754 -0.12076569 0.60788625 0.29089236 0.025562029 0.95641422 0.00087005814
0.033926725 -0.12447024 0.6011048 0.33185118 0.016521828 0.94318706 0.0038737347
-0.11962488 -0.11691367 0.60185981 -0.85004956 0.038320631 0.52530694 0.031844672
0.040365595 -0.11105699 0.60024393 0.35747147 0.0284812 0.93348968 0.0059364783
-0.11731902 -0.10130417 0.60797864 -0.81417674 0.097882651 0.57230687 0.035872027
0.0074920803 -0.10358678 0.60861015 0.29841882 0.066135712 0.95214093 0.0060572326
0.012926685 -0.10790511 0.60915357 0.28956705 0.047780667 0.95596445 0.0024043389
0.026057804 -0.10671465 0.60372555 0.30271232 0.06130315 0.9511084 0.0047561759
0.034662817 -0.10993562 0.60156059 0.32691494 0.043778811 0.94403923 0.0041922135
0.043886594 -0.10842897 0.60035163 0.36760867 0.028397808 0.92954689 0.0079432409
-0.11899786 -0.090896338 0.60272276 -0.83174062 0.15402427 0.53337044 0.035231214
0.016660128 -0.091582701 0.60542518 0.31115058 0.10908408 0.9440794 0.015180804
0.02502027 -0.098430485 0.6038655 0.30276603 0.095232666 0.94829506 0.011410658
0.035642054 -0.090746641 0.60314637 0.3292332 0.11482073 0.93724155 0.016457798
-0.12024848 -0.084413484 0.60084534 -0.82720685 0.19614267 0.52655184 0.03816054
-0.11922239 -0.088890001 0.60212958 -0.82777733 0.16991942 0.53470755 0.036720771
0.0075947493 -0.086139508 0.60772198 0.31360987 0.13275741 0.94022566 0.019376505
0.013651582 -0.087559208 0.60575855 0.31343853 0.12829234 0.94090241 0.019389668
0.040426545 -0.082294106 0.60170102 0.33604366 0.13086382 0.93271077 0.021240691
0.0101347 -0.075025842 0.60592532 0.3163802 0.17236799 0.9328413 0.0308179
-0.1120173 -0.063487813 0.60202432 -0.76370221 0.32135841 0.55989981 0.060386807
0.0133549 -0.061006319 0.60327089 0.30256718 0.24214612 0.92185593 0.047376983
0.0076579209 -0.053514339 0.60571903 0.27806437 0.35066724 0.89426655 0.061004374
0.010190537 -0.051485077 0.60468405 0.28103215 0.37457526 0.88358039 0.064000316
-0.11402253 -0.047326874 0.60748708 -0.72944462 0.40048215 0.55454916 0.073132738
-0.0028149527 -0.044950552 0.6093632 0.27235225 0.40293217 0.87376767 0.060773164
0.0024374316 -0.044870891 0.6074307 0.26825628 0.41099554 0.87127572 0.064743467
0.014191924 -0.046387553 0.6022048 0.28010556 0.39640927 0.87430006 0.069587544
-0.11124158 -0.037315719 0.605811 -0.65051281 0.55722189 0.51607829 0.089836486
-0.10703842 -0.034736313 0.60725051 -0.58053428 0.6391688 0.50442374 0.099221848
-0.097619116 -0.03355594 0.6000995 -0.47413597 0.7559092 0.45143816 0.09948878
-0.083179988 -0.033009581 0.60672331 -0.30367783 0.79767388 0.52105296 0.11313652
-0.074695803 -0.032845356 0.60405922 -0.20353702 0.84195864 0.49967825 0.1088258
-0.064739421 -0.032473031 0.60595608 -0.078751899 0.86358333 0.49801809 0.098490119
-0.055891786 -0.03196964 0.60375315 0.014221595 0.87827653 0.47794151 0.086002685
-0.024089651 -0.032542795 0.60775709 0.18420723 0.73227322 0.65562463 0.088592254
-0.014155552 -0.032431498 0.60441768 0.20970282 0.71402025 0.66798192 0.086822972
-0.004970883 -0.03571935 0.60689342 0.24943489 0.55513763 0.79347616 0.075437278
0.0055877483 -0.036561634 0.6023652 0.24776891 0.56949866 0.78376138 0.076459117
0.0038337472 -0.33018884 0.6106931 0.26320574 -0.45052969 0.85308015 0.082086854
0.041558892 -0.33103064 0.61104244 0.30638352 -0.33832437 0.88975602 0.074674807
-0.1226429 -0.32872704 0.61325741 -0.6856001 -0.41578978 0.5975545 0.094723679
-0.1159857 -0.32912344 0.61494535 -0.62341899 -0.47985116 0.61732626 0.10708324
-0.10640637 -0.32951832 0.61649084 -0.47855633 -0.58651793 0.6534375 0.11526529
-0.098834604 -0.32983565 0.61451066 -0.3999587 -0.62100786 0.67407894 0.12162133
-0.088847421 -0.32979947 0.61519462 -0.25659102 -0.67146999 0.69519001 0.12103944
-0.075374022 -0.32967728 0.61353827 -0.12111679 -0.72518355 0.67781973 0.11918724
-0.060207922 -0.32842049 0.6192944 0.082555696 -0.55176777 0.82990181 0.10016987
-0.053041089 -0.32947123 0.61202651 0.15193018 -0.64507025 0.74886686 0.10596291
-0.041690342 -0.32878101 0.61659443 0.2107089 -0.53070891 0.82094443 0.10021426
-0.03489498 -0.32835689 0.61817485 0.22595756 -0.48905978 0.84247476 0.093185894
-0.024387589 -0.32844362 0.61498231 0.20679404 -0.54626042 0.81168699 0.10031724
-0.013454944 -0.32723027 0.61589468 0.27823234 -0.43861634 0.85451883 0.083402559
-0.0061016758 -0.32704052 0.61323047 0.27215493 -0.43376973 0.85893857 0.080305248
-0.0054715974 -0.3177017 0.61289936 0.26995394 -0.34685138 0.89823103 0.070611522
-0.019225171 -0.2988365 0.61937839 0.28393111 -0.24666843 0.92657316 0.049311858
-0.0045225229 -0.29859629 0.61459243 0.29680309 -0.25208876 0.92106414 0.051283963
-0.121624 -0.28058097 0.61286694 -0.74845117 -0.13050969 0.65022159 0.066157743
-0.11866044 -0.28159285 0.61411566 -0.72218734 -0.15111329 0.67498916 0.071268611
0.0082584573 -0.28613812 0.61180127 0.31078765 -0.16276082 0.93644005 0.031513885
0.011023869 -0.28809169 0.61083096 0.3112174 -0.17293026 0.93447256 0.036468424
-0.1226723 -0.27586314 0.61296892 -0.76983154 -0.10118302 0.63017571 0.058735501
-0.11983939 -0.27834868 0.61944848 -0.71905595 -0.12012202 0.68449199 0.064773679
-0.013429554 -0.2726444 0.61710101 0.30299971 -0.10616855 0.94705832 0.015144031
0.013635705 -0.26836383 0.61058718 0.3199605 -0.090520501 0.94309664 0.011151074
0.012761896 -0.25435248 0.61109126 0.31672817 -0.035049066 0.94786865 0.0025964146
-0.012076724 -0.24232003 0.61664009 0.30075267 0.0031161597 0.95369709 0.00081611914
-0.0037736227 -0.2438277 0.61509472 0.30429438 -0.00037158318 0.95257801 0.0008664371
-0.12053954 -0.23537621 0.61241412 -0.73258871 0.013831468 0.68053102 0.059683215
-0.0079704961 -0.23242608 0.6184411 0.29938093 0.010353781 0.95407748 0.0008003019
0.0092867045 -0.23317523 0.61314785 0.30780977 0.0068987431 0.95142293 0.001017736
0.016691461 -0.23935696 0.61053962 0.31791767 -0.0078185508 0.94808608 0.0014837235
-0.11728947 -0.22293785 0.61763847 -0.69945049 0.012860388 0.71456528 0.061582528
