# .PCD v0.7 - Point Cloud Data file format
VERSION 0.7
FIELDS x y z
SIZE 4 4 4
TYPE F F F
COUNT 1 1 1
WIDTH 1413
HEIGHT 1
VIEWPOINT 0 0 0 1 0 0 0
POINTS 1413
DATA ascii
-0.02937335 0.02054763 0.66164839
-0.0034853821 0.053452641 0.65688628
-0.037242349 0.03524005 0.65531939
-0.047084749 0.0067296028 0.65683329
0.052132789 0.0169014 0.65621108
0.1261127 -0.1813378 0.65786231
0.072722852 -0.1205594 0.65372533
0.091686673 -0.061606761 0.66135442
0.1643046 -0.17451601 0.65194619
0.069341838 -0.2245083 0.65962118
0.056725379 0.041456129 0.65865737
-0.00043439871 -0.1341349 0.66363299
-0.02583188 -0.031091901 0.65870959
0.13513359 -0.2204221 0.65260082
0.040605251 0.06037131 0.48605159
0.134654 0.067390978 0.6005581
0.1641389 -0.12899061 0.65212208
0.1814613 -0.2245492 0.64763743
0.1806715 -0.04163808 0.65484351
0.15704571 -0.22122601 0.64616662
-0.0102185 -0.13943709 0.65749109
0.18617859 -0.1516515 0.64693731
0.17820799 -0.1286439 0.43822199
0.1141256 -0.038510021 0.65164697
0.06334424 -0.2399826 0.65561229
0.01368535 -0.15985709 0.66235572
0.065122843 -0.051199231 0.65604341
0.1921611 -0.073269993 0.62434518
0.18451659 -0.071032763 0.4470593
0.1705993 -0.087372422 0.48278239
0.074866951 -0.165803 0.65695798
0.1889137 -0.076635659 0.54701722
-0.025758149 0.001297653 0.65930527
-0.01534927 -0.17608669 0.66186953
0.045202971 -0.2290546 0.66248769
0.163232 -0.055297051 0.64880967
0.18590739 -0.2249839 0.64859658
0.16726629 -0.055421829 0.65498579
0.17903 -0.18131889 0.64264482
0.2209077 -0.2237048 0.64423412
0.1558639 -0.1093287 0.65157533
0.071280241 -0.069713563 0.65625137
0.1136236 -0.1156953 0.66041088
0.13345779 -0.1920307 0.66369712
0.1992269 -0.059960779 0.62064523
0.02326888 -0.215211 0.66022241
0.1735107 -0.2213171 0.45811951
-0.0306195 -0.1475118 0.66106331
0.33032981 -0.24133331 0.46668729
0.16772521 -0.2188213 0.65930152
0.205892 -0.1598362 0.65148032
0.01474166 -0.1982841 0.68095022
0.1095379 -0.1823435 0.66238803
-0.02013791 -0.1684262 0.65961462
0.4677529 -0.2362168 0.55804789
0.4202787 -0.2387031 0.49360451
0.33945161 -0.2226707 0.77111018
0.07669425 -0.22987349 0.73199588
0.46820211 -0.24131 0.57526171
0.1734667 0.054325338 0.43974641
0.1555035 0.045861538 0.4909251
0.1864071 -0.14459009 0.6391896
0.017006461 -0.2325512 0.67182457
0.017396269 -0.2419782 0.67749608
-0.041400339 0.025952909 0.56661361
-0.048029069 -0.032159511 0.49028441
-0.02679318 -0.02168289 0.65416372
-0.043051962 -0.070901133 0.49133399
-0.053845491 -0.02540426 0.4604412
-0.02732897 -0.086449742 0.62714928
-0.04021788 -0.05771533 0.54601908
-0.040907919 0.037036091 0.44430929
-0.048460782 -0.1709629 0.43755919
-0.037479222 -0.049339209 0.58450341
-0.037734151 0.0197086 0.5313791
-0.04145899 0.001871914 0.60373902
0.098271668 0.04715446 0.45603651
-0.0076149111 0.052347079 0.53343958
-0.035324808 0.034996539 0.57420242
-0.028508781 0.053213511 0.45631331
-0.046260949 -0.23133589 0.49020749
-0.044517521 -0.2173543 0.42979711
-0.034118831 0.043911729 0.52861011
-0.04656833 0.051560339 0.44637781
-0.034039378 -0.1934704 0.62199408
-0.041918341 -0.1359285 0.56778443
-0.044178721 -0.1188335 0.59262228
-0.025957819 -0.02045688 0.65013897
-0.044040531 -0.15702181 0.60777199
0.1836537 -0.1759042 0.66167438
-0.042262319 -0.04954752 0.4446328
-0.024511339 -0.1085216 0.64428198
-0.048264738 -0.1792527 0.4881812
-0.047886249 -0.062649854 0.55528522
-0.037005659 -0.1324435 0.5418117
-0.036329571 -0.1978993 0.62759268
0.01473284 -0.2202725 0.69915003
-0.04302847 -0.2016657 0.50278091
-0.021626711 -0.2404727 0.65331173
-0.02968842 -0.19610161 0.64722252
-0.052292701 0.032903519 0.4635042
-0.050262209 -0.086221129 0.53082353
-0.033921599 -0.1719075 0.63519311
-0.034720659 -0.018642571 0.62745333
-0.01556337 0.060394078 0.5165273
0.081653297 0.05184114 0.54304779
-0.027390599 -0.20564 0.63871193
0.1248947 0.06481865 0.63561612
-0.03697532 -0.1050083 0.54178667
0.03022355 -0.082654029 0.66081589
-0.043204669 -0.12821791 0.54996121
-0.041049421 0.03140733 0.56600201
-0.059918281 0.0083702803 0.48422599
0.2375143 -0.2416285 0.95047718
0.1332949 -0.081192911 0.65672469
-0.05967271 -0.1058409 0.45217419
-0.04590708 0.03732115 0.48798639
0.04532868 -0.1146387 0.65743852
-0.03750762 -0.039885059 0.64087778
-0.050138678 -0.096754037 0.5188092
-0.0033815501 -0.084080368 0.65584588
-0.038605511 -0.2412103 0.54575801
-0.01113331 0.053784821 0.44888881
-0.042190552 0.047568232 0.55484867
-0.044874281 -0.1470878 0.60551769
-0.054928139 -0.2372492 0.48712131
-0.042198729 -0.16903821 0.63145602
0.1181462 0.05364126 0.45814511
-0.05353624 0.04904652 0.44057971
-0.054483619 -0.02599263 0.4584178
-0.054497801 0.037809819 0.47100329
0.04311401 0.054758549 0.5858196
-0.03361243 0.051812049 0.4335947
-0.04295506 -0.1193555 0.64007199
-0.017829509 0.051942259 0.43351591
0.023205381 0.050222129 0.4344207
0.1325222 0.056127191 0.4352825
0.13365559 0.054484699 0.4831495
-0.05492837 -0.059222221 0.4563759
0.047724281 0.052053422 0.5858981
-0.055665251 -0.087900281 0.4811047
-0.02556123 -0.1853171 0.65283102
-0.04832473 -0.13406961 0.56237698
-0.04945815 -0.001111001 0.5068143
0.040593181 0.057424251 0.55551118
-0.040221479 -0.18732481 0.6486311
-0.04891653 0.035306219 0.43980739
-0.055144321 -0.022937421 0.4353269
0.098223723 0.052196499 0.47966811
-0.054171711 -0.13536081 0.4432871
0.0121538 0.049502101 0.52494001
-0.0494867 -0.18655381 0.56163257
-0.046820391 -0.098038323 0.51420462
-0.048032861 -0.1610543 0.56075209
-0.046156261 -0.1258029 0.53258091
-0.0486187 -0.1942334 0.52889729
0.068992347 0.05292815 0.54808658
-0.03523156 -0.093922727 0.62006319
-0.046786439 -0.15133891 0.53901279
-0.04966408 -0.018184241 0.51439673
-0.024710661 0.04831415 0.50222641
0.02505073 0.051224891 0.4714348
-0.01030061 0.05483013 0.6430735
0.1586287 0.059183601 0.54646093
-0.041997999 -0.2024696 0.63016331
-0.052914891 -0.22166289 0.57572168
0.058915231 0.053627551 0.44015759
-0.080546923 -0.243324 0.4088023
0.1464837 0.052691221 0.50072771
0.095267057 0.053455468 0.50391853
-0.036828522 -0.1071206 0.63281029
-0.039250139 0.049712632 0.45185429
0.0089451075 0.051849041 0.48367569
0.016868651 0.055196788 0.5171026
0.1524272 0.045806289 0.64822859
0.082616627 0.056930751 0.5752815
0.05025604 0.041915659 0.64744878
-0.039952088 -0.24288879 0.63244581
-0.088606089 -0.23077489 0.47197661
0.045878351 -0.2417827 0.65816933
0.086215913 0.058830202 0.63630432
0.087635897 0.05625784 0.4966068
-0.02793726 0.049871091 0.49320021
-0.04650788 0.05160135 0.50991708
-0.037275668 0.05220655 0.48881239
-0.04501076 0.04000175 0.44619071
-0.05395906 -0.1447296 0.50293952
0.099223047 0.055281669 0.62077618
-0.047633588 0.052583009 0.52523929
0.1115761 0.05260995 0.49993211
0.02562568 0.050666511 0.51853448
0.0070643718 0.049693018 0.52929032
0.033525322 0.04976505 0.5238449
-0.046865359 -0.057337109 0.5410682
-0.123234 -0.2308567 0.50793159
0.04510865 0.037326399 0.64358461
-0.046634641 0.034998149 0.4755438
0.068490587 0.051590741 0.64454871
-0.04511911 0.01863515 0.52396959
-0.053207312 -0.01065788 0.46267089
0.1336309 0.050975829 0.63455921
0.1087752 0.058696959 0.56282598
0.1335848 0.0569143 0.55081642
0.081622303 0.05874005 0.63796812
-0.049655691 0.022037059 0.49771139
0.17927089 0.056883931 0.63921177
-0.053731538 -0.2397836 0.58919328
0.1095349 0.05341899 0.47690251
0.097240269 -0.2256126 0.65188992
0.019225979 -0.243176 0.66442168
0.15299921 0.057396378 0.58642071
0.1661254 0.061461121 0.61252087
0.051667988 0.05306169 0.53653169
0.1787883 0.040460169 0.63956511
0.1520396 -0.099990159 0.64864248
0.0039047899 0.054266039 0.44136521
-0.045806199 -0.1669369 0.59065312
-0.038412321 -0.04281253 0.63580912
-0.035955559 -0.061763939 0.63012129
-0.040640581 -0.03862223 0.63723218
0.001651507 -0.22747479 0.66109878
0.02125019 -0.08031401 0.65409839
0.034146309 -0.1689515 0.65298468
-0.038933311 -0.044460621 0.64203918
-0.001742512 -0.2330928 0.66312891
0.026511669 0.05610016 0.58298111
0.0027175839 0.055238571 0.65151638
-0.037744299 -0.043278869 0.65274268
0.1242831 0.053815451 0.47032931
0.1281756 -0.03895241 0.64408338
0.1299473 0.030211391 0.64422202
0.046651661 0.052375611 0.64298338
0.1215616 -0.24139249 0.65291482
-0.01201451 0.026666639 0.65113258
0.03138759 0.033538491 0.65143508
0.17241061 -0.077416241 0.63851631
-0.005448401 -0.1638893 0.65867168
-0.045037881 0.054170579 0.53910178
0.062855177 0.062186118 0.61874771
0.01365851 0.05668607 0.58947599
0.1054716 0.055687811 0.5654484
0.14772169 -0.051854461 0.64542419
0.01192978 -0.075149544 0.65833992
-0.043776602 -0.2011629 0.6523236
-0.0056957901 -0.05825603 0.65434432
-0.04035506 -0.05273262 0.65689772
0.04232591 -0.1187242 0.64859682
-0.020335309 -0.01012689 0.65662241
0.1026467 -0.095804267 0.64826667
0.13628919 -0.0116986 0.64451891
0.046123002 -0.17071991 0.65527928
0.044337541 -0.0046668351 0.65118539
0.1614241 -0.053564459 0.6411345
0.034549709 -0.018067271 0.65151519
-0.31332111 -0.2433866 0.60851032
-0.01607248 0.06187648 0.4342953
0.16890401 0.053487722 0.63854098
0.1421257 -0.23754171 0.65487421
0.16193619 0.056131329 0.58958107
0.1600029 -0.086899161 0.64395243
0.05901641 0.05675739 0.47136861
-0.03714247 0.04968131 0.51820552
-0.056806739 0.029330971 0.44738629
0.03760612 0.05736047 0.50208747
-0.055843592 -0.0626266 0.55770183
-0.053640869 -0.2392316 0.4854303
-0.050816271 -0.24093939 0.54318911
0.0078140497 0.060606752 0.6257273
0.1014434 0.05218726 0.49747071
0.1688181 0.054352101 0.55011803
0.1156864 -0.021952569 0.64946759
0.068480521 -0.002402067 0.65460932
0.041681711 -0.091468573 0.64997143
0.066924103 -0.1045133 0.65307927
-0.041024659 -0.13136651 0.62883872
0.01535907 -0.1119284 0.65559238
-0.021324189 -0.058810111 0.65583438
-0.040674031 -0.152493 0.63501477
0.1002313 -0.2331793 0.65142012
0.1617897 -0.2072963 0.64484262
0.09222424 -0.1506464 0.65211439
-0.037673101 -0.14808939 0.64839512
-0.028236 -0.1162862 0.6610719
-0.049266249 -0.1267468 0.54268128
0.1445172 -0.099757187 0.6425094
-0.02791151 -0.1969596 0.64076477
0.1761236 0.05536747 0.62789029
0.1550637 -0.0106858 0.64823198
0.1598994 -0.1333854 0.63819498
0.067241579 0.042283949 0.6490013
-0.00071951753 0.050555289 0.65525872
0.1809178 0.05773538 0.6153453
-0.058119819 0.0073911552 0.4854531
0.03329489 -0.0054301922 0.64832592
0.022227669 0.042436179 0.64896238
-0.21331219 -0.2407506 0.72192639
0.1404826 0.02962601 0.64769518
0.29944271 -0.24012861 0.74128538
0.14309239 -0.078855753 0.64412123
0.13812479 -0.1299139 0.65173852
-0.046723861 -0.1446775 0.59278941
0.065697066 0.056952242 0.45492721
-0.027079109 0.056316201 0.61889541
-0.2474355 -0.24322429 0.76919162
-0.01579297 0.055227939 0.5540598
-0.04453136 -0.024982629 0.59050852
0.03437284 0.055168599 0.44330141
-0.02126077 0.052562829 0.4870806
0.1036399 0.04571167 0.4257848
-0.032962501 0.05497998 0.59335011
-0.047318518 0.03184703 0.56456977
-0.044679161 -0.042958081 0.6086728
-0.04770577 -0.042933229 0.55994302
-0.047372591 0.049191359 0.55580312
-0.015972819 0.050732519 0.49792099
-0.04220276 0.001226306 0.60418308
0.0060594981 0.056780308 0.51295412
-0.041354612 0.0007044971 0.59682488
0.00025969741 0.05080783 0.4486495
-0.037119899 0.057682838 0.5642612
-0.001550853 0.05477291 0.49637789
-0.01603538 0.053679321 0.44311059
0.022527751 0.05799878 0.461218
-0.020667341 0.055257142 0.45407411
-0.04368487 0.02033427 0.54059422
-0.04780123 0.0059915478 0.54053009
-0.045036059 -0.1191362 0.59456438
-0.050136101 -0.1645584 0.57980311
-0.055416118 -0.17357761 0.48287189
0.090731107 0.062170088 0.59569281
-0.030887689 0.055921201 0.63607252
-0.0205476 0.058683399 0.63886631
0.095025182 0.059858318 0.64247853
-0.033377171 0.03992334 0.65212989
0.1113415 -0.1073062 0.65330219
0.083812557 -0.03729346 0.64921629
0.087803602 8.3595507e-05 0.64855212
-0.03854914 -0.0026275809 0.63818783
-0.038802709 0.044345081 0.6203351
0.037073489 0.058520019 0.55262297
-0.043148641 0.0033321381 0.61391062
0.1520263 0.057767749 0.51852292
-0.032533351 0.0070314999 0.65907478
-0.020374721 0.047730058 0.59528083
-0.04196237 0.02902621 0.61392373
-0.031456351 0.028470039 0.65705478
-0.0108611 -0.069939077 0.65647388
-0.02530184 -0.07176432 0.65852302
0.050569709 -0.104003 0.65453619
-0.032719221 -0.2325789 0.65185058
-0.00044462079 -0.087903857 0.65860921
-0.045788739 -0.185267 0.62198591
0.081260949 -0.200684 0.65204608
0.03978556 -0.2391091 0.65212542
-0.040220778 -0.1070001 0.6514883
0.045694139 -0.15458021 0.65801942
0.1369413 -0.2069958 0.65035689
-0.033058349 -0.081958033 0.65897888
0.1779131 -0.2206925 0.64360672
-0.045119941 -0.06158131 0.47998911
-0.0678913 0.03106809 0.45110399
0.1327727 -0.15863261 0.64036578
-0.01024076 -0.2010874 0.66646808
-0.04688799 0.0406329 0.57471168
0.040100399 -0.18242811 0.66108912
-0.044859771 -0.02238786 0.57141519
-0.0062569981 -0.16326261 0.66472208
0.1780432 -0.2027086 0.64998192
-0.055287089 -0.043553289 0.441618
-0.042858701 -0.01598868 0.60358828
-0.01431158 -0.024298999 0.65603769
0.1056954 0.0538637 0.43205151
0.087184757 -0.1283356 0.65250808
-0.05042249 -0.1226325 0.45592269
-0.01001659 0.05366135 0.59117162
-0.2255321 -0.24048381 0.80513608
-0.04588959 0.016694371 0.56316698
0.097157963 -0.020993831 0.6496892
-0.04210576 0.048333202 0.58381039
-0.24429999 -0.2404599 0.70744509
-0.2489202 -0.2399471 0.75290692
0.13463929 0.053059518 0.5131892
-0.031767581 -0.00098526478 0.65473151
-0.049562071 -0.078499593 0.52539772
-0.03821291 0.033868998 0.62228632
-0.031594869 0.052088741 0.56632698
0.1090815 0.062411901 0.43078879
0.0114516 0.062064558 0.43179139
-0.0367129 0.021790771 0.65930688
-0.05253512 -0.090140641 0.49589881
-0.057109091 -0.065980881 0.46362451
0.1300468 -0.24057829 0.75626618
0.1671799 0.059679449 0.60253739
-0.051765978 0.043136239 0.49437639
-0.038143989 0.0061463122 0.6556071
-0.050360259 -0.097989738 0.53502488
0.0596596 -0.074445806 0.64889443
0.1459066 -0.23923109 0.72111797
-0.024100419 0.02926263 0.65902132
0.1724018 -0.1486391 0.64504308
0.13791279 0.053107802 0.43654171
-0.0055028498 0.05220693 0.51725489
0.0051249862 0.052663799 0.56182188
0.1192859 0.052564379 0.4368307
0.032319691 0.0518502 0.46706581
0.03396168 0.03849474 0.51864171
0.06022644 0.054835379 0.42903289
-0.055811141 -0.1906179 0.51969022
-0.044357631 -0.066753753 0.61827528
-0.043294132 -0.2407385 0.61133462
-0.28502259 -0.2415999 0.74210793
0.075144112 0.057229161 0.61636382
0.069016613 0.060573582 0.57962811
0.1487205 0.054558221 0.62153852
0.080409653 -0.043428179 0.64466578
0.001120299 0.057162549 0.64191401
0.094448946 0.059759799 0.64227402
0.052542541 0.055825591 0.6355055
-0.038534328 -0.01707923 0.65135008
0.1385794 0.017708359 0.64231771
0.1179184 -0.1781186 0.65312082
0.058615509 -0.1369988 0.6580404
-0.039202359 -0.1665888 0.64394838
0.072252929 -0.15856311 0.65347028
-0.0297035 -0.095980287 0.65852642
-0.03232849 -0.18282381 0.64668339
-0.02637196 -0.1657294 0.65661418
0.1734319 -0.18423291 0.64658958
0.13328969 -0.1784157 0.65545613
0.02692345 -0.1209062 0.65654278
-0.21746551 -0.2399545 0.63746351
-0.01435921 -0.035987381 0.65644252
-0.041143268 0.039776001 0.58235478
-0.2042658 -0.2412754 0.81360418
0.03034809 0.0053239758 0.64790553
-0.039306369 0.018362431 0.58271003
-0.032028679 -0.03339925 0.65484601
-0.2218601 -0.23887961 0.80879068
0.064653337 -0.23554289 0.86969548
0.1314178 0.051864829 0.64628857
-0.22285341 -0.238021 0.83054841
-0.0070755482 0.052037921 0.61156982
-0.14035399 -0.24163289 0.86907101
0.25432029 -0.2417158 0.765643
0.089961112 -0.24211089 0.85258311
0.022773471 -0.06540972 0.65980083
-0.02223411 -0.031911131 0.65682173
0.1137209 -0.03694135 0.64236999
0.113022 0.06178084 0.42059419
0.073586881 0.02401394 0.64610559
0.14057089 -0.1109191 0.65028208
-0.1112879 -0.2414176 0.88621682
0.089259088 -0.045587 0.65476787
-0.05113535 0.048747811 0.45180279
0.002209157 0.022051301 0.66312122
0.1859996 0.00047174099 0.6440357
-0.05467999 -0.1068338 0.51111811
0.1497536 -0.15723599 0.64597058
0.1675304 -0.04387245 0.64730889
0.1029703 -0.23927329 0.859586
-0.05285934 0.01697984 0.4524852
-0.0070518851 -0.2358644 0.6640476
0.16769271 0.053092301 0.54464662
0.17438599 0.053672239 0.55037409
0.1554507 0.058532 0.55409759
0.18069389 -0.072688997 0.62963349
-0.024964871 0.05505443 0.5006355
0.1374194 0.055501249 0.56548131
0.1286643 0.05736858 0.4556624
0.13548701 0.05444926 0.54475957
0.1875041 0.0495218 0.61264229
0.1763882 -0.2338969 0.45264781
0.17902569 -0.1871084 0.49970219
0.17664979 0.050626252 0.4969207
0.1830918 -0.2291843 0.57893682
0.1799421 -0.1898904 0.52663761
0.036343101 0.049359381 0.47344291
0.1799679 0.052838739 0.52331352
0.04356527 0.058054298 0.52593708
0.1816619 0.050600711 0.54858452
-0.0099108219 0.054101501 0.57535821
0.18415651 -0.1139852 0.62847823
0.1826683 -0.02974898 0.58705211
0.1824366 -0.2252719 0.53038281
0.1770066 -0.041695479 0.52874392
0.1749182 -0.023549199 0.48081231
0.1852517 -0.075922973 0.55250829
0.1886709 -0.13530581 0.59162331
0.1162955 0.05773687 0.6277172
0.08098197 0.048076179 0.43210161
0.1744754 0.052539442 0.50118852
0.1888019 0.055441469 0.61056352
0.1841169 -0.1132913 0.63298899
0.18958689 -0.22061519 0.60346937
0.1835918 -0.1059662 0.58444178
0.1845147 -0.142161 0.58113849
0.1826188 0.037448671 0.59413582
0.1765721 -0.05917713 0.53390342
0.1090928 0.054826289 0.44536421
0.067606866 0.05421409 0.4615463
0.1347169 0.055945311 0.439347
0.1220812 0.058993161 0.59538609
0.192093 -0.23297191 0.60463607
0.183948 -0.028559569 0.58286858
0.1866419 -0.1775849 0.58017099
0.1727919 -0.092254907 0.48204499
0.18026941 -0.1902153 0.53061152
0.186178 -0.093563817 0.53416407
0.1559554 -0.18444671 0.41097
0.1752189 -0.00360325 0.52668607
0.1519684 0.053205218 0.62724602
0.076461554 0.058913019 0.50629252
0.099210143 0.052817401 0.4715434
0.1829803 0.030805741 0.60019511
0.1741019 -0.04158118 0.51768821
0.02774073 0.05449852 0.4372144
0.1077644 0.055408109 0.42866081
0.1810113 0.049514651 0.58220851
0.1783658 -0.2277438 0.50235218
0.17372879 -0.054946631 0.53463072
0.1740025 -0.1567681 0.44913709
0.1866757 -0.0119552 0.59750593
0.1647936 -0.099959821 0.4184857
0.1755276 0.044233799 0.54949582
0.1668485 0.01350406 0.4600282
0.1809134 0.05033287 0.59829253
0.1680419 0.01469126 0.4370923
-0.039681911 0.0553523 0.44885379
0.1611799 -0.1123997 0.4114328
0.1680664 -0.1303028 0.4119626
0.1679302 -0.04424813 0.43244141
0.1721554 -0.01820603 0.489158
0.1833223 0.002031595 0.58703041
0.1736851 -0.2273524 0.44403759
0.1748739 -0.006009161 0.52492821
0.1736903 -0.2307139 0.47194669
0.17447551 -0.047391739 0.45879069
0.1693515 -0.1132075 0.43065599
0.17655671 -0.1210785 0.46838489
0.1782515 -0.1830015 0.48698699
0.05321246 0.053486619 0.58342391
0.1075928 0.0565967 0.60109621
0.1484447 0.05402663 0.4695445
0.1852631 -0.2023436 0.59194332
0.1854772 -0.01102653 0.6194185
0.1841578 0.040086482 0.57552212
0.1686506 0.044282939 0.45334849
0.174274 0.00354898 0.50611222
0.1702124 -0.002609313 0.43735191
0.1716281 -0.0230971 0.45546001
0.16468661 -0.00054126978 0.4106594
0.1755103 0.046906441 0.52409297
0.18825001 -0.1387545 0.58138698
0.1823108 -0.1073726 0.54674262
0.1599738 -0.031640079 0.4136802
0.1542992 -0.19066431 0.41326249
0.16133881 -0.085987419 0.4142299
0.16141079 -0.034566339 0.41029099
0.1736805 -0.19744051 0.4730294
0.1657071 0.058707122 0.59993339
0.1918295 -0.04553315 0.59421527
0.17057391 0.032954842 0.49936309
0.1719047 -0.2432653 0.4632476
0.1700861 -0.01233527 0.45587701
0.17328779 0.049227599 0.5128448
0.1728427 0.053142581 0.47009531
0.16788539 0.04962799 0.44718269
0.1740886 0.040940169 0.50585872
0.17295159 -0.01645747 0.48999861
0.16902339 -0.01958308 0.43299291
-0.0097920895 0.057539701 0.62661499
0.043745819 0.05513319 0.58280402
0.1775891 0.056949381 0.61590528
0.1871924 0.025655899 0.62930059
0.1816434 0.0096662939 0.57880843
0.120883 0.05328387 0.53078192
0.17203251 0.0122574 0.46134171
0.17383771 -0.02146608 0.45947549
0.1726508 -0.063488133 0.4429805
0.1742937 -0.095300227 0.4623574
0.1694769 0.02029955 0.44956231
0.1836015 -0.13829011 0.54862022
0.18683019 -0.13350689 0.54877472
0.1034739 0.061545391 0.61480337
0.09629637 0.056567069 0.59051567
0.1488158 0.057088882 0.61739761
0.003061235 0.05343774 0.59750032
0.166465 0.05776462 0.57895362
0.1462502 0.057908889 0.57209152
-0.018512189 0.05368945 0.58635449
0.1184528 0.056507021 0.62832481
0.1095223 0.057644639 0.59267431
0.037996411 0.053921942 0.55554259
0.086025767 0.058433179 0.5838213
0.1806812 0.052572548 0.58450699
0.1841286 -0.14929301 0.6306594
0.18271589 -0.1496098 0.62890369
0.18679421 -0.1780106 0.63065618
0.1827807 0.025800411 0.58406872
0.189905 0.003531426 0.63329792
0.18598931 0.01031569 0.61345738
0.1844088 -0.22184519 0.57232177
0.1866698 -0.1381731 0.59365112
0.1831466 0.0031039419 0.5850206
0.1859373 -0.0090531111 0.61157179
0.1839439 -0.086320102 0.5848788
0.18707199 -0.088243693 0.61751407
0.1841266 0.029309239 0.6068927
0.1818343 0.028228519 0.57787651
0.1855934 -0.093957573 0.59147853
0.185017 -0.096561283 0.59615582
0.0551815 0.055953618 0.43645999
0.056332171 0.054512888 0.52449602
-0.025570091 0.054709051 0.48691931
0.1065255 0.053617328 0.45277619
0.01058072 0.055144642 0.52472281
0.067124188 0.055733349 0.49602321
0.099017143 0.056005061 0.49749789
0.085967898 0.054098278 0.50922251
0.1339733 0.056887452 0.4820863
0.127243 0.05375734 0.55509782
0.004341722 0.051680651 0.50479329
0.1298393 0.057985932 0.4747518
0.1609426 0.054491609 0.48777401
0.1202116 0.052189741 0.55602771
0.17446651 0.023557721 0.49518761
0.17682371 -0.051458001 0.48981941
0.1758244 -0.17370629 0.47418261
0.16932219 -0.1062821 0.42317641
0.18172321 -0.034442808 0.50800538
0.1844034 -0.1351307 0.59481949
0.159567 0.053289831 0.53365159
0.08235386 0.056950212 0.53636551
0.1673618 -0.016960651 0.4384492
0.1139677 0.05471912 0.53740418
0.091155447 0.05479059 0.4883455
0.026336569 0.053994451 0.45005611
0.18783361 0.0050363238 0.62009507
0.081715293 0.05329144 0.49003759
0.0027887819 0.054932859 0.45325109
0.08764258 0.058605429 0.47222349
0.1879489 -0.0031939149 0.62842578
0.1156245 0.056019161 0.54936618
0.18212131 -0.1530644 0.54922062
0.1721306 -0.046612918 0.45588771
0.1702186 -0.04906562 0.43372169
0.17842279 -0.062603213 0.50081712
0.1827534 -0.1621913 0.55560511
0.17397711 -0.096748382 0.50402093
0.1103066 0.0553031 0.46820849
0.1826786 -0.079125792 0.53023869
0.1744698 -0.072315961 0.48248339
0.1737151 -0.05772239 0.5012154
0.1755373 -0.01054308 0.52621901
0.1783441 -0.0211027 0.52331448
0.1750391 -0.1039177 0.45468649
0.1757223 -0.02650696 0.50917453
0.17378139 -0.1238448 0.4811084
0.17214639 -0.02460107 0.4680858
0.1695035 -0.087200128 0.43244511
0.17496391 -0.13110819 0.45174369
0.088423193 0.058749821 0.62992269
0.1858276 -0.01949486 0.63157272
0.1838973 -0.078628033 0.63229942
0.18813419 -0.045217369 0.62817729
0.067727923 0.052661929 0.52011633
0.15604261 0.056756791 0.58488792
0.082666337 0.055623051 0.57004088
0.1585999 0.04814592 0.62666899
0.0046570301 0.053105209 0.53580612
0.1920054 -0.09123379 0.63449973
-0.004315495 0.05308887 0.51255119
0.1598406 0.05158392 0.46382999
0.1169495 0.05463567 0.52287561
0.1797118 -0.077194542 0.53075182
0.1764667 -0.074552208 0.51562059
0.16090959 -0.084256172 0.41879809
0.06965822 0.056031141 0.4475981
0.1753739 -0.17093199 0.45907381
0.1721756 -0.01473108 0.47102931
0.1770242 -0.046296421 0.51815158
0.070734203 0.05392215 0.42982349
0.1845773 0.03757057 0.60628378
0.1732863 0.02295002 0.46577781
0.1771597 -0.1120552 0.4601531
0.17391279 0.035600569 0.49241641
0.1699153 -0.02824318 0.4388873
0.17000259 -0.023167759 0.4438906
0.1636285 -0.1648228 0.41855079
0.17033841 0.0075169499 0.45306531
-0.005448103 0.054637641 0.54669547
0.1511897 0.055960089 0.5273031
0.1206767 0.055212531 0.52971399
0.1031812 0.05424368 0.48821661
0.1372005 0.05726758 0.50311148
0.082066 0.056073781 0.463866
0.1199313 0.056208249 0.44973391
-0.0107854 0.05471462 0.45095921
0.09541136 0.057896409 0.446246
0.02374975 0.05669472 0.42936921
0.1602205 0.047570381 0.41123959
0.16801 0.034758151 0.4142893
0.1716674 0.01668727 0.4376618
0.17221721 -0.19376519 0.45399681
0.1442409 0.058396071 0.59152412
0.17512269 0.058665071 0.5064683
0.17040659 0.050442461 0.4571107
0.1759299 -0.1263084 0.45888129
0.1754189 0.02368051 0.4906089
0.16982371 -0.24131811 0.41960511
0.1704275 -0.1422029 0.42638469
0.172093 0.01923719 0.44298309
0.17282601 -0.0087795258 0.4397313
0.1858076 0.021760911 0.60613072
0.1700251 0.044181261 0.43995199
0.1482843 0.057165738 0.49389189
0.02836436 0.05526334 0.51392031
0.18701661 0.017310919 0.61315721
0.1631072 -0.2127175 0.63631493
0.1906534 -0.071904272 0.61026692
0.1920049 -0.09575215 0.63368028
0.1890706 -0.1749265 0.60647231
0.056448821 0.054317951 0.4357498
0.02931267 0.05796269 0.4635832
0.045625571 0.055207219 0.46322969
-0.00062978268 0.052399721 0.46766889
0.002042949 0.05298629 0.4788444
0.1278702 0.057827499 0.42327589
0.05790389 0.055287089 0.42198199
0.16551159 0.055686738 0.4724344
0.1707167 0.04620776 0.4297263
0.1749036 -0.1493582 0.44984639
0.16415539 0.05635554 0.5144918
0.073293813 0.063563138 0.58671862
0.170825 0.052233249 0.5667631
0.17924421 -0.074605137 0.49314091
0.094748743 0.056454781 0.43601999
0.1835331 -0.034134269 0.54893368
0.17025471 0.045978069 0.4297432
0.1027928 0.055267662 0.56306553
0.1729995 -0.1943704 0.49799919
0.1751785 -0.003225744 0.50534898
0.1672436 0.052090671 0.57669699
0.18024211 -0.2085809 0.51404911
0.1716938 -0.1918422 0.43563509
0.1770137 -0.1058463 0.52133352
0.18995249 0.02592233 0.6351856
0.190421 0.028282641 0.63769001
-0.0048983102 0.050985161 0.43073019
0.18856411 0.053914431 0.62678647
0.077216603 0.048337009 0.41852549
0.01485666 -0.17669331 0.4181397
0.0030189939 -0.210618 0.41920599
-0.037447799 -0.13342071 0.42623591
0.1045013 0.01782864 0.4139038
0.1388903 -0.04587375 0.4101038
0.076859117 0.0095316172 0.4164629
0.1026388 -0.0258669 0.41257969
0.04347685 -0.001323387 0.4228268
0.008180242 -0.038786661 0.42329669
0.055304501 -0.022842931 0.41760951
0.1221605 -0.01337695 0.41266531
0.032773979 -0.046662658 0.42184359
0.1163047 -0.01573373 0.41358781
0.01256896 -0.14558341 0.41944841
0.053979259 -0.039828669 0.41170871
0.0083889766 -0.2074196 0.41448241
0.1214473 -0.19033509 0.40938279
-0.02233573 -0.1827181 0.41625461
0.0061116372 0.05501141 0.43124351
0.01117505 -0.044376761 0.4260056
0.096447289 -0.079197057 0.41650209
0.09643086 -0.1665467 0.40714419
0.077719241 -0.1575124 0.41478539
0.045132332 0.0004122704 0.42394629
0.037315179 -0.233412 0.40923291
0.14599849 -0.2075042 0.40774539
0.055978421 0.055285811 0.52096438
0.0039569102 0.056472179 0.44116971
-0.01540348 0.05264977 0.44597539
-0.044078801 -0.1344744 0.4310365
0.14765 -0.052332789 0.41210681
0.1465966 -0.0077094142 0.41208169
0.048111521 -0.1917015 0.41040891
0.05090978 -0.22739419 0.4104813
0.066210113 -0.08931233 0.4171457
0.14695489 -0.08156088 0.4103131
0.06190059 -0.1816546 0.41714749
0.01478927 0.041756351 0.42420611
0.05737409 -0.1122691 0.4177916
-0.01408025 -0.1080505 0.41963339
0.092648551 -0.1809646 0.4087258
0.002015423 0.050322171 0.42495111
0.077897564 0.050138399 0.42073989
0.04586032 -0.1403138 0.41664079
-0.05291339 -0.088084243 0.434053
-0.027926469 -0.036245689 0.42725909
0.020419709 0.026458111 0.42143819
0.02365599 0.019646959 0.42442131
0.028984619 -0.15370519 0.41813391
0.068543911 0.056040149 0.47886321
-0.037249722 -0.2324301 0.42720601
0.131466 -0.1425804 0.41048369
0.1015639 -0.2235149 0.4075501
0.090343393 -0.1884601 0.40487379
0.1395874 -0.2197824 0.40652001
0.1030748 0.0099895149 0.41346151
0.024560859 -0.085821882 0.4200812
-0.01001785 -0.18677969 0.4201943
0.1186671 -0.049315039 0.4108074
0.1169926 0.049030449 0.4157134
-0.0535223 -0.02709331 0.43429929
0.1232239 -0.12854689 0.41183269
0.030612679 0.050357129 0.42385221
-0.051610921 -0.17031001 0.42679599
-0.03451658 -0.1470435 0.42170399
0.041889369 0.059412628 0.58458823
0.1110034 -0.1640586 0.41105929
0.1671467 -0.20955691 0.4085544
0.1554582 -0.093968257 0.41054761
0.13006561 -0.1076062 0.41063869
0.086943693 -0.12711179 0.4160935
0.06702058 -0.0045353621 0.41892239
-0.00476284 -0.01907983 0.42310351
0.036182649 0.05200557 0.55519187
0.091377318 -0.1619 0.410642
0.002024669 -0.1714583 0.4201757
-0.043259189 0.007059962 0.4280965
0.1037912 -0.099155322 0.4104211
-0.023878049 -0.1935554 0.41806659
-0.0081682606 -0.14679851 0.41759041
0.02295306 -0.12674619 0.42185801
-0.029480981 -0.1583373 0.4219586
0.1549287 -0.048980732 0.4083268
-0.041918971 -0.20034529 0.42637819
0.14760201 0.054867279 0.49712321
0.16198149 -0.1723547 0.41177469
0.074041814 -0.18709821 0.41284201
0.1265689 -0.2229014 0.4024103
0.1205815 -0.1524545 0.4124437
-0.032446232 -0.116607 0.4327282
0.1148922 0.04453763 0.41388869
0.04234729 0.01487972 0.42388451
0.029623689 -0.1731095 0.4153522
0.062011421 0.048379619 0.41240689
0.1559073 -0.1069979 0.41097179
0.0040219091 -0.088907257 0.4214749
0.1553809 -0.2022416 0.41225979
6.4294793e-05 0.01391932 0.42353019
0.0033532721 0.032960221 0.42722049
0.044138402 -0.1886716 0.4186675
0.083485194 -0.1953342 0.412824
-0.031226421 0.0059895958 0.42756629
-0.023001339 -0.05524021 0.42812589
-0.007135917 -0.08282207 0.4264423
0.0097390898 -0.028663401 0.42416221
0.1622605 -0.063025311 0.40896359
0.09948431 -0.029601021 0.4084895
0.1664516 -0.1065015 0.41293761
0.1427685 -0.0053106989 0.41166919
0.1353875 -0.19028521 0.40521169
0.1305965 -0.1203868 0.41200829
0.033190489 0.05434313 0.466636
-0.03527328 -0.17291451 0.42606631
0.01080676 -0.118839 0.4220334
0.067133717 -0.18225341 0.4128449
0.14731389 -0.1143851 0.41058901
0.034128848 -0.2399604 0.4111335
0.064440504 -0.2284307 0.40949291
-0.028113529 -0.0068941861 0.425926
0.1455255 0.051162139 0.41420639
-0.016649939 -0.088872537 0.42361259
-0.05021799 -0.061360508 0.43142319
0.1488584 -0.1050707 0.41311011
-0.009159904 -0.2181074 0.4144907
0.019945931 -0.1747413 0.42255539
0.075873047 -0.1568424 0.41515169
-0.0014096909 -0.1422393 0.4234736
0.1153851 0.021871099 0.41869649
0.1639699 -0.2383685 0.42031419
0.0297374 -0.2145578 0.41507021
0.1214655 -0.1784012 0.41192421
-0.04850933 -0.150112 0.42928919
0.1078512 0.029195171 0.4167949
0.1059623 -0.1640148 0.4101406
0.1226285 -0.16226719 0.4100143
-0.051257089 -0.1068068 0.4319239
0.016610671 -0.14970089 0.42149511
0.057242312 -0.052334961 0.4197771
0.1387163 -0.1103929 0.40790781
0.03976091 -0.215762 0.41831639
0.0050925501 -0.1936041 0.41396779
0.05389959 -0.1847689 0.41325229
0.02154129 -0.1866076 0.4198736
-0.028558031 -0.03366901 0.42877951
0.065038711 -0.15280239 0.4149853
0.1460491 0.038808972 0.41231301
0.1043763 -0.1173393 0.4142088
0.1137142 0.05419739 0.47933379
0.1466525 -0.065156192 0.40860721
0.1419038 -0.195612 0.41062269
0.04877666 -0.2252897 0.4195376
0.034002751 -0.045517161 0.4251115
0.042599998 -0.1448231 0.41480759
0.02430526 -0.1963089 0.42329809
0.093102656 -0.1973846 0.41024441
0.060741469 -0.1821579 0.4192653
0.1054362 -0.1299874 0.4150919
-0.001939874 0.023982611 0.4227601
0.1436456 -0.2243726 0.40241101
0.14217301 -0.2156453 0.4064104
0.059121639 -0.1511769 0.4161979
-0.01156759 -0.1571247 0.4170014
0.096701652 -0.1252588 0.41575879
0.078006551 -0.1145782 0.41706499
-0.04607144 -0.16514079 0.42838511
0.02860523 0.052741621 0.4971672
0.02573319 -0.063542619 0.42232949
0.068782642 -0.2368229 0.41634479
-0.047456969 -0.2105117 0.4200004
0.1023903 0.0078806728 0.4180128
0.1451246 0.05407444 0.59649497
0.1511061 -0.06020233 0.41017261
0.02752343 -0.076613873 0.4265568
0.1181456 -0.1404056 0.41502881
-0.019371189 -0.17598461 0.42831749
0.1246722 0.056682959 0.61427897
0.1469146 -0.1931054 0.4114415
0.1675771 -0.237745 0.41868711
-0.021744469 -0.14386851 0.4239015
0.1477723 -0.044807062 0.41191259
0.02256066 0.051259462 0.62862271
0.1086132 0.058649048 0.60297233
0.13182759 -0.06232743 0.416724
-0.024615601 0.048624009 0.4209989
0.086317614 -0.095551088 0.4159281
0.0034210719 -0.2414436 0.41831291
-0.052790061 -0.1703032 0.42777431
0.031510849 0.031361829 0.42610419
-0.053083319 -0.1558128 0.42520449
6.6820532e-05 -0.037044141 0.42810041
-0.03196612 -0.001857892 0.42693761
-0.04021718 -0.025910631 0.43076649
0.01228964 -0.01144795 0.42712879
-0.021260969 0.031602439 0.42895901
0.1301275 -0.16447569 0.41804841
0.13573331 -0.1157227 0.41515991
0.093745828 -0.13722759 0.41893181
0.122665 -0.083419487 0.42136499
0.090064779 0.056919441 0.6061368
0.17064621 -0.075695246 0.40931249
0.080633432 0.052515671 0.55115771
0.1513294 -0.1559445 0.41007349
0.1237478 -0.0087706 0.41786879
0.090106353 0.020113099 0.42379719
0.032656819 0.051415648 0.60975587
0.159914 0.054187309 0.58031428
0.15548991 -0.035286412 0.41623089
0.1159243 0.01892237 0.42114481
0.15904 0.023606081 0.40869239
0.64003038 -0.2248833 1.437019
0.052917901 0.05138563 0.41824239
-0.024745479 -0.12571651 0.42230991
-0.0065564029 0.053383879 0.441021
-0.023967059 0.051815271 0.4229829
0.077764742 0.057202131 0.56703442
0.052916031 0.056617171 0.61372161
0.016999129 0.05575737 0.51876009
0.058244258 0.05986705 0.46311811
-0.030944001 0.0534206 0.44084829
-0.0080865854 0.05166978 0.54806578
0.1346474 0.05802634 0.5423578
0.065373152 0.055723101 0.4349477
0.049460549 0.05461973 0.57181787
0.035516869 0.056068718 0.52680123
0.031759001 0.055448528 0.46443281
0.025168469 0.054252889 0.43497169
0.04249486 0.05380011 0.541089
0.070046283 0.057852659 0.61057448
0.014392 0.05360949 0.58538008
0.03170383 0.056084961 0.48227879
0.026744811 0.05258818 0.4373883
-0.02685247 0.052692149 0.55985492
0.1011435 0.05342266 0.58795512
0.0040932149 0.05487809 0.43233189
0.022885559 0.054932982 0.62706238
0.03536918 0.05033144 0.55481029
0.047235928 0.05848223 0.58666313
0.02866569 0.049941242 0.4258225
-0.02086759 0.052697871 0.52817547
0.1558167 0.055594921 0.5641619
0.048160732 0.055124938 0.63409787
0.1202179 0.05963489 0.567586
-0.034213081 0.053493772 0.48209611
0.017501419 0.049399231 0.6240468
0.1121899 0.057618018 0.46755299
0.092339747 0.052783821 0.61009711
-0.031717818 0.045839131 0.51796973
0.076333947 0.052164879 0.42008311
-0.022266001 0.0428566 0.44073781
0.00086119771 0.049722999 0.42499101
0.054449771 0.053400729 0.44167319
0.058372121 0.051500261 0.51019979
0.0343582 0.057705879 0.45790419
0.02201033 0.01860738 0.42377201
0.077946737 0.059149001 0.52965009
0.069146827 0.05259582 0.48577219
0.02952395 0.040529341 0.4201397
-0.01558022 0.037926521 0.50603908
-0.00082042807 0.04694346 0.4755944
0.01159053 0.04954711 0.50600529
-0.0064072311 0.049569931 0.49860531
0.056966111 0.06429556 0.46993989
0.096028052 0.053857449 0.58451581
0.01037277 0.046103179 0.42243779
0.1088705 0.055585459 0.42766309
0.064764522 0.0513823 0.50175267
0.070543043 0.056278531 0.46331519
0.01614779 0.04874533 0.4527348
-0.045983929 0.047787961 0.4561556
0.1026532 0.052883271 0.41873801
0.1029807 0.01162967 0.41453731
0.105314 0.01972723 0.41680291
0.1034952 0.056557272 0.48507529
0.028837411 0.048016731 0.42169839
0.043218259 0.01368809 0.4244557
0.074682593 0.049155518 0.42031491
-0.0001297593 -0.02961549 0.42350891
-0.036878228 -0.1349476 0.42873499
0.1219471 -0.01416886 0.41717789
0.1131678 0.048796471 0.41562179
-0.021537131 -0.1670018 0.42056891
-0.0047891741 0.024814431 0.4219543
0.003885865 0.04687326 0.42640129
0.01595461 0.039881378 0.42471781
-0.03573155 -0.1735176 0.42852679
0.076085448 0.050751999 0.41891351
0.00055199862 0.026917979 0.42152429
-0.01534569 -0.058104038 0.42191869
-0.031977121 -0.229781 0.42402551
0.05702645 -0.1143309 0.42283511
0.1019732 0.055168241 0.41632569
0.110718 -0.1626348 0.41135961
0.029748259 0.016918881 0.42762449
0.018633541 -0.1516284 0.42599249
0.01085597 -0.147687 0.42104909
0.02146375 0.023097539 0.42438179
0.018929061 -0.1743183 0.42412609
0.0089818239 -0.049568061 0.42619601
0.0054337978 -0.040474329 0.42818469
0.12927251 -0.06105864 0.4132553
0.096069098 -0.037098151 0.41325319
0.14676251 -0.0062949359 0.4098964
0.042727649 -0.001105696 0.42260629
0.1148915 -0.01158929 0.41558349
0.076636434 0.006401598 0.41621661
0.053487059 -0.02702144 0.4193638
0.03469431 -0.04565895 0.42194211
0.027068021 -0.1509525 0.41729689
0.065801077 -0.088488519 0.419945
0.09802556 -0.077700756 0.41462699
0.1409685 -0.1919423 0.40842751
0.1085583 0.030823831 0.41255271
0.1453397 -0.2065105 0.40772411
0.1247138 -0.1656338 0.41141689
0.105243 -0.026834579 0.41130579
0.1191623 -0.050497379 0.40937439
0.1313232 -0.1438335 0.4114337
0.15763891 -0.02901742 0.4093855
0.1144749 0.02318613 0.41395259
0.1148766 0.05046976 0.4162347
0.04466331 0.053055301 0.4281674
0.17269421 0.0541219 0.54577309
0.062667973 -0.021242451 0.42247641
0.1308241 -0.1688114 0.41022089
0.13041811 -0.041342478 0.4129869
-0.048523899 0.030421481 0.42983061
-0.042688608 -0.2317206 0.4271926
0.1028922 0.022160411 0.41323829
-0.0003096461 0.01382509 0.42429441
-0.01085645 0.055298001 0.43784919
0.1106974 0.05341113 0.50087351
0.023613149 -0.083968997 0.4204286
0.049654812 -0.032468501 0.42172411
0.1130406 -0.1878902 0.41317329
-0.02613008 -0.1366396 0.42346039
0.1185961 0.0028185991 0.41006029
0.14470559 0.046315659 0.41494629
0.064068533 0.055649009 0.51760668
0.13403609 0.05483599 0.45175949
0.16536669 -0.1056602 0.4139204
-0.04444271 -0.13029391 0.42967179
-0.002083302 -0.1419424 0.42163941
0.073118478 0.04282796 0.42136511
0.1470606 -0.078069814 0.40712321
0.1516939 -0.068414152 0.40695801
0.16513 -0.20858499 0.40908489
0.01731688 -0.2126416 0.4178395
-0.01557648 -0.1120921 0.42266661
0.1427591 0.049973492 0.41606969
-0.02145493 0.050754379 0.4249073
0.1622345 -0.0001051426 0.41383451
-0.03846037 -0.080897242 0.43276361
-0.04329836 -0.23457269 0.41471881
0.13690659 0.05427669 0.4371365
0.01063162 0.043355059 0.42630211
0.1190024 -0.078690588 0.40894699
0.055877268 -0.049522039 0.4158127
0.1822509 -0.1055046 0.58477288
0.1767472 0.051670399 0.50139129
0.160188 0.03399254 0.40785411
0.1041559 0.061360199 0.48469591
0.1392297 0.054591849 0.42929319
0.14871921 0.05326581 0.50028992
0.181927 0.05072489 0.58251017
0.099076122 -0.17009149 0.41047099
0.073002309 -0.19084971 0.41694489
0.077704847 -0.1573654 0.41385809
0.043927372 -0.1983154 0.41026589
0.1011508 -0.16843 0.4200725
0.1829489 -0.1354003 0.54941273
0.05070072 -0.1939142 0.4122861
-0.05234677 -0.15576041 0.42550761
0.16540159 -0.1701986 0.40850201
0.065550677 -0.23210751 0.41227329
0.061390821 -0.1838688 0.41684279
0.1008618 0.025274711 0.41080001
0.051741511 -0.223635 0.41039571
0.1625534 -0.019804969 0.41414359
0.050687309 0.04834931 0.42257339
0.02025458 -0.052712262 0.42272571
0.1788993 -0.186873 0.5019272
0.1001458 0.055841882 0.49561989
0.1624743 0.05679683 0.4991188
0.030103421 0.050912801 0.43254861
0.06330657 0.048744079 0.41990271
0.1610042 -0.06185111 0.40947971
0.1483493 -0.063768767 0.40461451
-0.029905381 0.057226241 0.4594233
0.081161767 -0.058777388 0.41721499
0.17138021 0.0062491298 0.4640379
0.17861331 0.051611871 0.52634221
0.1674711 -0.105446 0.42397231
0.1840339 -0.14191981 0.58266997
0.1866751 -0.1446106 0.63045901
0.18146139 -0.068818867 0.49641609
0.1856613 0.039919108 0.57347113
0.1773507 -0.1071582 0.42832229
0.1489792 0.041581471 0.4055219
0.1747358 -0.064733341 0.50170612
0.077294111 -0.1136391 0.4173862
0.18728741 0.002845943 0.57850611
0.18002801 -0.095943078 0.53516722
0.1153675 0.054836389 0.53471333
0.1317893 0.054159999 0.55591619
0.17306919 0.058043849 0.51731688
0.005297929 0.049922209 0.53468591
0.1250035 0.0530615 0.47181031
0.1059165 0.01257822 0.41004539
0.1814079 -0.042059962 0.52222133
-0.050585691 0.0452957 0.43191069
-0.042268809 -0.20008869 0.42548901
-0.050780479 -0.1716157 0.4244273
0.1565782 0.026012899 0.40389121
0.1727777 -0.0040603732 0.50755358
0.1892617 -0.1753035 0.62257618
0.1922307 -0.2161565 0.60219443
0.1844319 0.033433288 0.55571228
0.17394461 -0.05074149 0.45965141
0.1851124 -0.075325787 0.52662808
0.1774265 -0.01462671 0.4889051
0.1155319 -0.025768431 0.41348591
0.1029845 -0.2214458 0.40743521
0.1734758 -0.060910881 0.4372327
0.1549793 -0.0045343642 0.4100824
0.1808245 -0.085934162 0.4777917
0.14323381 0.051275671 0.48010451
0.027962061 0.052392181 0.51843429
0.17781959 0.045916971 0.58958131
0.1733155 0.047018439 0.49865821
0.1877864 -0.1083247 0.62542188
0.1662195 0.02040079 0.45759749
-0.043572661 -0.01412058 0.4314732
0.0038554971 -0.21095569 0.4176788
0.0033882561 -0.090250909 0.42392349
-0.02255553 -0.187051 0.41952309
0.0008404851 -0.035224501 0.42307249
0.002963603 -0.23184159 0.4138194
-0.03043646 -0.16116621 0.42526549
0.1697306 -0.016959939 0.43640649
0.18428209 -0.094390333 0.57823813
0.01145142 -0.2402747 0.414437
-0.02255654 -0.2349167 0.41701129
0.1624476 -0.1425579 0.4051584
-0.00344348 -0.079058111 0.4240194
0.1875726 -0.1369978 0.57605702
0.0062857871 -0.1222501 0.41631889
0.078931808 0.01415218 0.41430721
0.1643977 -0.024020329 0.41970831
0.1840155 -0.02930209 0.58428788
0.1060254 -0.096681297 0.40785959
0.1243952 -0.021095101 0.4150219
0.1707992 -0.078980029 0.41785619
0.1573226 -0.089516878 0.40864211
0.079255968 0.03637528 0.41795859
0.1801541 0.04269506 0.50305068
0.12735569 -0.090364933 0.41626421
0.18017291 -0.16965251 0.47413611
0.050280929 -0.083467193 0.41841891
0.180455 -0.18427309 0.49057031
0.135978 -0.0030046699 0.4117943
0.1537538 -0.032470878 0.40924919
0.1746503 -0.020445701 0.45396009
0.1856935 -0.074574053 0.54923278
0.18536779 -0.076656759 0.52253479
0.1488094 -0.04888564 0.4049705
0.1040353 -0.22325771 0.40645069
0.082839943 -0.1297254 0.42039451
0.1813474 -0.054877941 0.53200901
0.1870165 -0.099209607 0.53263807
0.01060224 -0.1833712 0.42675689
0.1708515 -0.1441392 0.41244221
0.04091686 0.00076824432 0.41267189
0.1939152 -0.077670187 0.6281811
0.1670007 -0.1316777 0.41977301
0.1816958 -0.03477696 0.50622988
0.1071165 0.0584982 0.4265582
0.1214477 0.054226279 0.4195168
0.15640689 -0.060414109 0.41232559
0.185991 -0.1351341 0.54788882
-0.047794402 0.03386927 0.4385916
-0.038573802 0.050290499 0.48879939
-0.01977879 0.03350614 0.42363551
-0.046760619 0.0042268038 0.43096271
-0.05214059 -0.096152842 0.43432719
-0.02785027 -0.035396751 0.42747349
0.021453951 -0.070657402 0.4303596
-0.001263499 -0.21110331 0.4266108
0.1646277 0.059023801 0.50287062
0.097623996 -0.1249886 0.4136503
0.020920521 0.01453318 0.42621511
0.1701567 0.03382403 0.4159568
0.17096511 -0.19968189 0.4135668
-0.05802029 -0.16402671 0.42870411
0.019819589 -0.20166411 0.4227635
0.13591249 -0.15920641 0.40920109
0.1856436 0.02676931 0.57941818
0.174952 0.049393479 0.54938358
0.0159688 -0.1368338 0.42466959
0.1716875 -0.0027463441 0.43858561
0.18569639 -0.2209167 0.52957201
0.1299911 -0.15878031 0.41111901
0.01921669 -0.1247758 0.42438611
0.02812493 -0.2151292 0.41526711
0.1860337 -0.04261297 0.5561235
0.1796739 -0.2225803 0.47106951
0.17058641 0.01461561 0.43969709
0.1796862 -0.076329827 0.51527148
0.1699619 -0.079404503 0.43230751
0.1753611 -0.046426889 0.45287141
0.1862891 -0.19244771 0.52577299
0.1788934 -0.2306672 0.45170981
0.15523119 0.0033998489 0.41101879
0.1746453 -0.22617801 0.44463831
0.1843157 0.05135249 0.63772589
0.1427553 0.053081181 0.49564591
0.033294499 0.05167675 0.58084607
-0.038637999 0.051371679 0.52589011
0.1343929 0.050231081 0.49158439
0.065304957 0.055425581 0.41937771
0.112433 0.05607025 0.46842009
-0.01154155 0.056911111 0.48901501
0.1436599 -0.046065629 0.40476859
0.19035719 -0.069304049 0.62140858
0.1907049 -0.1038462 0.6161989
0.121774 0.028524971 0.4155049
0.17804959 0.0080254078 0.50162679
0.13800479 -0.1110538 0.4098779
0.1907775 0.0137265 0.60678577
-0.03655028 0.051186729 0.50180459
-0.0026937721 0.038636889 0.42197481
-0.063189574 0.01014853 0.4413467
-0.055370271 -0.0059516132 0.42701471
0.01403829 -0.1171093 0.41964191
-0.02609456 -0.1107514 0.42407119
-0.0069517489 -0.21625561 0.41297549
-0.01331872 -0.1706202 0.41834489
0.035356939 -0.067554504 0.41778821
0.0030342641 -0.1704849 0.41906011
0.1827216 -0.070698529 0.4911299
0.18012869 -0.03988808 0.52584702
0.1618748 -0.1398167 0.40271571
0.03633916 -0.2360017 0.41212869
0.01009703 -0.1406692 0.41328761
0.1848207 0.01148218 0.64479142
0.17387851 -0.021252571 0.45720649
0.069052428 -0.01956642 0.41946441
0.092222176 0.061300669 0.50650638
0.1833446 -0.00052604079 0.51841819
0.1789144 -0.1705194 0.4574579
0.1668711 -0.02084133 0.40606269
0.1783269 -0.22777919 0.50515902
0.16922709 -0.1459489 0.40497619
0.19117311 -0.090586074 0.58876842
0.1208922 -0.12978069 0.40825549
0.064630806 -0.2022907 0.41097671
0.135795 -0.1918418 0.4097856
0.049182151 -0.13714071 0.41268769
0.1286318 -0.121626 0.41339409
0.088827401 -0.13957819 0.41086021
0.1290538 -0.1092331 0.41264901
0.1764904 -0.089173079 0.42068759
0.13891619 -0.2229553 0.40717891
0.092203408 0.053734269 0.44988149
0.1848316 -0.044161782 0.55805331
0.1920284 -0.2150394 0.58308309
0.1815981 -0.240631 0.64044613
0.1840477 -0.1826368 0.50190061
0.1774309 -0.00064525008 0.48038399
0.179583 0.0060127382 0.51330823
0.1673419 0.054680929 0.49909481
0.23098309 -0.23730209 0.40619129
0.29057789 -0.24239559 0.74608672
0.1777969 -0.2062529 0.46519309
0.1272926 -0.044903729 0.64366478
0.1005846 0.057075892 0.57845908
0.050432801 0.05266726 0.64540589
0.095929287 -0.0045115799 0.64448571
0.1601474 -0.01389784 0.64227068
0.023289001 -0.068174422 0.65325779
0.07205455 0.053525839 0.64641351
0.0081666112 0.0294079 0.67360407
0.1821008 0.057264801 0.59970069
0.027940091 0.053249449 0.56100291
0.1765085 0.059777189 0.56097102
0.18382829 0.008604005 0.64158291
-0.0070617651 -0.095754057 0.65450102
0.1439362 0.027992699 0.64268279
-0.020125691 -0.01840267 0.65491718
-0.01159401 -0.073537953 0.65478301
-0.028292149 0.055645701 0.45030129
0.14954939 -0.037368391 0.64339328
-0.01448277 0.05329546 0.45731369
0.1210616 -0.1153503 0.64606148
0.063403979 -0.1523668 0.65200782
0.17165861 -0.072989397 0.63853008
0.181339 -0.096026503 0.64006889
0.094794452 -0.084498107 0.64212388
0.18677031 -0.05263016 0.63732678
0.02070028 -0.1238059 0.64401978
0.16827901 -0.090601213 0.63790059
-0.0058298111 -0.161898 0.65460747
0.1858799 -0.14424831 0.62822258
0.18524531 -0.069710843 0.62948859
0.1812288 -0.083187424 0.63665688
0.063753843 -0.14404421 0.66320139
0.1613615 -0.13078231 0.64354962
0.1871804 -0.1089825 0.6111744
0.0048745051 -0.24347541 0.66381079
0.1330933 -0.2227844 0.64089608
0.1632432 -0.2063497 0.64625072
0.191962 -0.022474149 0.59075677
0.1907939 -0.001065373 0.58772498
0.1204983 -0.2378917 0.64730197
0.040274739 0.01959236 0.64627039
-0.042088661 0.05389693 0.4755958
0.1861677 0.039629001 0.63615298
0.049931198 -0.1833322 0.65751779
0.030172169 -0.209618 0.66228509
0.040556919 0.001711443 0.64961529
0.02980572 0.05123416 0.48404339
0.18486489 -0.2119168 0.63863862
0.080923237 -0.074184828 0.64627057
0.092809692 -0.0021737369 0.64438951
0.021053219 -0.127514 0.65544099
0.1599264 0.042158742 0.64031148
0.045936551 0.040085971 0.65099913
-0.035302009 0.05213508 0.54369169
0.1172089 -0.17780501 0.64899892
0.059275191 -0.2124076 0.65399718
0.1241629 0.055736601 0.45742989
0.35216939 -0.24235711 0.73485428
0.05672368 -0.1207802 0.65599352
0.0789802 -0.1003041 0.64845192
0.18556841 0.031691659 0.64137608
0.022689451 0.056497291 0.46701461
0.09961395 -0.2307847 0.65025473
0.164074 -0.1313853 0.64319122
0.1801658 -0.2261515 0.63710839
0.1659562 0.055190369 0.51539999
0.1742975 -0.053237531 0.44738951
0.2130328 -0.2256202 0.62165481
0.1964346 -0.2431832 0.60749108
0.1842979 -0.156927 0.63274252
0.082259826 -0.079887509 0.65616578
0.47981131 -0.2432505 0.70688927
0.077970333 -0.0089446008 0.64741319
0.050869759 -0.00614877 0.6503107
-0.007088691 -0.1160911 0.65097731
0.1202139 0.057824571 0.61656392
0.1715527 -0.1217332 0.63902509
0.1637173 0.0098946691 0.64519268
0.01408035 -0.2182409 0.65797621
0.02888261 -0.098051101 0.65022087
0.1303702 0.047626842 0.55184352
0.1830958 0.05360743 0.57727981
0.1885124 0.0070854719 0.64049262
0.067605361 -0.1457424 0.64977533
0.1405818 0.054521769 0.63775438
-0.01121494 -0.070430011 0.65471768
0.1390368 0.01634687 0.64126968
0.13245431 0.02404717 0.64165568
0.1241925 -0.1845008 0.64668298
