# .PCD v0.7 - Point Cloud Data file format
VERSION 0.7
FIELDS x y z normal_x normal_y normal_z curvature
SIZE 4 4 4 4 4 4 4
TYPE F F F F F F F
COUNT 1 1 1 1 1 1 1
WIDTH 584
HEIGHT 1
VIEWPOINT 0 0 0 1 0 0 0
POINTS 584
DATA ascii
0.040605251 -0.2485529 0.48605159 -0.019522807 -0.99435675 -0.10427544 0.010739632
0.069146827 -0.2485529 0.48577219 -0.010543788 -0.99766988 -0.067406587 0.0043021962
0.08052066 -0.2485529 0.48932651 -0.00078117341 -0.99902695 -0.044096906 0.0018174924
0.091155447 -0.2485529 0.4883455 0.006847335 -0.998945 -0.045410715 0.0018387606
0.10361076 -0.2485529 0.48599592 0.054327179 -0.99718088 -0.051758233 0.0060931123
0.1114964 -0.2485529 0.48426619 0.079505831 -0.99500793 -0.06031603 0.0098906802
0.13381445 -0.2485529 0.48261791 0.21611625 -0.97551721 -0.040741418 0.043832444
0.14453387 -0.2477155 0.48083657 0.3101531 -0.94893974 -0.05760584 0.064455643
0.16199028 -0.24518926 0.48419321 0.5931797 -0.80300117 -0.057679716 0.089623347
0.17375834 -0.24265549 0.48581412 0.71459514 -0.69613683 -0.068900906 0.087977961
0.17965761 -0.24109268 0.48728773 0.79428279 -0.60433578 -0.062395319 0.085443072
-0.047531378 -0.24112582 0.49704581 -0.61166459 -0.79107356 0.0083064921 0.077043116
-0.045263387 -0.24210085 0.4933494 -0.5807879 -0.81399763 -0.0096570142 0.076053344
-0.033329308 -0.24534382 0.4934189 -0.44658151 -0.89471447 -0.0071477327 0.070586465
-0.026999062 -0.2469784 0.49322197 -0.38193381 -0.92416787 -0.0063545285 0.065895565
-0.015962483 -0.24816021 0.49792668 -0.2861011 -0.95807385 0.015515267 0.050705891
-0.0039790422 -0.2485529 0.4974916 -0.2087114 -0.97797132 0.0033963777 0.03607453
0.02860523 -0.2485529 0.4971672 -0.034435045 -0.99880898 -0.034567546 0.002066459
0.047165658 -0.2485529 0.49639121 -0.0099810129 -0.99942613 -0.032367893 0.00098024751
0.066325784 -0.2485529 0.49688175 -0.002597132 -0.99970144 -0.024293451 0.00053377158
0.076685041 -0.2485529 0.49050301 -0.0026880142 -0.99906695 -0.043105301 0.001839913
0.08567559 -0.2485529 0.49540809 0.005269703 -0.99978083 -0.020263305 0.00036984732
0.099017143 -0.2485529 0.49749789 0.024901988 -0.9995659 -0.015743859 0.00053569645
0.10113607 -0.2485529 0.49634862 0.04467253 -0.99883175 -0.018422525 0.0023327612
0.11112753 -0.2485529 0.49643019 0.071886621 -0.99709934 -0.025003975 0.005004867
0.1372093 -0.2485529 0.49404463 0.26721838 -0.96363449 -0.0016544005 0.053966071
0.14474112 -0.2485529 0.49593645 0.35374391 -0.93512791 0.020025976 0.067751184
0.15628298 -0.24685006 0.49466816 0.47418919 -0.88033903 0.012154164 0.085344709
0.16541338 -0.24587987 0.49837762 0.56550854 -0.82468224 -0.0099651376 0.087104574
0.17489861 -0.24408588 0.49568871 0.71424025 -0.69980264 -0.011713145 0.089097232
0.17951173 -0.24212757 0.49307233 0.76621675 -0.64201128 -0.027078722 0.089967333
-0.047114324 -0.23994948 0.50310767 -0.66233116 -0.7475521 0.049832989 0.076714672
-0.043468695 -0.24162242 0.5070501 -0.59097534 -0.80485958 0.054307222 0.079835638
-0.032831594 -0.24546455 0.50374955 -0.43168181 -0.90168601 0.02475993 0.069933437
-0.024681957 -0.24695744 0.50147915 -0.34966102 -0.93664187 0.020955224 0.058440581
-0.013327519 -0.24838422 0.50625879 -0.27281991 -0.96143621 0.034781147 0.048770398
0.004341722 -0.2485529 0.50479329 -0.15278611 -0.9882375 0.0065689082 0.026553899
0.01232604 -0.2485529 0.5076167 -0.10727343 -0.9942295 -0.00017308771 0.01265919
0.034035414 -0.2485529 0.50580764 -0.021793466 -0.99969786 -0.011366768 0.00066432985
0.04687741 -0.2485529 0.50252682 -0.0066697332 -0.99986368 -0.015106428 0.00029176168
0.064764522 -0.2485529 0.50175267 -0.0018636351 -0.99992305 -0.012266567 0.00020048527
0.074966133 -0.2485529 0.50704813 0.00053025084 -0.99998343 -0.005730933 9.217317e-05
0.083933666 -0.2485529 0.50718611 0.003435211 -0.99998111 -0.0051005105 8.9179564e-05
0.093744621 -0.2485529 0.50521243 0.0098501593 -0.999928 -0.0068513365 0.00017499882
0.11064155 -0.2485529 0.50533342 0.075215876 -0.99712491 -0.0091913454 0.0056625148
0.1375078 -0.2485529 0.5048672 0.28454274 -0.95863461 -0.0074240332 0.06191881
0.1474901 -0.24733302 0.50049138 0.38760275 -0.92177361 0.0098772738 0.077046186
0.1525403 -0.24797463 0.50500315 0.41517207 -0.90964705 -0.013206624 0.082218371
0.16427059 -0.24624422 0.50303459 0.5595001 -0.8287884 -0.0083304532 0.087225951
0.17425726 -0.2425434 0.50448102 0.70989943 -0.70318723 -0.039631102 0.092037529
0.1779287 -0.24089341 0.50363725 0.72200948 -0.69053149 -0.043227967 0.092745103
-0.046700686 -0.23961723 0.51460975 -0.67789453 -0.7332992 0.052262954 0.084152751
-0.044735629 -0.24069639 0.51502246 -0.59233361 -0.8032971 0.06208555 0.084116146
-0.032870561 -0.24506216 0.51593721 -0.46043971 -0.88613981 0.052455023 0.078368731
-0.023518767 -0.24678364 0.5194875 -0.38081729 -0.92412704 0.031101059 0.066178814
-0.01555753 -0.24829565 0.51652092 -0.29761663 -0.95420575 0.030262997 0.05337524
-0.0062363278 -0.24831714 0.51489908 -0.24805373 -0.96831167 0.029017152 0.046311758
0.0060594981 -0.2485529 0.51295412 -0.16010854 -0.98708767 0.0048211426 0.026691815
0.01693389 -0.2485529 0.51793134 -0.0941322 -0.99555957 -0.00033188224 0.010168268
0.025987264 -0.2485529 0.51668978 -0.059659597 -0.99821609 0.0023351389 0.0043248842
0.034804553 -0.2485529 0.51676595 -0.022308694 -0.99975067 -0.00097009598 0.00058212958
0.056696821 -0.2485529 0.51387739 -0.0021431679 -0.99999344 -0.0029178739 7.0786198e-05
0.064068533 -0.2485529 0.51760668 -0.00074816728 -0.99999797 -0.001849364 3.5995199e-05
0.075222969 -0.2485529 0.51979351 0.0018114944 -0.99999803 -0.00081623095 4.6363759e-05
0.091712773 -0.2485529 0.5125922 0.007933666 -0.9999634 -0.0031978684 0.00011230318
0.13463929 -0.2485529 0.5131892 0.23834555 -0.97115153 -0.0074906298 0.051105678
0.15193948 -0.24764287 0.51854479 0.38874075 -0.92077613 -0.032434933 0.075779259
0.16435398 -0.24581006 0.5149864 0.53325462 -0.84522521 -0.035125207 0.080459699
0.1735307 -0.2431318 0.51491046 0.66927874 -0.74110222 -0.053230099 0.081888795
0.17699419 -0.24100618 0.51472509 0.71572399 -0.69552571 -0.063113049 0.08132685
0.18306735 -0.2381061 0.51397419 0.80870956 -0.58489746 -0.062319946 0.077049993
-0.04200761 -0.24156775 0.52563739 -0.58331639 -0.81127715 0.039640702 0.084373914
-0.035407133 -0.2453656 0.52685744 -0.48918423 -0.87130922 0.038973458 0.081896879
-0.020664552 -0.24679084 0.52813601 -0.36006236 -0.93258584 0.025274936 0.066770926
-0.011446191 -0.24815266 0.52796841 -0.31460151 -0.94875085 0.029960912 0.059654091
0.0046619922 -0.2485529 0.52823102 -0.18949898 -0.98188072 0.00061627472 0.033276338
0.011598968 -0.2485529 0.52517545 -0.12573585 -0.99202555 0.0087025734 0.016732937
0.026040673 -0.2485529 0.52684426 -0.058491446 -0.99828553 0.0021725243 0.0042597577
0.035287771 -0.2485529 0.52656102 -0.0203622 -0.99979132 0.0016147792 0.00051594945
0.04356527 -0.2485529 0.52593708 -0.0074638445 -0.99997211 -0.00010445632 0.00010957001
0.057631481 -0.2485529 0.52455175 -0.0021099539 -0.99999774 -0.0002212792 4.2454965e-05
0.063696541 -0.2485529 0.52258062 -0.0006736978 -0.99999952 -0.00066851411 2.4941746e-05
0.077946737 -0.2485529 0.52965009 0.0019715093 -0.99999791 -0.00049998215 4.9257636e-05
0.11705955 -0.2485529 0.52632856 0.090950862 -0.99579656 -0.010826278 0.0088303247
0.1206767 -0.2485529 0.52971399 0.09280856 -0.99561626 -0.011612753 0.0090810396
0.1357605 -0.2485529 0.52037591 0.24080248 -0.97051263 -0.010930412 0.04897641
0.15111573 -0.24763589 0.52729619 0.37655336 -0.92497718 -0.051232744 0.067904279
0.17392401 -0.24367429 0.52560711 0.66215342 -0.74579066 -0.073138408 0.072872877
0.17786002 -0.24122982 0.52434784 0.70989054 -0.70140409 -0.06393569 0.073115483
-0.04453522 -0.24155156 0.53463662 -0.68224919 -0.72956812 0.04760639 0.08382301
-0.044122249 -0.24207133 0.53517079 -0.67864507 -0.73271137 0.050742164 0.082775466
-0.036630947 -0.24428846 0.53306937 -0.53225958 -0.84642339 0.016346307 0.07895378
-0.019821705 -0.24698037 0.533737 -0.35599151 -0.93398148 0.030800588 0.066660769
-0.007603724 -0.24819358 0.53343666 -0.30112097 -0.95352429 0.010839589 0.057839956
0.0049774796 -0.2485529 0.53524601 -0.18447115 -0.9827354 0.014196999 0.032690853
0.01059607 -0.2485529 0.53848541 -0.13813426 -0.99040508 0.0040968126 0.019529659
0.051667988 -0.2485529 0.53653169 -0.0032720082 -0.99999452 0.00048153329 5.2504642e-05
0.08235386 -0.2485529 0.53636551 0.0028134398 -0.99999601 -3.5878431e-05 4.9910821e-05
0.091427423 -0.2485529 0.53299892 0.0076180482 -0.99997067 -0.00075346697 0.0001018157
0.11334383 -0.2485529 0.53693932 0.072073556 -0.99734354 -0.010543705 0.0064599486
0.120883 -0.2485529 0.53078192 0.092911623 -0.99559104 -0.012882031 0.009162466
0.15688884 -0.24700709 0.53318465 0.37955078 -0.92320091 -0.060343027 0.067457452
0.17291385 -0.24444333 0.53469247 0.63722587 -0.76686156 -0.076593965 0.06724859
0.17693536 -0.24175332 0.53432524 0.6756528 -0.73389393 -0.069949679 0.06742917
-0.042925209 -0.24139959 0.54302102 -0.67707008 -0.73518145 0.032928742 0.076464601
-0.041389711 -0.24119885 0.54379153 -0.62050611 -0.78366631 0.028972687 0.07916487
-0.035847995 -0.24472155 0.54291755 -0.53156662 -0.846641 0.025217008 0.082809709
-0.024005346 -0.24683721 0.54973066 -0.41794521 -0.90845698 -0.0052672601 0.070228405
-0.0067574703 -0.24827525 0.54738355 -0.28534144 -0.95828122 -0.016655704 0.052851442
0.04249486 -0.2485529 0.541089 -0.0083164414 -0.99996489 0.0010203638 0.00013520531
0.068992347 -0.2485529 0.54808658 -0.00023347144 -0.99999726 0.0023507138 4.3642205e-05
0.081653297 -0.2485529 0.54304779 0.0026492472 -0.99999547 0.0014496456 5.8905625e-05
0.1156245 -0.2485529 0.54936618 0.070442528 -0.99751139 -0.0029851464 0.0049250745
0.13573097 -0.2485529 0.54487985 0.19597845 -0.98048896 -0.015290294 0.034429803
0.15852354 -0.2474962 0.5464896 0.35645387 -0.93225217 -0.062020771 0.059469614
0.16724458 -0.24600451 0.54479671 0.52518958 -0.84748125 -0.077146158 0.070367567
0.1736664 -0.2444544 0.54704857 0.55411714 -0.82842636 -0.081633471 0.070571922
0.17862515 -0.24127446 0.54679567 0.65983623 -0.74431199 -0.10303302 0.071646862
-0.043314487 -0.24152793 0.55667168 -0.73278868 -0.67930454 0.039573472 0.070362069
-0.04077667 -0.24296512 0.55736214 -0.65462381 -0.75576061 0.017136639 0.073510148
-0.036848642 -0.24428053 0.55908072 -0.57704967 -0.81645721 0.02028219 0.079843998
-0.026666949 -0.24722782 0.5598743 -0.46973327 -0.88280827 -0.00041885037 0.077584162
-0.015767863 -0.24805158 0.5540632 -0.37334171 -0.92768079 -0.0049298615 0.063536651
-0.0096654473 -0.24830338 0.55014855 -0.30599424 -0.95196295 -0.011581276 0.055151533
0.003287256 -0.2485529 0.55132669 -0.19496447 -0.98076659 -0.0092594633 0.034398872
0.036630411 -0.2485529 0.55520535 -0.021047687 -0.99977165 0.0036905734 0.00050193584
0.040593181 -0.2485529 0.55551118 -0.0090706134 -0.9999519 0.0037315607 0.0001516224
0.080490321 -0.2485529 0.55413067 0.0026817743 -0.99999022 0.003523407 6.5978471e-05
0.1146821 -0.2485529 0.5552178 0.065307818 -0.99786109 0.0028561326 0.0047283969
0.1237273 -0.2485529 0.55556273 0.11142859 -0.99377245 8.7946421e-05 0.010757681
0.13271582 -0.2485529 0.55427521 0.16648649 -0.98596978 -0.012074696 0.023737896
0.1554056 -0.24789062 0.55411983 0.28015941 -0.95920855 -0.037811179 0.048324533
0.168036 -0.24541135 0.55010766 0.48897624 -0.86954689 -0.069213659 0.065061882
0.1727822 -0.24405076 0.55024338 0.54460478 -0.83449078 -0.083849572 0.07024584
0.17799243 -0.24213201 0.55761963 0.54600334 -0.83213949 -0.097078331 0.065390691
-0.041693814 -0.24253954 0.56470591 -0.76212698 -0.64625126 0.039009456 0.076244377
-0.034326892 -0.24489239 0.56435931 -0.60367811 -0.79702944 0.017802143 0.074193262
0.0051249862 -0.2485529 0.56182188 -0.15614742 -0.98769897 0.0082844961 0.024868486
0.027940091 -0.2485529 0.56100291 -0.039119415 -0.99920589 0.0075781844 0.0011180347
0.04030025 -0.2485529 0.56816071 -0.0094467308 -0.99988484 0.011880296 0.00021857792
0.069537789 -0.2485529 0.56507748 0.00070111605 -0.99996555 0.0082681254 9.602007e-05
0.077915072 -0.2485529 0.56352252 0.0011564156 -0.99996585 0.008181762 0.00010331048
0.088514857 -0.2485529 0.56097442 0.0043337336 -0.99996525 0.0071195289 0.00011190427
0.10442265 -0.2485529 0.56513715 0.024016554 -0.99966609 0.0095348377 0.00052180933
0.1104639 -0.2485529 0.56097239 0.049371395 -0.99877965 0.001292068 0.0026105519
0.12189829 -0.2485529 0.56733322 0.099519804 -0.99499428 0.0090647051 0.0090752933
0.1385294 -0.2485529 0.56662291 0.18978769 -0.9817661 -0.01076104 0.025986249
0.15569803 -0.24750206 0.56415546 0.27294293 -0.96168858 -0.025638716 0.045193061
0.1714267 -0.2451321 0.56270492 0.42154372 -0.90550518 -0.048592191 0.057294153
0.18036623 -0.24154456 0.56432784 0.57595015 -0.8145653 -0.069026962 0.068575755
-0.045159124 -0.24100238 0.57543486 -0.82928514 -0.55619359 0.054175187 0.068541519
-0.041275673 -0.24161045 0.57229483 -0.81081867 -0.58291274 0.052780446 0.067814276
-0.033858143 -0.24491967 0.57398957 -0.61396164 -0.78886461 0.027272852 0.075991452
-0.018763326 -0.24821617 0.57073545 -0.39925313 -0.91662639 0.019824184 0.065327406
-0.0099060666 -0.24838474 0.57535851 -0.32573068 -0.94509494 0.026360985 0.052521162
0.01067856 -0.2485529 0.57813698 -0.13504407 -0.99072635 0.014982786 0.018419089
0.039250199 -0.2485529 0.57889873 -0.01030132 -0.99917138 0.039374873 0.001086899
0.04768024 -0.2485529 0.57213688 -0.0037165326 -0.99980372 0.019461444 0.00031080813
0.05015716 -0.2485529 0.5707224 -0.003394566 -0.99983007 0.018115466 0.00029709694
0.069016613 -0.2485529 0.57962811 0.0051232306 -0.99858475 0.052935749 0.0028845528
0.085225239 -0.2485529 0.57358634 0.001960271 -0.99942517 0.033845879 0.001073524
0.098543733 -0.2485529 0.57147878 0.014036054 -0.99959123 0.024906196 0.00062866835
0.1005846 -0.2485529 0.57845908 0.017394029 -0.99810958 0.058946233 0.0031727091
0.1157524 -0.2485529 0.57273442 0.068814836 -0.99716532 0.030426871 0.005614229
0.14554505 -0.2485529 0.5727843 0.20745137 -0.97816026 0.012901693 0.027894858
0.15865383 -0.24742797 0.57693052 0.28751388 -0.95775962 0.0056783743 0.043864407
0.16437323 -0.24683397 0.57824641 0.32059917 -0.94713515 0.012297078 0.051130686
0.17983702 -0.24107032 0.5776208 0.47459105 -0.88003922 -0.017154794 0.069166131
0.18232119 -0.24039917 0.58191407 0.54146296 -0.84063476 0.012295804 0.081794262
-0.045464113 -0.24080032 0.58594739 -0.8384105 -0.53807992 0.086820945 0.067882881
-0.041835353 -0.24280673 0.5850367 -0.8083505 -0.58236039 0.086173646 0.071463667
-0.037272684 -0.24434124 0.58362651 -0.72685111 -0.68349087 0.067287356 0.07910236
-0.018463567 -0.24792506 0.58634251 -0.41862464 -0.90568531 0.066990256 0.062126264
-0.0093758404 -0.2485529 0.58609831 -0.30328551 -0.95001298 0.074116267 0.048005722
0.014025254 -0.2485529 0.58742803 -0.094323777 -0.9937976 0.058901586 0.012410563
0.026511669 -0.2485529 0.58298111 -0.048987545 -0.99784797 0.04358492 0.0044252574
0.033294499 -0.2485529 0.58084607 -0.022743616 -0.99890977 0.040767197 0.0014410091
0.044162754 -0.2485529 0.58499497 -0.0037458183 -0.99795872 0.063752852 0.0039560772
0.05321246 -0.2485529 0.58342391 -0.0035338053 -0.99815965 0.06053789 0.0039028404
0.073293813 -0.2485529 0.58671862 0.00067106535 -0.99657524 0.082688555 0.0070807985
0.083485335 -0.2485529 0.5839377 0.0089013353 -0.99772143 0.066877723 0.0041220775
0.09573999 -0.2485529 0.58514386 0.0098914541 -0.99621981 0.086303793 0.0080354689
0.10496986 -0.2485529 0.58481449 0.031341005 -0.99604368 0.083154224 0.0073465663
0.1254438 -0.2485529 0.58497012 0.11886556 -0.98813248 0.097289093 0.02170755
0.14968331 -0.2481859 0.58192945 0.23087959 -0.97191161 0.045634069 0.04167968
0.15611985 -0.24779865 0.58513939 0.26589873 -0.9616341 0.067510769 0.053246036
0.1616566 -0.24687271 0.58973306 0.27102214 -0.96053338 0.062630296 0.060059775
0.17535125 -0.24426186 0.59029239 0.37307769 -0.92451668 0.077987 0.079239011
0.17934787 -0.24271122 0.58517289 0.46690491 -0.88423622 0.01123089 0.080249995
0.18353833 -0.23941031 0.58872014 0.56891781 -0.82136309 0.041172262 0.094627194
-0.042073995 -0.2429076 0.59349674 -0.81544626 -0.5637911 0.13109924 0.07289388
-0.031627014 -0.24595374 0.59573609 -0.61808628 -0.77622402 0.12428074 0.075385705
-0.022496317 -0.24726033 0.596928 -0.40957597 -0.9048093 0.11648063 0.062400199
-0.010015165 -0.24845986 0.59117067 -0.32213345 -0.94240695 0.089995727 0.050324243
0.0036903769 -0.2485529 0.59812975 -0.20550938 -0.97019756 0.12838495 0.043337207
0.089537829 -0.2485529 0.59740722 0.013647032 -0.99116397 0.13193816 0.017761882
0.093566768 -0.2485529 0.59242541 0.0039196541 -0.99235827 0.12332773 0.016435096
0.1091602 -0.2485529 0.59358013 0.041770432 -0.99099433 0.12722239 0.016296973
0.1126845 -0.2485529 0.59772378 0.056527887 -0.98679644 0.15178086 0.024119833
0.1220812 -0.2485529 0.59538609 0.11460932 -0.98415518 0.13528951 0.02705662
0.14468275 -0.2485529 0.59400952 0.16062941 -0.97809517 0.1323934 0.04042514
0.15437949 -0.24818455 0.59942257 0.18346886 -0.97259986 0.14278893 0.052965641
0.16513604 -0.24707071 0.59768581 0.31993589 -0.93897021 0.12639603 0.086157225
0.18046005 -0.24339134 0.59668893 0.45959735 -0.88132101 0.10974249 0.10362039
0.18448086 -0.24019906 0.59640962 0.55997682 -0.82055986 0.11448772 0.10979781
0.189078 -0.23914813 0.6010592 0.61653692 -0.77436906 0.14224896 0.11386941
-0.040946554 -0.24341878 0.60437346 -0.82444441 -0.52505404 0.21121012 0.072745383
-0.038477242 -0.24500048 0.60517728 -0.76815856 -0.60511541 0.20920743 0.073974073
-0.011589611 -0.24839982 0.60695416 -0.30993244 -0.93381667 0.17868491 0.059880015
0.01190728 -0.2485529 0.60299301 -0.13092157 -0.98139006 0.14047432 0.037152752
0.032656692 -0.2483647 0.60975307 -0.027527366 -0.9893108 0.14320093 0.01631121
0.066789068 -0.2485529 0.60686898 0.014071914 -0.98295742 0.18329404 0.034971267
0.090064779 -0.2485529 0.6061368 0.025917586 -0.98398262 0.17637043 0.029531401
0.107981 -0.2485529 0.60424858 0.039355744 -0.98011696 0.19447836 0.033068895
0.134654 -0.2485529 0.6005581 0.15295281 -0.97503197 0.16099103 0.043086022
0.16675563 -0.24669541 0.60268599 0.30486658 -0.93895835 0.15941635 0.089583457
0.17606398 -0.24361627 0.60080248 0.4273091 -0.89373487 0.13654649 0.10091712
0.18292513 -0.2416216 0.6059593 0.51283473 -0.84070557 0.17382349 0.11523083
0.18539214 -0.24161221 0.60677153 0.51389742 -0.83830506 0.18208301 0.11640576
-0.047259092 -0.23763913 0.60869801 -0.87473392 -0.42884722 0.22567797 0.069188476
-0.041581374 -0.24374086 0.61400461 -0.76627076 -0.57927179 0.27798069 0.075327821
-0.036116116 -0.24442412 0.61683291 -0.68104416 -0.66942781 0.29672414 0.083535567
-0.026592821 -0.24584688 0.61876434 -0.5266189 -0.79693937 0.29590547 0.089258358
-0.0070402259 -0.24835369 0.61390901 -0.28561383 -0.93701082 0.20108543 0.068662286
0.052917603 -0.2482457 0.6137141 0.018671732 -0.97968364 0.19967824 0.035620209
0.066290408 -0.24804954 0.61655945 0.02632598 -0.97357458 0.22684711 0.044031315
0.075399563 -0.24796975 0.61217546 0.01569042 -0.97763234 0.20973492 0.041577552
0.083539888 -0.24802937 0.61818874 0.025780383 -0.96995926 0.24189755 0.046455435
0.092339747 -0.2485529 0.61009711 0.035743114 -0.98035598 0.19397084 0.034034092
0.10346641 -0.24783151 0.61475974 0.065187104 -0.95913261 0.2753458 0.053947963
0.12275113 -0.24750349 0.61514032 0.10950559 -0.94937223 0.29445025 0.063107692
0.14885937 -0.24743986 0.6173234 0.20091428 -0.93392503 0.29566452 0.089315869
0.16584264 -0.24680181 0.61253035 0.29200134 -0.92154342 0.25591585 0.099491954
0.17357136 -0.24508524 0.61671215 0.3791391 -0.86658198 0.32448295 0.12536837
0.18374287 -0.24219175 0.61417365 0.49065459 -0.82769644 0.27235395 0.13049325
0.18707746 -0.24101175 0.61371052 0.57709891 -0.76426017 0.28785965 0.13156594
-0.041045606 -0.24226475 0.62710702 -0.74992919 -0.5275647 0.39910108 0.087574013
-0.035292901 -0.24421217 0.62294394 -0.70383352 -0.60832894 0.36681631 0.089202769
-0.026436204 -0.24609551 0.62375402 -0.55410743 -0.76063442 0.338231 0.094924159
-0.019791357 -0.24671683 0.62577814 -0.45070052 -0.8273949 0.3350921 0.096020907
-0.0097411815 -0.24771866 0.62655026 -0.29634109 -0.91874337 0.26094532 0.080209814
0.007796308 -0.24791948 0.62570137 -0.20619568 -0.95326519 0.22083646 0.068169266
0.017496407 -0.24800603 0.62444854 -0.12049913 -0.96593469 0.22901978 0.059177157
0.022672942 -0.24757324 0.62774926 -0.076204136 -0.96257663 0.26007554 0.064154454
0.065852895 -0.2472218 0.62799013 0.036311686 -0.96399528 0.2634283 0.054861244
0.079206981 -0.24765044 0.62136585 0.014885934 -0.96778959 0.25131992 0.053133983
0.088390365 -0.2467386 0.62968892 0.062173422 -0.92839259 0.3663629 0.077668771
0.097522616 -0.24686131 0.62138706 0.063947454 -0.94606382 0.31760663 0.068704106
0.10584877 -0.24678613 0.62329072 0.072632745 -0.93931699 0.33527318 0.066818848
0.11739613 -0.24627554 0.62766147 0.071300544 -0.93085742 0.35835847 0.066870898
0.14879693 -0.24660766 0.6213147 0.20666049 -0.92757791 0.31127268 0.091235392
0.15524878 -0.24560142 0.6264326 0.25192896 -0.88339698 0.3951475 0.11176628
0.17522718 -0.24262148 0.62687832 0.40375155 -0.80571127 0.43337506 0.12966184
0.18450633 -0.24201898 0.62662095 0.52615154 -0.73093277 0.43462834 0.15346064
0.19075285 -0.24046807 0.62238055 0.60722971 -0.7080062 0.36055404 0.14427777
0.20745021 -0.23696174 0.62277359 0.82203215 -0.47698385 0.31104586 0.14853232
-0.039643496 -0.24288715 0.63324809 -0.70846617 -0.53964448 0.45481807 0.093105868
-0.036005951 -0.24367295 0.63392562 -0.68073374 -0.55981618 0.47244829 0.095592201
-0.023616273 -0.24495959 0.63821501 -0.60344332 -0.61143208 0.51186609 0.1057516
-0.01820083 -0.24565485 0.63884521 -0.54988283 -0.69304943 0.46616659 0.10883266
-0.0050307005 -0.24636455 0.63804793 -0.31541696 -0.86916548 0.3808721 0.10584044
0.024185304 -0.24672773 0.63578552 -0.05050838 -0.93122512 0.36092764 0.080559775
0.048167277 -0.2469901 0.63382179 0.023637548 -0.95426452 0.29802763 0.0566766
0.052520506 -0.24681328 0.63517433 0.042603839 -0.94578815 0.32197762 0.061673637
0.065918066 -0.24704482 0.63286179 0.046335835 -0.95542997 0.29155889 0.056423511
0.073447943 -0.24650685 0.6338231 0.045803174 -0.94466984 0.32480916 0.06178581
0.083284892 -0.24602139 0.63656175 0.076974817 -0.90693176 0.41418555 0.080934405
0.11359113 -0.24584636 0.63099557 0.076095462 -0.92602772 0.36970538 0.067158051
0.12507994 -0.24511793 0.63466394 0.10975032 -0.89372486 0.43498376 0.077585928
0.13638349 -0.24574487 0.63539922 0.16960688 -0.8669461 0.46865556 0.093439244
0.14052172 -0.24565351 0.6371671 0.1883774 -0.84923249 0.49327293 0.09755443
0.15707426 -0.24438302 0.6351909 0.26423705 -0.7997641 0.53903246 0.1216205
0.16588452 -0.24316232 0.63579583 0.38068989 -0.7324633 0.56442243 0.13305354
0.17270039 -0.24094617 0.63653731 0.40591925 -0.70491058 0.581662 0.1371271
0.18368214 -0.24193135 0.63442403 0.5069207 -0.67231572 0.53946549 0.14657903
0.18909287 -0.24033438 0.63310599 0.58142745 -0.60620534 0.54263908 0.15293863
-0.039584912 -0.24213468 0.64272016 -0.70042735 -0.48606282 0.52263224 0.097596988
-0.035207756 -0.24246764 0.64371395 -0.67088044 -0.52007741 0.52861995 0.096822277
-0.02633 -0.24352565 0.64525306 -0.60465068 -0.56749529 0.55887985 0.10884263
-0.010178188 -0.2456163 0.64244395 -0.39686465 -0.78039831 0.48319456 0.11540888
0.0012552899 -0.24620388 0.64132774 -0.27928072 -0.86349553 0.41997337 0.11217008
0.016642412 -0.24497616 0.64862871 -0.12767427 -0.7997576 0.58658946 0.11602651
0.021287851 -0.24533831 0.64554912 -0.052820303 -0.84999514 0.52413565 0.10672454
0.034242675 -0.244766 0.64617521 0.010788352 -0.90273929 0.43005276 0.087450802
0.042204089 -0.24486513 0.64537454 0.027452143 -0.90687865 0.42049676 0.081616797
0.053503878 -0.24479404 0.64461595 0.04996093 -0.89138651 0.45048195 0.085735515
0.066687018 -0.24344175 0.64575875 0.071876787 -0.88838392 0.45343989 0.080038056
0.075579673 -0.24368167 0.6449703 0.110193 -0.82903749 0.5482285 0.092385441
0.083546899 -0.24431825 0.64602262 0.1205831 -0.75684571 0.64237386 0.092006519
0.095175609 -0.24440292 0.64337397 0.091008849 -0.78648198 0.61087114 0.090436719
0.10344233 -0.24280706 0.64560711 0.089732416 -0.78975856 0.60681909 0.08540833
0.11425175 -0.24365304 0.6435504 0.068346187 -0.85889798 0.5075658 0.076868623
0.12435152 -0.24330704 0.64308709 0.10932909 -0.84040856 0.53081131 0.084293045
0.13465944 -0.24490166 0.64138085 0.16407496 -0.82916272 0.53438616 0.09285783
0.14610903 -0.24404636 0.64251614 0.2328601 -0.79805058 0.55578011 0.11321498
0.15537331 -0.24356195 0.64105761 0.2649281 -0.75984317 0.59367621 0.12117749
0.1623051 -0.24229911 0.64114302 0.36263144 -0.67100996 0.64671791 0.12871718
0.17497054 -0.24029103 0.63975751 0.41320646 -0.65699458 0.63057005 0.13854519
0.18383117 -0.23969086 0.6409291 0.52513742 -0.58402807 0.61898458 0.14682072
0.18934533 -0.23839274 0.64188313 0.56177545 -0.52962017 0.63553983 0.14400552
0.21569212 -0.23863566 0.64732748 0.82507294 -0.40310913 0.39592627 0.15277109
-0.041962743 -0.2417036 0.65293086 -0.6886763 -0.40481454 0.60153979 0.093735732
-0.032892756 -0.24064495 0.65134549 -0.63321972 -0.49941659 0.59128338 0.10497431
-0.022038478 -0.24155876 0.65191448 -0.58753681 -0.49927026 0.63681209 0.11201569
-0.012867022 -0.24280442 0.65266758 -0.46874794 -0.5912838 0.65624601 0.12201846
-0.0045648185 -0.24326882 0.65430832 -0.40811878 -0.6564554 0.63443315 0.12572069
0.0039867349 -0.24372075 0.65166616 -0.26295695 -0.77323842 0.57702333 0.12437534
0.015607676 -0.2427514 0.65449834 -0.11706251 -0.74581814 0.65578324 0.1228488
0.02383364 -0.24340725 0.65259403 -0.06612584 -0.77065408 0.6338135 0.10910629
0.033889405 -0.24327998 0.65259731 -0.0011298383 -0.8542375 0.51988167 0.091003984
0.043153331 -0.24368699 0.65132123 0.055646494 -0.84811479 0.52688205 0.088429622
0.054258425 -0.24352519 0.65039551 0.054531295 -0.86524063 0.49838242 0.088049188
0.064488657 -0.24191433 0.65028971 0.098445565 -0.80169421 0.58957171 0.094273739
0.075328663 -0.241212 0.65055382 0.15110725 -0.71818537 0.67924696 0.091547191
0.085228056 -0.24310955 0.65164852 0.1282209 -0.72379124 0.67800122 0.093814388
0.095701396 -0.24272917 0.65227544 0.1024524 -0.68319887 0.72300965 0.089449801
0.10394073 -0.2417431 0.64948255 0.07669685 -0.76357901 0.64114326 0.091249794
0.11547408 -0.24097276 0.64758819 0.086136021 -0.73968261 0.66742063 0.084502257
0.12337586 -0.2431155 0.64656228 0.1159592 -0.81649238 0.56559134 0.083865784
0.13442928 -0.24095803 0.64885724 0.17291863 -0.76518875 0.62014949 0.091335073
0.14452559 -0.24152212 0.64909667 0.22253048 -0.72215593 0.65495872 0.10304488
0.15487921 -0.24175999 0.64392209 0.29479063 -0.67752206 0.67384148 0.11779966
0.16286807 -0.23949759 0.64842212 0.34766161 -0.59452599 0.72503114 0.12539688
0.17136571 -0.23961532 0.64640367 0.41069737 -0.59383035 0.69187653 0.13428766
0.17900355 -0.23956233 0.6440649 0.48044601 -0.53707892 0.69333827 0.13731705
0.20315447 -0.23792952 0.65139472 0.71882915 -0.36196738 0.59351861 0.14786872
-0.028127303 -0.23873194 0.65592647 -0.60512471 -0.39462578 0.69144374 0.10562986
-0.023537768 -0.2384993 0.65674281 -0.5684424 -0.43775427 0.69659489 0.11224254
-0.010954172 -0.24071385 0.65810615 -0.46659711 -0.49440333 0.73338419 0.11909593
-0.004379503 -0.24123472 0.66038507 -0.36724371 -0.48300853 0.79488033 0.12550133
0.002498908 -0.24150544 0.66082269 -0.2784901 -0.51211321 0.81251663 0.12182432
0.014033942 -0.24120957 0.66054171 -0.14893861 -0.54979056 0.821917 0.11978562
0.022587007 -0.2414889 0.65785402 -0.070959091 -0.63461185 0.76956654 0.11075616
0.032483168 -0.2415508 0.65655869 -0.018187614 -0.76487947 0.64391661 0.10153794
0.041056473 -0.24096373 0.65715849 0.059767026 -0.80393124 0.5917114 0.095166117
0.063040704 -0.23946466 0.65438831 0.11383335 -0.70548218 0.69952625 0.098563768
0.091460198 -0.24268338 0.66080701 0.13828242 -0.58356118 0.80020899 0.083604082
0.1089511 -0.24092275 0.66054326 0.095200151 -0.61906177 0.77955091 0.075258233
0.11306261 -0.24151218 0.64847094 0.089162737 -0.74661177 0.65925789 0.085420869
0.13272507 -0.24144684 0.64911866 0.16224438 -0.76313275 0.62554383 0.087977037
0.18103121 -0.24179733 0.64390421 0.4974131 -0.56909502 0.65476024 0.14270677
0.0065698437 -0.23855215 0.66788846 -0.20913917 -0.35873991 0.90970677 0.11015286
0.013412702 -0.23825027 0.6695143 -0.12233382 -0.28136387 0.95177144 0.093205497
0.01451413 -0.23714037 0.67668128 -0.11680112 -0.25413719 0.96008945 0.089227296
0.021858126 -0.24031582 0.69485581 -0.010292075 -0.4075048 0.91314501 0.088661633
0.093898244 -0.24851666 0.69770819 0.10380992 -0.48846215 0.86638808 0.057172127
0.16942526 0.028496642 0.4657132 0.77570224 0.5463677 -0.3158612 0.071381442
0.026010048 -0.086801231 0.4225077 -0.1248625 0.022315836 -0.99192303 0.0014196094
0.13290492 -0.12022302 0.41370824 0.29727086 -0.018163985 -0.95462036 0.045617022
0.16215707 -0.072826639 0.42200312 0.69680905 0.038992025 -0.716196 0.054073766
0.090710387 -0.12590905 0.41607386 -0.02466041 0.032672629 -0.99916184 0.002983484
0.096542276 -0.081861399 0.41666725 -0.010822772 0.0044045653 -0.99993169 0.0047016963
0.12971333 -0.063130155 0.41414994 0.29376504 0.0490942 -0.95461613 0.044179317
0.067443117 0.04742296 0.42559996 -0.022006446 0.81723934 -0.57587814 0.059994169
0.076173812 -0.16196445 0.41528514 -0.067860566 0.031759497 -0.99718922 0.00027856309
0.093606912 -0.035929851 0.41649547 -0.0094031207 0.024777565 -0.99964875 0.0071151778
0.02083751 -0.14646424 0.42078599 -0.13092114 0.046396147 -0.9903065 0.0029169046
0.075725563 -0.19256321 0.4130407 -0.058163568 -0.12939574 -0.98988569 0.023802953
0.13279825 -0.17379481 0.41272381 0.28203782 -0.015143119 -0.95928377 0.040696599
0.097743995 -0.17562647 0.41379648 -0.0069133597 -0.020424226 -0.99976754 0.0061267042
0.01385754 -0.22048518 0.42117241 -0.11490168 -0.37789097 -0.91869259 0.076776341
0.049872935 -0.19727013 0.41610774 -0.072859101 -0.19675064 -0.97774273 0.043525908
0.10289028 -0.238029 0.41459945 0.022023141 -0.55467504 -0.83177561 0.075664662
0.035586368 -0.23867197 0.42085981 -0.078752398 -0.62512285 -0.77654338 0.080801919
-0.0056096772 0.024994286 0.42759264 -0.29304022 0.48225009 -0.82556778 0.085899025
0.025944142 0.026294824 0.42662519 -0.089533083 0.47125876 -0.8774389 0.065769419
0.049293149 -0.14278647 0.41934299 -0.079356544 0.038940474 -0.99608541 0.00010958003
0.078489929 0.014385766 0.41962448 -0.049312819 0.41740453 -0.90738171 0.055411421
0.009052448 -0.041554999 0.42525104 -0.25345033 0.010466121 -0.96729177 0.016580174
0.078725643 0.0034222817 0.41826943 -0.055518407 0.34650898 -0.93640232 0.046672825
-0.033783056 -0.13402672 0.42895505 -0.60151058 0.058400363 -0.79672736 0.07662835
0.13563219 -0.1454244 0.41338071 0.30222407 0.0083614541 -0.95320022 0.049042981
0.021486675 -0.05117419 0.42346802 -0.1480245 0.021601869 -0.98874778 0.0022772474
-0.041621126 -0.13094142 0.43277273 -0.69579506 0.0075509665 -0.71820074 0.075953878
0.058951821 -0.025332881 0.41931564 -0.095478103 0.065619119 -0.9932664 0.0019396062
0.15004791 -0.21131212 0.41300601 0.47161958 -0.22740303 -0.85197586 0.086850129
0.10094541 -0.12453905 0.41563565 0.046230085 0.016105363 -0.99880093 0.010102428
0.032837622 -0.15319592 0.41978654 -0.095094718 0.042176113 -0.99457443 0.00047801706
0.041092489 -0.0032136342 0.42438632 -0.12381397 0.27404925 -0.95371228 0.042143647
0.14686425 -0.23522964 0.41744116 0.35540736 -0.54164934 -0.76177537 0.11886062
-0.025424154 -0.19465961 0.42337239 -0.39147133 -0.15149026 -0.90763479 0.057902157
0.060802747 -0.23916502 0.41788036 -0.054294836 -0.64555669 -0.7617799 0.082348377
0.1419716 -0.19936074 0.41149211 0.36365163 -0.15643105 -0.91830647 0.068240464
0.031012639 -0.21574669 0.4174557 -0.085660741 -0.31792483 -0.94423831 0.065809533
0.10369535 0.011233025 0.41745287 0.084874973 0.37342808 -0.92376822 0.059670359
0.010070773 -0.20281948 0.41879699 -0.14827536 -0.21059169 -0.96626365 0.046055775
0.0447767 -0.17331041 0.41808045 -0.07740704 -0.04452375 -0.99600488 0.0073598339
0.12313225 -0.17036289 0.41283667 0.1622166 0.015966682 -0.98662603 0.025072258
0.0031455194 -0.053853698 0.42519784 -0.27041051 0.016396319 -0.96260548 0.021149728
0.13333532 -0.043528389 0.4139291 0.29782283 0.073441863 -0.95179194 0.041147243
-0.030330054 -0.23253614 0.42804354 -0.44833636 -0.49761435 -0.74254602 0.10132017
0.15564843 -0.03438605 0.41919541 0.61868393 0.075286888 -0.78202438 0.056309082
0.16005337 -0.19236045 0.41489765 0.59710634 -0.099402919 -0.79597926 0.061289247
0.038244799 -0.19926645 0.41710064 -0.09635213 -0.20248368 -0.97453403 0.043898538
-0.020001084 -0.16838324 0.42391106 -0.35681897 0.036936652 -0.93344307 0.04188985
0.14092021 -0.2297774 0.41489631 0.27656242 -0.45108029 -0.84855163 0.10235506
0.13682227 -0.081000574 0.41274878 0.33862776 0.0022626424 -0.94091773 0.041483913
0.12445799 -0.023272056 0.41547328 0.27934784 0.087100334 -0.95623136 0.04239371
0.105404 -0.16636854 0.41350892 0.044104166 0.020099714 -0.99882472 0.012098352
0.1619139 -0.14794992 0.42045212 0.5859642 -0.018712483 -0.81012082 0.067397252
0.14601755 -0.079974584 0.41391233 0.47153553 -0.0038681359 -0.88183856 0.050708603
0.1496879 -0.070066959 0.41534063 0.53414017 0.028136428 -0.84492761 0.048092894
0.1013578 -0.15750326 0.41408524 0.029435264 0.034709629 -0.99896389 0.010171825
0.15996464 -0.17238235 0.41923156 0.59416747 -0.002533237 -0.80433738 0.050522123
-0.023799799 0.042679932 0.43355772 -0.39655671 0.71179253 -0.57973629 0.096606083
-0.044458184 0.036527343 0.44230899 -0.61293501 0.63987374 -0.46354306 0.10598266
0.099025063 0.024300711 0.41886568 0.050407015 0.53956008 -0.84043676 0.068013735
0.17320196 -0.064016901 0.44800386 0.91665661 0.030252038 -0.39852896 0.036642
0.18265823 -0.05800261 0.54559398 0.99565226 0.02165908 -0.090595514 0.00027265173
0.16207586 0.030633956 0.42725939 0.65182406 0.50571388 -0.56513619 0.080064431
0.17999345 -0.18731721 0.50077206 0.9830274 -0.16209516 -0.085920684 0.028980527
0.17909403 -0.07776355 0.50925559 0.99491167 0.029760277 -0.09625601 0.00015908676
0.17530279 -0.048637796 0.4667736 0.9582001 0.033414278 -0.28414115 0.022692358
0.18000649 -0.14822194 0.63591421 0.73331779 0.026645273 0.67936367 0.055182464
-0.044605721 -0.087736987 0.43693295 -0.69481063 0.023263842 -0.71881646 0.070974335
0.1794284 0.037411593 0.58967817 0.69177431 0.70324552 0.1639941 0.090051673
0.18875246 -0.21111336 0.6058836 0.95319957 -0.21178927 0.21576822 0.10502236
0.17309713 -0.1162424 0.44340491 0.85392892 -0.0069168392 -0.52034378 0.053125549
0.16721319 -0.14678232 0.42306054 0.62495548 -0.035060614 -0.77987272 0.067260064
0.17308 -0.24036296 0.46474248 0.73622125 -0.64456987 -0.20617452 0.097644292
0.17267404 -0.23964156 0.45693535 0.75418776 -0.604509 -0.25645593 0.10216552
0.18613756 -0.22821045 0.58350557 0.76257128 -0.64683819 0.0092462394 0.091243282
0.10236882 0.017206231 0.41859487 0.084456429 0.45902881 -0.88439792 0.067248091
0.15685223 0.031635992 0.41195166 0.49513641 0.44038767 -0.74893159 0.085384473
0.16940151 -0.22493531 0.43833303 0.78069258 -0.38410565 -0.49293211 0.10118375
0.18682936 -0.21493167 0.56416702 0.94691718 -0.31143349 -0.079731166 0.062786408
0.18676949 -0.14292097 0.5930106 0.98044288 0.018612031 0.19592187 0.035935398
0.18325029 -0.080012232 0.54378366 0.99635607 0.020259393 -0.082850538 0.0003245727
0.17699328 -0.016493822 0.50030071 0.98722517 0.12667212 -0.096646599 0.011105213
0.17908607 -0.18005386 0.63631386 0.69155568 -0.015296749 0.72216105 0.067048401
0.17184411 -0.099351548 0.4382019 0.84170246 0.010790863 -0.53983384 0.051901761
0.16987257 -0.10831109 0.43485048 0.77983904 -0.0173871 -0.6257385 0.054086458
0.15900888 -0.063266315 0.42045507 0.6534062 0.053213898 -0.75513488 0.060070708
0.16230869 -0.019258773 0.42501178 0.67625672 0.1349867 -0.72419292 0.056990933
0.16802068 -0.083075047 0.42937505 0.80063868 0.015734123 -0.59894079 0.053553458
0.17977281 -0.17732622 0.4863165 0.9842003 -0.074683987 -0.16053692 0.011920428
0.17596197 -0.23054358 0.4835709 0.80364889 -0.58715904 -0.096916072 0.087190188
0.17820945 -0.19743951 0.48483193 0.97227675 -0.18419039 -0.14405476 0.037666049
0.1650746 -0.13462336 0.42428187 0.58794856 -0.016874067 -0.80872232 0.061401609
0.07520812 0.048114102 0.42690685 0.0016892626 0.80956882 -0.58702254 0.068207219
-0.042068336 0.0070216418 0.43213958 -0.65662146 0.24394217 -0.71368092 0.096860707
0.0822457 0.046156209 0.4259651 -0.0035793991 0.77438271 -0.63270736 0.072444901
0.17918968 -0.06788189 0.51444101 0.99524957 0.029497936 -0.092780679 0.00010905797
0.1864208 -0.09801852 0.59187549 0.99215901 0.013704923 0.12422819 0.023203339
0.17887938 -0.038964845 0.52220845 0.99448609 0.033743761 -0.099291652 0.00025091638
0.17418924 -0.02471832 0.4649244 0.94662464 0.038142946 -0.32007334 0.032540534
0.16010754 -0.062857725 0.42127261 0.66379291 0.048731387 -0.74632716 0.058937326
0.16246895 0.03075006 0.42767867 0.6518299 0.51076579 -0.56056756 0.079991244
0.15531397 0.030080292 0.41769278 0.51907808 0.46804219 -0.71518838 0.084034801
0.18365222 -0.098425545 0.54591262 0.99686986 0.020459309 -0.076366536 0.00044356243
0.18760009 -0.22407967 0.61555409 0.77312219 -0.48806271 0.4050639 0.14757359
0.18041906 -0.22925714 0.54336905 0.78106415 -0.61426187 -0.11234345 0.072452776
0.18694238 -0.14181317 0.58995694 0.98925126 0.0066803913 0.14607245 0.027111184
0.18552895 -0.13845006 0.55913484 0.99946398 0.01087434 -0.030878725 0.0014120684
0.1847873 -0.19872855 0.53893316 0.97373801 -0.21362196 -0.078739867 0.034503315
0.18127087 -0.18936363 0.50950432 0.98195863 -0.16839355 -0.086027846 0.028373301
0.18464182 -0.18819939 0.55282152 0.98467112 -0.15892977 -0.071861327 0.028148664
0.18652831 -0.10952958 0.5967415 0.98384941 0.016431479 0.17824276 0.034727924
0.17799436 -0.0028194529 0.51637781 0.97566843 0.1886005 -0.11180777 0.023527889
0.18414897 -0.077551432 0.56243753 0.999152 0.02462285 -0.033001732 0.0031903493
0.17443132 -0.14764129 0.44265231 0.84069818 -0.059960343 -0.53817409 0.051152505
0.18113737 -0.07987833 0.52633494 0.99552798 0.027924633 -0.090244979 0.00014488184
0.17485331 -0.22403479 0.47345725 0.88069296 -0.41782251 -0.22316866 0.074713506
0.17851587 -0.092626974 0.49405468 0.99083996 0.026530558 -0.13240917 0.0016535325
0.18583767 -0.045037474 0.5702346 0.9998644 0.012363853 -0.010880492 0.0068985992
0.1696028 -0.15813111 0.42967227 0.76179051 -0.057051387 -0.64530641 0.060062811
0.1745038 0.039421156 0.51823431 0.73550308 0.65963554 -0.15464856 0.077083163
0.18284981 -0.10868775 0.6280598 0.81236911 0.0044141808 0.5831269 0.065533139
0.18742305 -0.030286627 0.596623 0.99347538 0.012153557 0.11339789 0.022678601
0.1727459 0.040237129 0.50678968 0.7178607 0.67247909 -0.1801331 0.071885765
0.18100193 -0.047067259 0.53822434 0.99512583 0.022727096 -0.095959045 0.0001482276
0.16664581 -0.20476383 0.42732739 0.72172278 -0.19237368 -0.66491252 0.08583957
0.16000199 -0.14555508 0.41928405 0.56107312 -0.024036281 -0.82741719 0.068301626
0.12027816 0.044367056 0.42512724 0.26485321 0.75414199 -0.6009348 0.083437063
-0.012764656 -0.15188192 0.42351058 -0.35479051 0.0528019 -0.93345362 0.046555597
0.15858173 -0.093637258 0.41810277 0.61771828 -0.020238962 -0.78613907 0.059692897
0.18541124 -0.13659029 0.60767806 0.92663085 0.0086211637 0.37587348 0.070044763
0.1684372 -0.13420314 0.42721334 0.67019582 -0.033620272 -0.74142241 0.059358496
0.0066552176 -0.23364879 0.42254204 -0.12466076 -0.57185125 -0.8108303 0.083506867
0.171131 0.01504583 0.44742692 0.78175259 0.39896381 -0.47926062 0.064533331
0.16038957 -0.1198163 0.41828141 0.54497856 -0.029809264 -0.83791989 0.059354138
0.17484646 0.046775218 0.51359975 0.62645561 0.76266718 -0.16091067 0.063169017
0.16419752 -0.0219822 0.42653358 0.68414235 0.12359664 -0.71879983 0.056810819
0.030898513 -0.048694715 0.42294499 -0.10971262 0.024070811 -0.99367183 0.00043798564
0.18155755 -0.12943186 0.52181697 0.99630111 0.016109115 -0.084406734 0.00011702909
0.11990378 -0.13733478 0.41370314 0.16415498 0.0017160337 -0.98643309 0.032457072
0.17652388 -0.089931637 0.46797779 0.95450222 0.039108157 -0.2956281 0.026063362
0.18189099 -0.16495599 0.50851554 0.99563611 -0.014796655 -0.092139997 0.00064490573
0.13612008 0.050424643 0.43510428 0.34810334 0.78170919 -0.51745027 0.074707612
0.18127328 0.045962125 0.5351727 0.71059543 0.6924749 -0.12463009 0.062193736
0.18763894 -0.22176068 0.58285242 0.90629786 -0.4223935 -0.014420149 0.089442514
-0.027791834 -0.13956656 0.42681485 -0.50736386 0.073627539 -0.85858083 0.066362269
0.18319891 -0.080174334 0.54530579 0.99635643 0.02026028 -0.08284577 0.0003313724
0.077111185 0.044324744 0.42604938 0.0041059451 0.76681995 -0.64184898 0.070119299
0.18092945 -0.098313399 0.51423043 0.99562085 0.028993607 -0.088873796 0.00014508923
0.17724912 -0.10210915 0.47852528 0.97816348 0.036639664 -0.20458207 0.0094138309
0.11061652 0.055028159 0.50975275 0.077991419 0.99636668 -0.034215458 0.0058892663
-0.023001375 0.048286363 0.54922408 -0.5051797 0.85985279 0.073801965 0.068380721
0.12401362 0.054600384 0.4645085 0.23472901 0.93218827 -0.27554896 0.046041206
0.16639693 -0.070960656 0.42696127 0.76539826 0.053209923 -0.64135331 0.056600545
0.15846691 0.048532005 0.62991035 0.3913458 0.8019774 0.45130998 0.085446447
0.1726831 0.0091769286 0.46773618 0.88421357 0.35525936 -0.30324426 0.054998469
0.18243256 -0.23275432 0.51370656 0.81186122 -0.58095354 -0.058089998 0.079053454
0.18644993 -0.23884276 0.6033926 0.53594947 -0.82727861 0.16842878 0.1129899
0.16908784 -0.11565787 0.4298754 0.74952835 -0.01661163 -0.66176373 0.056695383
0.17049035 -0.12829104 0.43135521 0.728486 -0.033967897 -0.68421805 0.058588024
0.17705877 -0.13365485 0.46096826 0.91660297 -0.022076854 -0.39918861 0.038542774
0.17813544 -0.13119428 0.47133529 0.96118551 0.0129893 -0.27559713 0.023136783
0.15011749 -0.06645833 0.4155077 0.54615754 0.034666929 -0.83696479 0.049365748
0.039446544 0.055673935 0.57897925 -0.070208937 0.99608588 0.053699315 0.0050986195
0.088129461 0.055024818 0.47725978 0.025077842 0.98413515 -0.17563903 0.023331627
0.014168898 -0.18270004 0.41994417 -0.13597804 -0.084525391 -0.98709947 0.015726682
0.18285504 -0.083833128 0.54019743 0.99628597 0.020539206 -0.083620653 0.00028488692
0.17856143 0.045670729 0.55820584 0.64435601 0.76362097 -0.041089725 0.064240083
0.19248448 -0.23347862 0.64312792 0.60441846 -0.42367733 0.67466718 0.14429684
0.17203493 0.019384908 0.47706717 0.86166465 0.44401407 -0.24573471 0.060963344
0.11515945 -0.00046702891 0.41624781 0.17354657 0.24544412 -0.9537499 0.046005797
0.18707296 -0.19556348 0.61865181 0.87629271 -0.08507438 0.47420818 0.099530041
0.12702529 -0.095996708 0.41394961 0.24543184 -0.011548591 -0.96934509 0.034791604
0.17622522 -0.10811976 0.46588334 0.94785202 0.026209546 -0.3176313 0.030883595
0.18263765 -0.1839281 0.52338028 0.98855919 -0.12640676 -0.082292669 0.017811297
0.1874986 -0.1651448 0.60593075 0.93963033 0.038440946 0.34002525 0.047564719
0.19115421 -0.18434614 0.6546396 0.63948965 0.022758115 0.76846278 0.060184512
0.15211323 0.053047765 0.50516969 0.4225342 0.89794296 -0.12313935 0.058156125
0.15477239 0.055156954 0.59940976 0.31270921 0.92303914 0.22407947 0.056562077
0.1698253 0.049657043 0.56016386 0.50647014 0.86208332 -0.017328024 0.055906076
0.12358271 0.05636869 0.56693023 0.10836361 0.99400258 0.014701223 0.0075810892
0.13575695 0.054442827 0.52036822 0.24065994 0.96844351 -0.064806938 0.039110113
0.16494556 0.052991208 0.59383196 0.3723428 0.90579122 0.20224531 0.06223819
0.11716423 0.055022482 0.52978444 0.10981365 0.99344653 -0.031699914 0.011090037
0.18029276 -0.11696473 0.63555998 0.76558864 -0.0030957623 0.643323 0.063461423
0.14012195 0.053494696 0.4971604 0.33892629 0.93552941 -0.099567957 0.048129957
0.17964165 -0.12462603 0.49160522 0.98964262 0.019112051 -0.14227523 0.0017446094
0.17921357 -0.18172224 0.48940966 0.98539418 -0.10375675 -0.13502909 0.016875815
0.18887275 -0.19388783 0.60444969 0.97240305 -0.079041645 0.21951021 0.082955383
0.17785986 -0.12430897 0.47184685 0.9663136 0.016201878 -0.25685704 0.01933369
0.091716468 0.054986529 0.51261294 0.0069235349 0.99977791 -0.019903591 0.00060970464
0.022609971 0.052932341 0.52872485 -0.13949817 0.98997676 0.022052523 0.010930251
0.066953532 0.054702159 0.47196746 -0.025883276 0.97471309 -0.22195597 0.032514825
0.13999254 0.053550377 0.47894919 0.34308791 0.92235863 -0.17760998 0.053162161
-0.035967972 0.044866867 0.53193164 -0.60022408 0.7955991 0.08217743 0.070247613
0.13968913 0.053400133 0.49147597 0.34993076 0.93066436 -0.10682815 0.050791677
0.15019187 0.049066957 0.4389872 0.48733866 0.73495239 -0.4715358 0.074505769
0.11801506 0.054583583 0.46107498 0.19402815 0.9392131 -0.28325212 0.04553055
0.026931705 0.053945221 0.47464219 -0.071532764 0.98444659 -0.16046153 0.023511058
-0.029126048 0.048567977 0.51084256 -0.47677621 0.87719959 0.056616291 0.052756
0.011421866 0.052284535 0.5278852 -0.21952331 0.97515243 0.029786089 0.026815295
0.06472411 0.056660667 0.60510403 -0.017386805 0.95558703 0.29419571 0.052437205
0.11017205 0.054604687 0.49409345 0.087598838 0.99397647 -0.065857232 0.0081895692
0.080569699 0.054979336 0.48933554 -0.0035860117 0.99777025 -0.066645674 0.0039349659
-0.018889019 0.050357245 0.4495219 -0.32918951 0.89255166 -0.30819765 0.070221141
0.075248584 0.055009525 0.51983297 -0.012512274 0.99978483 -0.016544607 0.00026530633
0.1168969 0.045422085 0.42854428 0.23287599 0.79273576 -0.56332844 0.080626972
0.11120661 0.054668531 0.4813489 0.12551025 0.97916412 -0.15963934 0.023495648
0.087677687 0.054993097 0.49959934 0.007208148 0.99924487 -0.038178269 0.0013082535
-0.047439802 0.025919817 0.4417648 -0.70548946 0.51186711 -0.49018016 0.11859104
0.16159104 -0.0019949076 0.42103809 0.60751933 0.21874472 -0.76359087 0.05724657
-0.033877853 0.047859266 0.49005714 -0.50009102 0.86527711 -0.034706801 0.062184099
0.12785478 0.054223485 0.47843283 0.22797459 0.95567387 -0.18631983 0.038076002
0.11700507 -0.020622661 0.41574985 0.22059776 0.10004831 -0.97022009 0.039746795
0.11335634 0.020651611 0.41899309 0.17428263 0.48521429 -0.85685045 0.074246161
0.1392327 -0.11637113 0.41471028 0.37674522 -0.021553747 -0.9260661 0.051608
0.077189691 -0.11770827 0.41750839 -0.069186091 0.029610693 -0.99716425 0.00031883572
0.15484005 0.053333811 0.53272521 0.36514923 0.92696995 -0.085980892 0.053906094
0.17649668 -0.034326419 0.49485719 0.99151736 0.036875047 -0.12463365 0.0017294763
0.17972505 -0.13604034 0.48498836 0.98671687 0.012620746 -0.16195869 0.0029814511
0.04107197 0.049552139 0.43555701 -0.015492051 0.87242287 -0.48850617 0.057780076
0.075579867 -0.032738987 0.41620013 -0.077905506 0.034151886 -0.99637562 0.00068951776
0.17002794 -0.012891334 0.44198817 0.83313084 0.16086492 -0.52916479 0.061403733
0.17320412 -0.15176731 0.43941903 0.82206815 -0.064834259 -0.56568587 0.052288838
0.18630707 -0.00026805638 0.59907943 0.96658218 0.19351071 0.16814414 0.052924115
0.14792152 -0.0075209788 0.42013478 0.51639146 0.20917225 -0.83041364 0.05778724
0.18136027 -0.15933767 0.50372726 0.99487793 -0.0039529521 -0.10100655 0.00045998913
0.18073504 -0.004171669 0.53514665 0.97783703 0.18252644 -0.10256211 0.024735793
0.17420311 -0.022290688 0.46629912 0.95213854 0.048023198 -0.30187088 0.02885014
0.17568044 -0.05343103 0.4699952 0.96590817 0.018202223 -0.25824443 0.018827926
0.11163675 -0.018412778 0.41639084 0.14088027 0.11438402 -0.98339671 0.029594943
0.054230634 0.047765609 0.42689359 -0.010411838 0.80940789 -0.58715463 0.053103436
0.17334145 -0.14573731 0.43945637 0.81370765 -0.060763046 -0.57808971 0.055517882
0.12163482 -0.079864867 0.41390634 0.2034077 0.0067165359 -0.97907102 0.032922752
0.088841625 -0.12076148 0.41680014 -0.030763587 0.029844532 -0.99908102 0.0023994339
0.17097817 -0.0036316416 0.44774365 0.84105682 0.25902981 -0.47489685 0.059640732
0.062419053 -0.04925748 0.4185718 -0.090045482 0.017549556 -0.99578297 0.00018665433
0.035479639 -0.068693161 0.42184189 -0.10262024 0.019090513 -0.99453741 0.00043657742
