# .PCD v0.7 - Point Cloud Data file format
VERSION 0.7
FIELDS x y z normal_x normal_y normal_z curvature
SIZE 4 4 4 4 4 4 4
TYPE F F F F F F F
COUNT 1 1 1 1 1 1 1
WIDTH 589
HEIGHT 1
VIEWPOINT 0 0 0 1 0 0 0
POINTS 589
DATA ascii
0.10463759 -0.17330061 0.40940222 0.89621162 0.017745536 -0.44327176 0.06407661
0.075411268 -0.20083113 0.37005329 0.70729595 -0.28671095 -0.64616507 0.1278847
0.092392929 -0.12765843 0.38885885 0.8579216 0.15526386 -0.48975882 0.02076113
0.086451776 -0.18843037 0.38072613 0.76193166 -0.17925061 -0.62235785 0.099185698
0.056961533 -0.12235338 0.35038048 0.705163 -0.075709105 -0.70499176 0.014679261
0.10107734 -0.081239991 0.42039055 0.97538179 0.21944228 -0.02180757 0.019354742
0.0978093 -0.065752283 0.42457768 0.97721422 0.18057594 0.11155567 0.025365416
0.12046769 -0.19970304 0.41724122 0.93511581 -0.10147563 -0.33950126 0.088869363
0.076626487 0.042963732 0.32788789 0.77719843 0.33241901 -0.53428471 0.14094229
0.10783239 -0.15242143 0.44957331 0.98231095 0.18387131 -0.03544857 0.042603116
0.10705899 -0.19756076 0.40461856 0.8854894 -0.14028291 -0.44297761 0.09724243
0.12548785 -0.19230148 0.4418579 0.98766273 -0.040748861 -0.15120168 0.087216973
0.094836757 -0.075765796 0.43084976 0.96885306 0.1989609 0.14743908 0.027177194
0.07364586 -0.1905348 0.36633331 0.71740317 -0.19866942 -0.66772985 0.11453131
0.088617437 0.05475736 0.36807191 0.87443984 0.46918458 -0.12337272 0.095999137
0.055323664 -0.15337051 0.35371876 0.70119411 -0.0018046671 -0.71296817 0.050978668
0.12888581 -0.20049493 0.42929116 0.96489489 -0.068081275 -0.25365874 0.086169295
0.10934809 -0.19110215 0.40923277 0.90844423 -0.071955256 -0.41176629 0.086456433
0.07086125 0.0082858019 0.33530313 0.85829163 -0.030425575 -0.51225954 0.042920504
0.11608534 -0.20126915 0.49061647 0.91073447 -0.29167137 0.2923876 0.12210816
0.10046596 -0.18451892 0.40003163 0.86591083 -0.050298907 -0.49766302 0.07840959
0.076066777 0.078027308 0.30971795 0.068949744 0.92525244 -0.37303334 0.068489611
0.087415263 0.014239429 0.39236847 0.99732304 0.037872769 -0.062548846 0.02681523
0.091759443 -0.076740809 0.43864942 0.94270974 0.24964021 0.22130963 0.032806963
0.12372786 -0.2023983 0.4653388 0.96702731 -0.23963012 0.086229853 0.1087645
0.11936131 -0.2012606 0.4822022 0.94344276 -0.24813901 0.2198699 0.11097574
0.094711222 -0.1257015 0.38713679 0.85856205 0.15813336 -0.48771411 0.019418215
0.083419532 -0.066784225 0.4597311 0.85121882 0.29006478 0.43736583 0.027541528
0.082122616 -0.050886791 0.44929647 0.84831709 0.27944303 0.44974405 0.02476549
0.10441614 -0.1991324 0.51814127 0.86406285 -0.20852748 0.45816121 0.12230782
0.10443085 -0.18838473 0.51994932 0.87707829 -0.11823107 0.46556962 0.11912287
0.097450316 -0.18803222 0.53218508 0.81407827 -0.19991331 0.54526263 0.11675465
0.10418341 -0.19974656 0.5183264 0.86127895 -0.22987774 0.45316088 0.12398902
0.10309944 -0.1416223 0.44413373 0.97234696 0.22804268 -0.050377488 0.029093344
0.072040416 -0.096987717 0.49478084 0.77384061 0.37067753 0.51358443 0.022637639
0.036914427 -0.071588926 0.50789702 0.58368939 0.39832896 0.7075597 0.018076267
0.087770499 -0.14812472 0.51463175 0.82901269 0.2718454 0.48871064 0.04533824
0.069871634 -0.091916345 0.49454749 0.76030159 0.37160987 0.53277338 0.021277506
0.038383394 -0.052706107 0.49751678 0.59963 0.38439867 0.70191264 0.021396669
0.11414423 -0.20446117 0.49419779 0.89295548 -0.31150937 0.32494995 0.12658846
0.060046349 -0.16181904 0.35736275 0.69383687 -0.043931484 -0.71879089 0.07054428
0.043613527 -0.12542486 0.34038097 0.67678046 -0.10624795 -0.72847754 0.012525713
0.088460326 -0.15063179 0.51573133 0.8313303 0.25317228 0.49476635 0.052413728
0.058470521 -0.0083427746 0.46691221 0.62632573 0.39373863 0.67281938 0.015934227
0.088581048 0.086737476 0.35564625 0.15410285 0.95129019 -0.26701933 0.049666513
0.097584777 -0.12627484 0.46777162 0.93153965 0.31527781 0.18120094 0.0246654
0.070967063 -0.04283544 0.46555576 0.73165333 0.32772321 0.5977298 0.022626281
0.11777224 -0.19792147 0.48605308 0.94435275 -0.18984489 0.26862028 0.11768939
0.11799226 -0.2013856 0.48549858 0.9282015 -0.25120509 0.27447766 0.1194533
0.077597678 -0.105602 0.49312562 0.79210079 0.36277542 0.49088728 0.021492267
0.055951227 -0.025826771 0.33292165 0.77549934 -0.18115535 -0.6048004 0.0097238859
0.082037032 0.001173843 0.42512244 0.86843807 0.26347396 0.41999617 0.03454075
0.070315018 0.077185683 0.40794411 0.48509625 0.8737554 0.035115816 0.16659804
0.064395726 -0.061989646 0.48315099 0.73264551 0.35242859 0.58225834 0.022839578
0.088607922 -0.087989852 0.45630461 0.91231406 0.32482323 0.24934518 0.031106178
0.08874996 0.021288291 0.39255124 0.99453723 0.10423803 -0.0054857568 0.035597228
0.043228813 0.093760796 0.41644031 -0.091113716 0.98303109 -0.15921143 0.069742389
0.096026048 -0.18356246 0.39437237 0.84951073 -0.061844859 -0.52393407 0.079047017
0.09910965 -0.1813193 0.52702332 0.85033578 -0.065981612 0.52208769 0.1069335
0.07991571 -0.13236588 0.51091206 0.78109139 0.40829828 0.47242856 0.017442649
0.06791582 -0.18005897 0.35938644 0.70184088 -0.12214293 -0.70178378 0.099802501
0.08176636 -0.093407832 0.36808187 0.87026721 -0.0018797939 -0.49257627 0.018895309
0.050662853 -0.10931572 0.52448148 0.52363038 0.45026743 0.72323614 0.023312639
0.09982121 -0.13754815 0.47725537 0.92578954 0.30640668 0.22142404 0.020245703
0.093673311 -0.11379163 0.45675808 0.94743079 0.28878537 0.13776 0.03006378
0.062060133 -0.058863852 0.34936199 0.71285403 -0.1603926 -0.68272495 0.0075824144
0.11058506 -0.16449583 0.447276 0.98935157 0.13332526 -0.058376964 0.062148128
0.081112936 -0.062279515 0.46211153 0.8224926 0.28811708 0.49040234 0.031220959
0.077214412 -0.059709802 0.4670147 0.77578098 0.30335414 0.55329925 0.024589496
0.057994619 0.091102198 0.41448572 0.014151639 0.98801064 -0.15373605 0.0996323
0.038791951 0.094269387 0.41732275 -0.10246962 0.98272693 -0.15410274 0.068514347
0.045042317 0.093696043 0.41123155 -0.091324329 0.98097205 -0.17132908 0.063418142
0.10728872 -0.18669756 0.51280099 0.91168004 -0.053672843 0.40738028 0.11403488
0.12351674 -0.20700574 0.46070844 0.94633824 -0.31944808 0.048959129 0.10493178
0.11241426 -0.19390769 0.50023568 0.91837609 -0.15146369 0.3655735 0.12223458
0.08479584 -0.19011708 0.37917089 0.75725478 -0.184839 -0.62641817 0.10149524
0.12700389 -0.1965149 0.42679462 0.96115053 -0.042380191 -0.27275193 0.080790088
0.090486787 -0.15509713 0.51820087 0.83028305 0.22952537 0.50788593 0.060826067
0.089214094 -0.078785196 0.45005256 0.91583121 0.30821788 0.2574003 0.034677614
0.10598561 -0.14501949 0.4475174 0.97616136 0.21522993 -0.028020089 0.032056049
0.084298499 -0.13342908 0.50536537 0.80729306 0.38950795 0.44335255 0.01610115
0.085753784 0.060564265 0.36151084 0.7112475 0.66765159 -0.21992797 0.10044163
0.054161627 -0.1329352 0.34674811 0.69537276 -0.035667293 -0.7177636 0.013351389
0.039368723 -0.08136753 0.33078948 0.66036367 -0.15726261 -0.73429447 0.010549224
0.092915118 -0.20397829 0.38470718 0.77093631 -0.20976023 -0.60137993 0.10295742
0.055250332 -0.025573058 0.47448188 0.66415131 0.37983784 0.64391476 0.01878392
0.07212428 -0.082930885 0.48667559 0.76681215 0.3418808 0.54324645 0.022696877
0.047805868 -0.011476917 0.47296876 0.56765223 0.42409912 0.70562804 0.019703841
0.087322257 0.024114896 0.39780551 0.98657966 0.1351757 0.091586456 0.043925483
0.062133029 -0.028815044 0.46658006 0.70292205 0.35472944 0.61649626 0.017003564
0.045408256 -0.059828661 0.49760482 0.64925551 0.38405737 0.65648091 0.01594056
0.092101447 -0.062453382 0.4339748 0.93559372 0.22792558 0.26965615 0.03460779
0.088608891 -0.099787809 0.46343485 0.90060753 0.32882658 0.28421658 0.027113553
0.1089301 -0.16857354 0.48938605 0.95359004 0.12111917 0.27567405 0.082291335
0.078908734 -0.052980728 0.45937112 0.81632376 0.29710639 0.49532142 0.028785642
0.091017634 -0.08766488 0.42871317 0.96534568 0.25699607 0.04539609 0.026265278
0.059321038 0.084986486 0.4186765 0.077390276 0.99051571 -0.11353133 0.12625095
0.10382105 -0.17200738 0.51140487 0.90772766 0.058833234 0.41541442 0.09441673
0.07300549 -0.14767817 0.53881055 0.67912376 0.29306832 0.67297995 0.054093719
0.089615315 -0.085841715 0.45081791 0.91899997 0.31685972 0.23460394 0.031992089
0.055240761 -0.094895825 0.51256782 0.66473103 0.41397336 0.62189919 0.013911125
0.036986727 -0.045864746 0.4945884 0.59321535 0.39389166 0.70210034 0.014611293
0.048456866 -0.041095108 0.48576882 0.65838158 0.37762374 0.65110213 0.019573472
0.050589256 -0.12294476 0.34548956 0.70009136 -0.090373494 -0.7083112 0.013442424
0.056812 -0.14494228 0.35298488 0.71034044 0.017563153 -0.70363915 0.028182473
0.067514554 -0.1821859 0.36114353 0.70454603 -0.13990253 -0.6957314 0.10368904
0.10498495 -0.14247172 0.45409045 0.9710899 0.23809457 0.017184937 0.0280919
0.089904562 -0.063714184 0.44025388 0.9135384 0.2459833 0.32394409 0.035673156
0.05204311 0.047078013 0.4388327 0.51928627 0.51821005 0.67955869 0.10874578
0.069767073 0.059273701 0.41879338 0.64486629 0.65322667 0.39679009 0.16665244
0.10170674 -0.18868159 0.52634788 0.8461678 -0.15627101 0.50948936 0.11257982
0.096509755 -0.1956884 0.38995954 0.8192125 -0.13406679 -0.55759931 0.08768864
0.13182415 -0.20089953 0.42547745 0.9621712 -0.061144758 -0.26549563 0.084003642
0.11740228 -0.19611521 0.48724052 0.94844562 -0.13034706 0.2888954 0.11568843
0.077192478 -0.12758379 0.51070154 0.77609587 0.41057077 0.47865105 0.017364023
0.06618949 -0.080905274 0.49244916 0.74590188 0.35622129 0.56279373 0.023364376
0.12534791 -0.19798741 0.45464993 0.99274391 -0.11979556 -0.010416196 0.097400248
0.11602658 -0.18477815 0.47905532 0.98042214 0.0026430828 0.19688965 0.097043462
0.085210502 -0.11905709 0.49089333 0.82454473 0.36651802 0.43103418 0.020391751
0.065299042 0.083363056 0.4115082 0.17390001 0.97775 -0.11731882 0.13272491
0.034258135 -0.065952606 0.50635779 0.5676229 0.39915279 0.72005647 0.017986022
0.041842069 -0.065214761 0.50242585 0.61750257 0.3924287 0.68168193 0.020898443
0.074823931 -0.16008028 0.37387732 0.76087952 -0.015076206 -0.64871794 0.060515095
0.11765226 -0.19009224 0.48091346 0.97551316 -0.043893527 0.21551679 0.10153824
0.080323257 -0.11622538 0.49721161 0.80005056 0.37873688 0.46527147 0.021050006
0.062464979 -0.048348825 0.47827524 0.71066207 0.35461086 0.60762703 0.023273876
0.10696711 -0.18578975 0.51358843 0.90963888 -0.045436535 0.41290745 0.11236783
0.035835311 0.0943342 0.41543427 -0.10508518 0.98141509 -0.16056588 0.066341512
0.032499891 0.094593517 0.41764411 -0.12490124 0.98041975 -0.15223925 0.060568929
0.01600161 -0.05355268 0.50660115 0.1619859 0.41030309 0.89744741 0.052584212
0.03467124 0.06113755 0.26127857 0.043972239 0.87182301 -0.48784313 0.093197502
0.041223124 -0.016660111 0.47985673 0.55241042 0.43627861 0.71028423 0.018924084
0.023313122 0.088374466 0.43513665 -0.16576697 0.98573577 -0.029091258 0.075196959
-0.029810783 0.079433791 0.4276109 -0.30958822 0.94891936 0.060886059 0.044428688
0.048129149 0.0048635229 0.46345806 0.56535381 0.40905935 0.71627194 0.020361749
-0.020215321 0.021121716 0.4648073 -0.27386689 0.37755215 0.88456285 0.027890196
0.029708724 -0.1139079 0.53575492 0.21003899 0.53120029 0.8207984 0.047124501
0.048999377 -0.07671126 0.5047366 0.65484595 0.3887251 0.64812768 0.016049953
0.051939707 -0.033043869 0.47984967 0.66261387 0.37554792 0.64800203 0.018007882
0.054765392 -0.043090321 0.48228198 0.68840259 0.363783 0.62750602 0.020733541
0.1065584 -0.1475435 0.44842887 0.97843951 0.20485081 -0.026312318 0.035185199
0.048204418 -0.0092540383 0.31433001 0.6515736 -0.092488825 -0.75292599 0.033148997
0.037920114 0.039288756 0.29030719 0.41522685 0.60030115 -0.68353868 0.15344483
0.051649105 0.091164276 0.41856417 -0.045278139 0.98878431 -0.14232156 0.088958621
0.053793136 0.091132186 0.41750193 -0.037691772 0.98758632 -0.15248811 0.085823789
0.043663025 -0.049112033 0.49267125 0.64847523 0.37853104 0.66044992 0.017820897
0.074126802 -0.10340424 0.49635077 0.78180087 0.36788052 0.50343955 0.020727016
0.091427058 0.086205333 0.33272061 0.11052527 0.93983108 -0.32326722 0.05975033
0.09188927 -0.15295255 0.51313871 0.84380132 0.23306517 0.48340443 0.058781683
0.07389497 -0.00023296083 0.43580276 0.74507868 0.32046995 0.58494169 0.0085220831
0.079460524 -0.098375984 0.48329842 0.80808085 0.34922409 0.47439218 0.022951799
0.068419881 -0.045371801 0.47034428 0.72605091 0.33929315 0.59810561 0.022455586
0.076864831 -0.069186747 0.47252268 0.78446972 0.32261616 0.52964699 0.026643896
0.094071053 -0.15992524 0.51786262 0.84388834 0.20426044 0.49611503 0.064951792
0.076473594 -0.096328892 0.48764539 0.78643507 0.35269177 0.50707835 0.021362999
0.013294955 0.071870968 0.44247884 -0.23395726 0.87738639 0.41887608 0.10666573
0.051372278 -0.068750754 0.49893588 0.67727739 0.37901095 0.63059175 0.019116556
0.040947929 0.013479936 0.46042201 0.52485007 0.39142069 0.75585866 0.02471824
0.055779472 -0.093361162 0.51126623 0.66431159 0.41111082 0.62424201 0.014165826
0.035581529 -0.05503739 0.31231821 0.66254801 -0.20755491 -0.71968812 0.011071577
0.075482383 -0.183112 0.36910442 0.71802813 -0.17045891 -0.67481798 0.10622024
0.090605266 -0.04057879 0.42461747 0.94472837 0.22246885 0.24082357 0.040425524
0.099141628 -0.1574147 0.41802859 0.92039663 0.10182671 -0.37749344 0.04885174
0.12370399 -0.1897997 0.44805545 0.995915 -0.02599052 -0.086473994 0.089219227
0.047690265 -0.03699863 0.48447424 0.65612578 0.38007715 0.65195113 0.017942227
0.037203286 -0.12839414 0.54462934 0.27465895 0.53204423 0.80093163 0.047671501
0.0059108045 0.046282608 0.46188739 -0.12087425 0.55756176 0.82128817 0.054997802
-0.0093802568 0.0057049398 0.47943655 -0.13711403 0.33952621 0.93054909 0.028469242
0.037189521 -0.15064499 0.56485659 0.28236568 0.33968133 0.89715457 0.092241444
-0.055984408 0.017969927 0.45534202 -0.58999795 0.3844893 0.70997912 0.025104277
-0.044728551 0.020028492 0.457995 -0.51647335 0.38612249 0.76430666 0.027863251
-0.085941464 -0.073486023 0.45840639 -0.85462213 0.14331928 0.49907979 0.011494926
0.041462585 0.010548681 0.46171597 0.52964079 0.41020808 0.74243516 0.024293547
-0.057703841 0.039659057 0.44656473 -0.52437776 0.57305086 0.62979412 0.058270175
-0.049510561 0.04679912 0.44560865 -0.50010169 0.64486068 0.57797313 0.059773959
0.071739323 -0.012243605 0.44544601 0.73134845 0.32114974 0.60165805 0.01168166
0.01695421 0.03077447 0.46927699 0.12764089 0.44394878 0.88691449 0.014787489
0.0064779595 -0.022700069 0.49413449 0.061777283 0.41443884 0.907978 0.035938129
-0.092212506 -0.093546286 0.44776008 -0.87687653 0.12103681 0.46522856 0.011068681
0.031380977 0.00071451138 0.47110644 0.44545409 0.4550254 0.77105284 0.025665274
-0.036228523 0.0017199387 0.47005528 -0.36847058 0.31605273 0.87426549 0.026250644
-0.019060675 0.085165448 0.43601504 -0.28952602 0.95334083 0.085533544 0.047482204
0.031919334 -0.16592082 0.57998544 0.096482448 0.19239673 0.97656268 0.11536815
0.0045261742 0.087282024 0.43689656 -0.20780504 0.97776228 0.028247185 0.064438492
-0.069713689 -0.064330272 0.46832433 -0.79376435 0.18226214 0.58027464 0.011452149
-0.078686841 -0.039892536 0.44649684 -0.83828062 0.19496481 0.5091899 0.0094664302
-0.074288487 -0.042133771 0.45165744 -0.81863695 0.20635282 0.53595912 0.010014559
0.025206333 -0.15911016 0.56771946 -0.013763536 0.26319459 0.96464455 0.12085163
0.046475016 -0.05246545 0.4928501 0.65434545 0.37552524 0.65636325 0.017047606
0.01543802 -0.16740434 0.56946427 -0.23129053 0.1327087 0.96379101 0.1305822
0.023286069 -0.16121317 0.5699321 -0.051599767 0.23554187 0.97049344 0.11947273
0.062106799 -0.088790201 0.50131726 0.7237339 0.39500386 0.56584561 0.021027729
0.035553202 -0.1728203 0.56267524 0.3006227 0.019162614 0.95355064 0.15324073
0.042094611 -0.16603714 0.57965147 0.25735688 0.18287571 0.94885391 0.10697608
0.043808255 -0.15832254 0.5731107 0.33427727 0.2700406 0.90296006 0.094881199
0.061990757 -0.092191704 0.50391626 0.72048241 0.39660582 0.56886649 0.017743621
0.049383368 -0.1604338 0.57100403 0.41064778 0.24395381 0.87855273 0.090281315
0.027767688 -0.16152889 0.57213068 0.020024434 0.23117159 0.97270691 0.11415119
0.075794592 -0.1532748 0.54043293 0.68773007 0.24958327 0.68171513 0.063601606
-0.075208463 -0.044710401 0.45257756 -0.82448208 0.20166117 0.52873635 0.0092779277
0.07024198 -0.1303937 0.52581352 0.67347825 0.42805636 0.60265648 0.020271502
0.069886938 -0.072258629 0.48347172 0.75234205 0.33754781 0.5657233 0.025022557
-0.092951529 -0.1247239 0.44690186 -0.87543851 0.091551319 0.47457954 0.011435526
0.039211351 -0.13621889 0.54877758 0.33703434 0.46545437 0.81838876 0.055820696
-0.080269597 -0.11976826 0.4614107 -0.84914941 0.10684395 0.51723266 0.01099332
-0.014321794 -0.03548041 0.49087644 -0.2045773 0.36148143 0.90965891 0.025882656
0.039760426 0.0041849217 0.46556547 0.52718943 0.43451011 0.73025501 0.023183599
0.065378547 -0.16590576 0.56371719 0.58366424 0.14490786 0.79896045 0.090149596
-0.097682811 -0.10038598 0.43695468 -0.88752502 0.11043136 0.44733015 0.011238349
0.036653612 -0.12366308 0.54213566 0.28737396 0.52782691 0.79925907 0.045839921
-0.022208016 0.010836478 0.47282913 -0.24692097 0.2940774 0.92333555 0.030638954
-0.017830098 0.013136118 0.47361892 -0.21311826 0.31227666 0.92577738 0.031022426
-0.071193077 -0.1488272 0.48581684 -0.83767581 -0.026902918 0.54550487 0.027344195
-0.052877635 -0.14971942 0.51228213 -0.7786352 0.023080356 0.62705225 0.028615551
-0.065461136 -0.14488667 0.49438247 -0.81919515 0.032520615 0.57259208 0.018888844
-0.067815319 -0.15345196 0.49355033 -0.837327 -0.049163058 0.54448736 0.033497594
-0.071285762 -0.15686558 0.48719025 -0.84318805 -0.091660738 0.52974737 0.040510181
-0.061428145 -0.14782521 0.50211388 -0.80737972 0.025411567 0.58948463 0.024369393
-0.062765546 -0.17372939 0.50084454 -0.81779259 -0.18749893 0.54411346 0.069903851
-0.093933955 -0.10953797 0.44524044 -0.87628633 0.10596206 0.46999398 0.012036833
-0.084135368 -0.10750601 0.46032768 -0.85462701 0.11305041 0.50678617 0.011296284
-0.025612514 -0.17948838 0.55575413 -0.59886533 -0.10839809 0.79347974 0.059746057
-0.071791075 -0.071995638 0.47200352 -0.80114818 0.16194157 0.57613939 0.0083467187
-0.068231829 -0.020288406 0.4499422 -0.75905144 0.25669584 0.59828764 0.012194287
-0.049511902 -0.16803469 0.51927519 -0.77221394 -0.18565175 0.60763395 0.073562294
0.03253793 -0.14741936 0.56082737 0.23350282 0.36952081 0.89940578 0.096253999
-0.02429525 -0.18038505 0.55596346 -0.59758872 -0.12576748 0.79187763 0.063964464
-0.082787551 -0.10492496 0.46246392 -0.85362476 0.11391117 0.50828052 0.01106758
-0.073842391 -0.070132487 0.46870023 -0.81912541 0.16406839 0.54964989 0.010203948
0.019554529 -0.15854885 0.56377083 -0.12396974 0.27788469 0.95258158 0.12162951
-0.10634567 -0.022115307 0.39523774 -0.93801945 0.095297158 0.3332237 0.013697276
-0.092265368 0.0017985469 0.40791339 -0.85976386 0.27469885 0.43051904 0.0369794
-0.072972618 -0.044366285 0.4535327 -0.81897813 0.20845722 0.53462189 0.0097527299
-0.071773514 -0.066276245 0.46900269 -0.79871953 0.17813116 0.57473153 0.012395321
-0.072102614 -0.15526354 0.48565418 -0.84839785 -0.078694619 0.52347702 0.034381188
-0.067476712 -0.15557517 0.49405417 -0.83830994 -0.065251507 0.54127502 0.039207455
-0.064612344 -0.1620782 0.49854136 -0.82778519 -0.12441811 0.54707563 0.056265421
-0.063146703 -0.15499397 0.50071311 -0.82250243 -0.056330681 0.56596512 0.041671157
-0.058423728 -0.15244457 0.50691265 -0.80684024 -0.011962636 0.59064847 0.033666261
-0.019737313 0.010302988 0.47442454 -0.24529465 0.31396949 0.91719884 0.031625167
-0.048273779 -0.082039006 0.51076579 -0.5180918 0.31562638 0.79495966 0.015751872
-0.0065407162 0.035815131 0.47436851 -0.053199664 0.45934084 0.88666564 0.019941691
-0.01817375 0.012343872 0.47437295 -0.21269622 0.31592399 0.9246363 0.031602293
-0.03141747 -0.12612651 0.52222973 -0.54100466 0.34253442 0.7681042 0.01696118
0.033683963 -0.14645965 0.56054419 0.24189393 0.37367183 0.89546454 0.093200475
0.032922544 -0.15150872 0.56502497 0.25403112 0.33162755 0.90856558 0.09666425
-0.017261736 -0.13830122 0.5429191 -0.4947331 0.38907394 0.77708471 0.022192832
0.014476433 -0.16794717 0.56964397 -0.2558524 0.10503055 0.96099335 0.13070196
-0.076016471 0.064522162 0.41717586 -0.51635265 0.81213909 0.27167991 0.064926952
0.033849247 -0.010238409 0.47865322 0.49395886 0.44783112 0.74528652 0.022293799
0.047910601 -0.011355248 0.47283655 0.56765217 0.42409897 0.7056281 0.019703813
0.04440695 -0.017073227 0.47771356 0.56065512 0.42964515 0.70786357 0.019282857
0.044823822 0.084147751 0.43302962 -0.041396223 0.9982264 0.042783413 0.13973039
0.042888485 -0.044207763 0.49051744 0.65115947 0.37732515 0.65849614 0.018520474
0.03869386 -0.073547408 0.50806111 0.58731288 0.39639208 0.70564646 0.018203795
0.038828854 0.00945199 0.46290582 0.50939888 0.43034708 0.74519408 0.026287314
0.047378484 -0.040780392 0.48630801 0.65491319 0.37834311 0.65417522 0.018986845
0.027676964 -0.049536161 0.50047511 0.48818853 0.41070715 0.77005947 0.022829557
0.07902468 -0.060588427 0.46475634 0.80569011 0.29381555 0.51433045 0.030698044
0.039888203 0.093367867 0.42086384 -0.10007016 0.98396349 -0.14765432 0.073599853
0.065870352 -0.063862443 0.48308548 0.74555492 0.34542519 0.56993794 0.024428504
0.053558964 -0.078652069 0.50259167 0.69457662 0.37455079 0.61422712 0.018281527
0.019718027 0.078698255 0.38689962 -0.1327928 0.96840304 -0.21109611 0.027704732
0.016118793 0.066347353 0.34475625 -0.10795093 0.95247233 -0.28485608 0.016921803
0.031859785 -0.14560576 0.556364 0.18992051 0.40390649 0.89486861 0.087622344
0.019829761 -0.15512721 0.55849338 -0.079652645 0.30920109 0.94765508 0.12497412
0.019359533 -0.073768504 0.51575756 0.11844981 0.41953626 0.89997721 0.047297828
0.051994849 -0.11198802 0.52412421 0.53784966 0.45097402 0.71227813 0.025134856
-0.013469759 0.075641766 0.40114447 -0.21572515 0.961496 -0.17025928 0.016663838
-0.014238041 0.086070001 0.44158056 -0.28160143 0.94578105 0.16186003 0.052823454
0.0041320771 0.045615766 0.46339241 -0.1249301 0.55274028 0.82393605 0.054339394
0.046906408 -0.039298303 0.48596323 0.65438712 0.37743521 0.65522516 0.019285018
0.099821232 -0.19298822 0.52967405 0.82146442 -0.23262103 0.520657 0.11746452
0.1161476 -0.20395708 0.48938617 0.90689909 -0.30659139 0.28902543 0.12195661
0.063399538 -0.053734977 0.48015273 0.72097522 0.3455871 0.60063654 0.022053309
0.093612298 -0.18417402 0.54630697 0.7442174 -0.055628594 0.66561699 0.088212468
0.069782443 -0.047275528 0.46984053 0.73248243 0.33173966 0.59448999 0.022028152
0.025781313 -0.078751951 0.51554739 0.25814247 0.38336661 0.88678783 0.046111498
0.061337531 0.065354042 0.31328449 0.1891789 0.89095217 -0.41281408 0.10583014
0.052913293 0.083740562 0.42803028 0.022502672 0.99932241 -0.029126054 0.13890027
0.037363749 0.064815573 0.31982067 0.0092360079 0.93856734 -0.34497237 0.066998556
0.041452706 -0.056574024 0.49785155 0.63622594 0.37725917 0.67297256 0.015815735
0.033338122 -0.0099185882 0.47854885 0.49395886 0.44783112 0.74528652 0.022293799
0.055973869 -0.040774137 0.47980273 0.6897257 0.36095765 0.62768477 0.020939365
0.10968869 -0.2066143 0.49938181 0.86529416 -0.35365632 0.35523695 0.12834844
0.058761105 0.09030699 0.41259536 0.012677474 0.98610115 -0.16566145 0.095722497
0.093656622 -0.19547896 0.38910535 0.80743843 -0.15143876 -0.57018369 0.08839611
0.079786338 -0.00037931648 0.42296997 0.88183469 0.25348759 0.39763251 0.037715409
0.019964289 -0.029508743 0.49497926 0.3651292 0.44663981 0.81681913 0.02637003
0.0041453186 0.057509009 0.45493338 -0.197605 0.65627897 0.72818279 0.076623909
0.060989209 0.049790323 0.43036976 0.59645301 0.5389322 0.59480745 0.12700535
0.060766865 0.087466508 0.38703904 0.050528549 0.96981055 -0.23856735 0.072881661
0.074937202 -0.070918106 0.47651285 0.77462173 0.3311353 0.53880477 0.0255538
0.12048978 -0.19788454 0.47642195 0.96188384 -0.20695162 0.17874716 0.10975924
0.054933485 0.091539502 0.41519666 -0.024839832 0.98642111 -0.16234706 0.087779455
0.030526565 0.093321353 0.42599466 -0.14117593 0.98620063 -0.086473331 0.07604751
0.037752751 0.089728191 0.43112865 -0.11143488 0.99126816 -0.070495725 0.094096191
0.079480156 -0.17503561 0.56428677 0.63504183 0.10405598 0.76543719 0.07874871
0.051831182 0.085125536 0.38408679 0.0030516915 0.969019 -0.24696742 0.060880475
0.039463501 0.066856779 0.32584572 -0.020845618 0.9498589 -0.31198335 0.050376479
0.11157944 -0.20095024 0.50149566 0.90771508 -0.1933057 0.37240595 0.12137868
0.05424609 0.049665343 0.43767014 0.54110253 0.52505624 0.65690494 0.11567017
0.08932361 -0.088346668 0.45261192 0.9176755 0.32295591 0.23145449 0.031487536
-0.029962417 0.057674125 0.33998656 -0.17066129 0.96046746 -0.21994779 0.0015344097
0.065778196 0.057193406 0.42383701 0.62836915 0.6050573 0.48893556 0.15587193
0.046215955 0.085603811 0.4308134 -0.05751523 0.99803501 -0.024863718 0.12421396
-0.053033017 0.012486847 0.45677769 -0.57338202 0.35238543 0.73963338 0.019270357
-0.036314249 -0.13246851 0.52042341 -0.57441783 0.30472749 0.75972712 0.021379275
0.079461202 -0.13083373 0.5103038 0.78390658 0.41255468 0.46399266 0.01625766
0.0549962 -0.16652419 0.57725215 0.46841773 0.18213981 0.86452866 0.091302775
0.026520869 -0.040852971 0.49697408 0.47677925 0.42884186 0.76731753 0.018948177
0.020321954 0.049821377 0.27756065 0.031098625 0.88701802 -0.46068636 0.09121643
0.068892188 0.083471686 0.37187782 0.10759199 0.9632163 -0.24624859 0.064492583
0.11922074 -0.20443119 0.48314312 0.91825622 -0.3139044 0.24139093 0.11614431
0.12500946 -0.20349573 0.45738569 0.97316116 -0.22955246 0.016217217 0.10135096
0.08038751 -0.15343183 0.38272715 0.81409258 0.049270838 -0.5786413 0.05054462
0.1217683 -0.20764865 0.46980193 0.94319457 -0.30582219 0.12983358 0.11024468
0.10791171 -0.15281233 0.44789284 0.98261696 0.17953102 -0.047249466 0.04229736
0.093096025 -0.112509 0.42810744 0.97146308 0.21927689 -0.090427794 0.027526671
0.08938536 -0.15036561 0.51448822 0.83083421 0.25351933 0.49542144 0.052269906
0.077847101 0.077478334 0.36586767 0.27047732 0.93292469 -0.2376837 0.082448423
-0.020332282 0.064814098 0.35732287 -0.19042546 0.95425051 -0.23052992 0.00173667
0.074953973 -0.09155976 0.48701504 0.77796239 0.35935578 0.51540077 0.022910647
0.02322254 0.090369448 0.43327653 -0.16785184 0.98511344 -0.037112352 0.073622778
0.058849834 0.073705681 0.42543161 0.46603742 0.81354225 0.34779033 0.19073953
0.06731534 0.064009234 0.41969612 0.61210853 0.70021778 0.36744812 0.17315304
0.0097254645 0.05393156 0.29410741 -0.030339332 0.93621171 -0.35012454 0.066284619
0.020411242 0.044682559 0.45806843 -0.0097848773 0.55323482 0.83296794 0.060722519
0.016275296 0.086383931 0.43971369 -0.18836124 0.98132628 0.03897186 0.078063689
0.051737264 0.074725024 0.4319869 0.30157211 0.89569831 0.3267701 0.19982278
0.012215668 0.058032423 0.45211664 -0.17430873 0.68166864 0.71059436 0.088606022
0.084302627 -0.072193384 0.45951778 0.8559019 0.30563766 0.41715407 0.028016377
0.080590814 0.028982446 0.41615424 0.87787759 0.28220296 0.38690117 0.03633257
0.10863158 -0.20945084 0.41562435 0.88875139 -0.30935207 -0.3382636 0.11306309
0.079307951 -0.00084922579 0.42092654 0.91641563 0.22978008 0.32769412 0.046508852
0.048993126 -0.17242724 0.3543669 0.64780569 -0.13691942 -0.74940038 0.10582966
0.12438542 -0.20044562 0.45898035 0.98227155 -0.18530986 0.028334269 0.10017248
0.10914566 -0.1627676 0.46445528 0.98612058 0.14188957 0.08621905 0.06589099
0.10831223 -0.15745322 0.4591181 0.98389333 0.17348218 0.043102551 0.053650223
0.082355887 -0.20617655 0.38049325 0.69813514 -0.32594636 -0.6374687 0.12523839
0.11798123 -0.18079343 0.45311925 0.99856824 0.04715471 -0.025256487 0.08089637
-0.0071032858 0.045885738 0.27278486 -0.062982604 0.91612399 -0.3959167 0.072677076
0.079783745 0.044309717 0.38767964 0.84129965 0.53899908 -0.041168496 0.1186689
0.071072109 0.035075862 0.34013826 0.81370431 0.30743641 -0.49332359 0.13962196
0.083705179 0.010544511 0.40535212 0.99013299 0.025419001 0.13780642 0.046471726
0.089874409 -0.084448561 0.44730437 0.92545986 0.3142426 0.21160245 0.032193765
0.038456485 -0.060677078 0.3166694 0.66359818 -0.21014951 -0.71796566 0.010212711
0.092399545 -0.1995329 0.38677198 0.77624339 -0.21569751 -0.59238565 0.098907687
0.11954635 -0.20856185 0.42765757 0.93672103 -0.23415202 -0.26024312 0.10606959
0.082592942 -0.10272221 0.38270712 0.88967109 0.078962892 -0.44972229 0.022950577
0.090149708 -0.13304724 0.39289999 0.85400409 0.16207515 -0.49437699 0.02187988
0.045664124 0.061435603 0.30716008 0.10335403 0.90701681 -0.40821368 0.093867421
0.061996747 -0.03156504 0.34424099 0.8416723 -0.14872752 -0.51910287 0.015684951
0.098236524 -0.19339292 0.53202552 0.80805171 -0.2333094 0.54094279 0.11599849
0.075103223 -0.10049326 0.42537609 0.96317381 0.24351019 -0.11401259 0.038033176
0.095245846 -0.12024197 0.4376933 0.97086722 0.23850845 -0.023032578 0.028053975
0.08438956 -0.16137898 0.53493154 0.7515834 0.19140065 0.6312592 0.069620706
0.093534485 -0.20339906 0.38934612 0.78704715 -0.223561 -0.57495838 0.098465309
0.095621847 -0.1173474 0.45003819 0.9584235 0.27325249 0.082203791 0.025860259
0.089909732 -0.14649855 0.39723372 0.85976988 0.11461315 -0.49765402 0.035713311
0.015777517 -0.13309282 0.33378389 0.53337938 -0.18115263 -0.82625067 0.0082813343
0.047951259 -0.093872085 0.34485635 0.68735337 -0.12796265 -0.71496212 0.01066625
0.084702283 -0.11869869 0.38535312 0.85304809 0.12976149 -0.50544143 0.024082327
0.099697232 -0.15257193 0.41980562 0.92457795 0.12793452 -0.35887089 0.043655459
0.1073733 -0.15708546 0.44316635 0.98509502 0.15014051 -0.083938785 0.052834079
0.095239483 -0.14824477 0.49949867 0.88133317 0.26233718 0.39297715 0.047384687
-0.016751777 0.074567549 0.4002395 -0.21883629 0.96015066 -0.17384268 0.014961883
0.085313722 -0.088300727 0.39040813 0.92979068 0.10559637 -0.352617 0.02248018
0.078856379 0.074595638 0.35224599 0.20191821 0.93098128 -0.30414289 0.075822614
0.070766643 0.071904875 0.32593641 0.078151166 0.92903286 -0.36164945 0.0779422
0.064722046 -0.029272538 0.34811193 0.86371666 -0.14609188 -0.48233879 0.017713306
0.036079984 -0.074901275 0.32334566 0.64237207 -0.16811024 -0.74772793 0.010628723
0.097104564 -0.12429057 0.44424209 0.96570122 0.25891715 0.019573035 0.026374595
0.013506278 0.059808373 0.31931382 -0.05935942 0.94638062 -0.31755352 0.047162015
0.091178916 -0.095184982 0.438591 0.95481247 0.27754647 0.10630613 0.02904091
0.085450381 -0.062297322 0.45135701 0.86442471 0.27108687 0.42341682 0.0276489
0.071716286 -0.037311357 0.364048 0.89548057 -0.099031582 -0.43394375 0.01918532
0.062192593 -0.1325359 0.35589406 0.71924222 0.0040010731 -0.69474792 0.015626235
0.047434058 -0.16074729 0.57508463 0.37761223 0.24389379 0.89326638 0.092207603
0.034285475 -0.1508552 0.56495756 0.2690568 0.3397961 0.90119201 0.094921425
0.085757747 -0.071307085 0.4556362 0.86698449 0.28486151 0.40889105 0.02667328
0.029250594 0.063959099 0.32328755 -0.030341407 0.94515187 -0.32521904 0.054746047
0.021541597 0.051533338 0.28338453 0.021958694 0.90949953 -0.41512462 0.085854702
0.06290736 0.068023682 0.32069823 0.11318798 0.91956067 -0.3762933 0.091841973
0.031347074 0.036873244 0.2847017 0.28711757 0.70627129 -0.64710468 0.14357625
0.049906895 -0.065354221 0.33591101 0.66500694 -0.18073851 -0.72463739 0.0096191773
0.049199868 0.058340065 0.30009469 0.18051164 0.85550249 -0.48531532 0.11323405
0.026947837 0.05968149 0.30643895 -0.010875992 0.93362921 -0.35807547 0.068173975
0.10419151 -0.15773849 0.48810053 0.93654746 0.19824566 0.28909788 0.062565573
0.091858797 -0.17392884 0.53534132 0.77979153 0.098869197 0.6181829 0.086426102
0.053355906 -0.031096062 0.33073902 0.73330206 -0.18405633 -0.65451622 0.0064268359
0.077188462 -0.20180553 0.3735117 0.70842242 -0.28916094 -0.64383519 0.12892477
0.063314565 -0.15937701 0.36092547 0.70920116 -0.026169285 -0.70452034 0.060834009
0.033013515 -0.16179368 0.57422763 0.098340705 0.23477371 0.96706277 0.11433012
0.10664462 -0.15025623 0.46048725 0.97659731 0.20731372 0.05725928 0.039646491
0.10827427 -0.1997778 0.50841641 0.89523202 -0.19927858 0.39855689 0.12541489
0.066769168 -0.15041111 0.36440337 0.72879225 0.018899994 -0.68447399 0.039439738
0.10522717 -0.15162134 0.47131556 0.96512097 0.21097916 0.15501358 0.045385137
0.010234273 0.051487863 0.28536552 -0.032428879 0.91991591 -0.39077243 0.080970585
0.030004509 0.054874636 0.2920337 0.045717154 0.91117489 -0.40947556 0.094098888
-0.024434896 0.04997503 0.29235402 -0.10007709 0.93785936 -0.33227158 0.045672689
0.10182811 -0.15376583 0.42696011 0.94479054 0.12294104 -0.30373737 0.045638774
0.048224561 -0.096305937 0.34564388 0.68706006 -0.12761363 -0.7153064 0.010293772
0.048555207 0.074096978 0.34424734 -0.042337909 0.94849944 -0.31393698 0.030471195
0.067481093 -0.028266763 0.35235947 0.89548743 -0.15250875 -0.4181428 0.020492408
0.079321176 -0.059181072 0.46320185 0.81127423 0.29221556 0.50640315 0.029617036
0.10936105 -0.18098685 0.50452554 0.92347676 -0.028835401 0.38256913 0.10668439
0.0955773 -0.14428438 0.40764764 0.8841514 0.15281269 -0.44150254 0.031122401
0.092045277 -0.10888322 0.40886912 0.92082936 0.19820839 -0.33583739 0.022116568
0.089296803 -0.17613102 0.38761431 0.83002251 -0.050598104 -0.55543 0.076380797
0.046149325 0.07826481 0.36450994 -0.044584662 0.96219218 -0.26869744 0.032681096
0.071404397 0.081623442 0.36444923 0.11027309 0.95811611 -0.26429757 0.061059147
0.11225545 -0.20717855 0.4931142 0.87964326 -0.37238595 0.29589954 0.13006181
0.058223709 -0.16419715 0.3566421 0.69277716 -0.061654966 -0.71851128 0.076956838
0.005024516 0.054611467 0.29886377 -0.052304085 0.93965918 -0.33809006 0.057561118
0.027752146 -0.14225416 0.34280753 0.61072767 -0.1012904 -0.78533554 0.026582273
0.030111028 -0.057822846 0.30906591 0.66155046 -0.21008974 -0.71987033 0.010535646
0.11440586 -0.17701048 0.46620101 0.99221307 0.065774716 0.1057679 0.085618287
0.070460111 -0.13397273 0.36863813 0.75954729 0.075112358 -0.6461007 0.021850623
0.072974287 0.083016358 0.40416074 0.2496769 0.95916581 -0.13289988 0.12898855
0.10689008 -0.1643431 0.42833689 0.95605648 0.084425047 -0.28076398 0.058787934
0.094292723 -0.12018674 0.41065115 0.91342205 0.18693505 -0.36154589 0.022048026
0.052608315 0.092712589 0.41219559 -0.041418042 0.98517221 -0.1664941 0.079803176
0.044760611 -0.045387395 0.49012035 0.65080839 0.37819424 0.65834445 0.018383669
0.065250359 -0.15421373 0.36252505 0.7091018 -0.0081204297 -0.70505935 0.04578178
0.082910299 -0.16002248 0.53576195 0.74800187 0.19049068 0.63577241 0.068996415
0.091896683 -0.074763596 0.43800211 0.94165337 0.22797017 0.24762581 0.033389419
0.10306282 -0.12415968 0.38062498 0.85909152 0.1533668 -0.48830351 0.018798696
0.078154609 -0.13329612 0.51424491 0.76692444 0.40441233 0.49827453 0.020617817
0.060759868 0.067887947 0.32205328 0.089852676 0.92711282 -0.36385214 0.087726474
-0.0012305424 0.049094066 0.26488432 -0.018118992 0.89387035 -0.44795927 0.088135906
0.061669592 0.073054172 0.33664539 0.0067775864 0.94154042 -0.33683187 0.050229106
0.042014737 0.038718954 0.29349136 0.49160656 0.46602255 -0.73562622 0.15529081
0.058293324 -0.13911104 0.3537738 0.70935094 0.014525897 -0.70470572 0.017004589
0.030171877 -0.092392154 0.32741597 0.63597286 -0.14841574 -0.7573052 0.010163161
0.087331332 -0.15485619 0.3951686 0.85566723 0.048893649 -0.51521158 0.052661829
0.080004476 0.080055647 0.36995861 0.3097111 0.92676365 -0.21257491 0.082836986
0.011299924 -0.1260041 0.33740491 0.53033906 -0.1957863 -0.82486868 0.0079612518
0.10786906 -0.15665424 0.46157759 0.98142153 0.17956525 0.067587979 0.051177692
0.015545409 0.074635357 0.37604445 -0.11818527 0.96385759 -0.23876913 0.023070069
0.074148081 -0.016617613 0.44627109 0.74802995 0.31006712 0.58677888 0.010887777
0.052360676 0.075750634 0.34997824 -0.021096896 0.95313513 -0.30180833 0.032566253
0.087870315 -0.15838172 0.39262891 0.84788275 0.036225244 -0.52894485 0.055642802
0.078357942 -0.16249028 0.37802821 0.79809391 -0.013315967 -0.60238582 0.065042831
0.072860777 -0.14741135 0.37302685 0.76499397 0.049943827 -0.64209789 0.034650989
0.12064604 -0.18282948 0.45185551 0.99862289 0.033119339 -0.040687036 0.080865726
0.097492978 -0.13362128 0.43042785 0.94981384 0.24785361 -0.19084612 0.027016303
0.087595269 -0.090862334 0.43177921 0.95952982 0.26992151 0.080281205 0.030678254
-0.047219105 0.047902651 0.30148619 -0.14679696 0.95390606 -0.2617518 0.021020748
-0.065314718 0.0616492 0.38605949 -0.35228619 0.93384844 -0.061818033 0.044668641
0.0079859644 0.05826392 0.31684718 -0.060345981 0.94723254 -0.31481567 0.046762001
-0.022641262 0.071049377 0.38922873 -0.2276351 0.95059901 -0.21105406 0.0091943927
-0.067684285 0.056549668 0.36516684 -0.3353284 0.93730712 -0.094922416 0.042731419
-0.087572262 0.039810263 0.30303285 -0.32201731 0.91840082 -0.22987981 0.056123622
-0.02990523 0.055706892 0.33357611 -0.16248915 0.96001458 -0.22796781 0.0027616064
-0.084647387 0.053994928 0.37195858 -0.47131822 0.88194573 -0.0055527394 0.062447228
0.0041507813 0.078312486 0.39573452 -0.17121296 0.96832329 -0.18175834 0.02830264
0.00076081249 0.076071121 0.39167646 -0.17387883 0.96725208 -0.18490416 0.025669377
-0.083325706 0.040028557 0.3005175 -0.28552407 0.92916125 -0.23480922 0.048732862
-0.099760771 0.048133731 0.35115013 -0.55974019 0.82622486 -0.063585892 0.074474148
-0.084322684 0.04705888 0.33071163 -0.33931267 0.92237633 -0.18463106 0.04396316
-0.022908812 0.050108023 0.29251969 -0.10053984 0.93724567 -0.33385977 0.04451409
-0.006687474 0.070213914 0.37262177 -0.20030829 0.94950116 -0.24150386 0.002863328
-0.053696994 0.054054871 0.34051162 -0.21726665 0.95622361 -0.19603994 0.0098224944
-0.045169208 0.038687758 0.26640087 -0.12408511 0.94279921 -0.30940679 0.043617304
-0.012366279 0.043718129 0.26695248 -0.060847871 0.9103418 -0.40935984 0.077478729
-0.026958745 0.066495672 0.36771923 -0.20616232 0.95162666 -0.22782402 0.002570359
-0.04690956 0.052945346 0.33203503 -0.19257806 0.95882815 -0.20871586 0.0042248443
-0.09145347 0.051385496 0.35302511 -0.47880995 0.87406433 -0.082174197 0.064901799
0.018151775 0.073827922 0.37079462 -0.10773945 0.96152312 -0.25271627 0.019916201
-0.053252622 0.038492348 0.26939684 -0.13228171 0.94418633 -0.30168483 0.040778998
-0.07417313 0.038631372 0.28467602 -0.22768348 0.93641967 -0.26698023 0.046140905
0.035122231 0.083183207 0.38812599 -0.081447683 0.9686901 -0.23453303 0.04031409
0.010095303 0.076449305 0.38692906 -0.15117051 0.96684909 -0.20579199 0.025543842
-0.10200958 -0.10820887 0.42213583 -0.91048765 0.078841433 0.40595111 0.010485125
-0.09228795 0.049290583 0.34393951 -0.46000671 0.88119882 -0.10900619 0.067233682
0.01310254 0.071774736 0.36615908 -0.12879583 0.95662737 -0.26129627 0.011205888
-0.080076419 0.05306796 0.3513335 -0.40296984 0.90907234 -0.10584362 0.055339918
0.023715213 0.090547577 0.41172507 -0.14253187 0.97677046 -0.16001344 0.047672283
0.052852783 0.092544466 0.41275114 -0.041409247 0.98516214 -0.16655569 0.08040794
-0.017062202 0.057160832 0.33156651 -0.1423333 0.95827472 -0.24789296 0.0087876506
0.0071579656 0.054606371 0.29713935 -0.040169109 0.93891257 -0.34180346 0.061915766
-0.099195383 0.044775531 0.32728738 -0.41997945 0.88834435 -0.18563847 0.062183961
-0.068534024 0.055936895 0.36348459 -0.34181276 0.9344781 -0.099572994 0.044269402
-0.035566654 0.074664727 0.41395983 -0.30545723 0.95198828 -0.020351034 0.036840502
-0.021667149 0.069690913 0.38011453 -0.21996599 0.94792432 -0.23033547 0.0049843579
0.042489339 0.093714401 0.41707006 -0.091232225 0.98286384 -0.16017276 0.070927069
0.058928721 0.084732309 0.37748274 0.035588276 0.96925455 -0.24347328 0.060374532
-0.058411341 0.03805425 0.27092052 -0.13620993 0.94763446 -0.28885257 0.03555271
-0.042392336 0.041109178 0.27230787 -0.11862341 0.94129556 -0.31605569 0.044978585
0.034126539 -0.061526939 0.313393 0.65925437 -0.20960066 -0.72211576 0.010841781
-0.093397483 0.039403375 0.30452868 -0.35465214 0.90600073 -0.23105097 0.061318249
-0.095985018 0.038515896 0.30243966 -0.3569178 0.90480804 -0.23223321 0.06434501
-0.074913695 0.035885166 0.28168309 -0.24572538 0.92211998 -0.29885411 0.059899818
-0.070668153 0.036283366 0.27840781 -0.20632483 0.93070745 -0.30201614 0.059863213
0.0013170115 0.066834822 0.35503095 -0.16192007 0.94976842 -0.26780954 0.0055377958
-0.081562549 0.033112988 0.28380173 -0.29968539 0.8989355 -0.31953672 0.063882574
0.062793933 0.087708704 0.39008817 0.074846677 0.96820295 -0.23870681 0.078617364
-0.073366836 0.05885471 0.38165176 -0.39797992 0.9168812 -0.030672746 0.058441624
-0.003444589 0.055760346 0.31338105 -0.094151229 0.94783211 -0.30454862 0.03808862
0.014541854 0.075982377 0.38158336 -0.13367881 0.96608078 -0.22094807 0.023290547
0.056173537 0.090230785 0.40146831 -0.013797245 0.97954702 -0.20074165 0.079817899
-0.00042718661 0.069703557 0.36666408 -0.1889984 0.94989783 -0.24894516 0.001936011
0.071916662 0.08460106 0.38280034 0.21574588 0.95383275 -0.20894177 0.090732731
0.0063109715 0.070284545 0.36516219 -0.15503843 0.95297521 -0.26038662 0.0070280167
-0.01645302 0.064131849 0.35358542 -0.18336517 0.95535934 -0.23165874 0.0016658589
0.011923525 0.084999427 0.40714347 -0.15825909 0.97523367 -0.15450992 0.037600718
-0.011460964 0.051664565 0.29519477 -0.093384095 0.93879807 -0.3315683 0.047068756
0.025941977 0.093510695 0.4221755 -0.157795 0.98185849 -0.10514119 0.059216287
0.039137453 0.093649156 0.41891587 -0.099694997 0.98304373 -0.15390255 0.069965132
0.037515294 0.093973264 0.42005011 -0.10299356 0.98306429 -0.15158144 0.071697123
0.043776654 0.093105771 0.40849009 -0.089234926 0.97962648 -0.1799143 0.060179148
-0.09563487 0.041394204 0.3126401 -0.36451218 0.90458512 -0.22103556 0.058077227
-0.10569378 0.045051094 0.34860381 -0.64202005 0.76507789 -0.049659465 0.080490731
-0.068357274 0.038538177 0.28128552 -0.19682872 0.93451273 -0.29655451 0.0553542
0.022024931 -0.074419759 0.3148154 0.64596945 -0.18691683 -0.74012536 0.012557817
-0.0092569031 0.074450336 0.39292082 -0.20311789 0.96000701 -0.19269058 0.01503446
-0.010686929 0.054655585 0.31382343 -0.10583932 0.94794536 -0.30032939 0.034835685
0.012510214 0.09002462 0.42467326 -0.17894237 0.9817813 -0.063915722 0.054839499
0.039523568 0.094128989 0.41844586 -0.099694997 0.98304373 -0.15390255 0.069965132
0.005085804 0.086413555 0.41739616 -0.18091375 0.9795801 -0.087709859 0.048047435
0.021979403 0.092518561 0.42942563 -0.16968685 0.98390061 -0.056088407 0.068409048
0.0063156076 0.087854527 0.42394245 -0.18425819 0.9808799 -0.062638365 0.053881649
0.017837355 0.091347151 0.42017943 -0.16787995 0.97978187 -0.10882942 0.04899995
-0.069596551 0.062278286 0.39824995 -0.41406012 0.90872413 0.052675355 0.059810821
-0.089712575 0.038152251 0.29821017 -0.32038954 0.91647828 -0.23962069 0.058072228
-0.079532571 0.036488406 0.28719655 -0.27719992 0.91568583 -0.29099771 0.057367265
-0.0082180155 0.045216724 0.27133569 -0.062413156 0.91525954 -0.39800078 0.074355267
-0.033492226 0.0675705 0.38076022 -0.23079623 0.95031393 -0.2088933 0.0089984965
-0.096189983 -0.014858198 0.33326477 -0.97865462 0.017925618 -0.20472859 0.041366838
0.0068226922 0.088752873 0.42969659 -0.18434803 0.98151338 -0.051450446 0.05590421
0.061106127 0.089409597 0.40002477 0.028119972 0.98117673 -0.19105388 0.092930295
-0.0091088638 0.068472385 0.36635259 -0.20124754 0.94817066 -0.24591017 0.001800088
0.019104997 -0.069372118 0.30978352 0.63850045 -0.21078157 -0.74019468 0.010999716
-0.031518314 0.067031085 0.37516424 -0.22011358 0.95027423 -0.22029284 0.0055976408
-0.10647901 0.0045954417 0.37105757 -0.96912354 0.23040017 0.087837473 0.06214308
-0.076474667 0.040531494 0.29684058 -0.24656811 0.93744749 -0.24575695 0.041706651
-0.044133876 0.054599859 0.33961934 -0.19670968 0.95893848 -0.20430936 0.0040440168
0.024630727 0.052957274 0.2764695 0.043036785 0.87840921 -0.47596759 0.094112895
0.026602559 0.093571424 0.42667821 -0.15873747 0.98407787 -0.079957284 0.069791831
-0.050631817 0.040713441 0.27540922 -0.1333428 0.9450531 -0.29848683 0.037366893
-0.056077197 0.069143407 0.41453299 -0.37386009 0.92434126 0.076301582 0.049701218
-0.058028687 0.069613107 0.42089573 -0.3958329 0.90420383 0.16041064 0.056056343
-0.010957832 0.076134905 0.40087497 -0.20653871 0.96426463 -0.16593829 0.020654004
-0.052460209 0.07157404 0.42131576 -0.38161799 0.9155938 0.12671162 0.053160477
-0.046420202 0.070751697 0.41224402 -0.33519101 0.94213003 0.0061612874 0.04261256
-0.051362619 0.069254346 0.4091402 -0.35031465 0.93642658 0.019621944 0.046633653
-0.051266585 0.067056395 0.39948237 -0.33587518 0.94095153 -0.042403445 0.041956615
-0.095074743 0.040500261 0.30908108 -0.3659744 0.9017598 -0.22998264 0.059434377
-0.10660437 0.043780293 0.33917084 -0.56604743 0.81628948 -0.11515971 0.079617545
-0.10603084 -0.054318964 0.38737813 -0.9709329 0.11735617 0.20860685 0.01725933
0.064735509 0.06811583 0.32376301 0.11099048 0.9194411 -0.37723881 0.090997547
-0.047633156 0.040122215 0.27117768 -0.12969384 0.94343907 -0.30512652 0.040904175
-0.10009966 -0.077809818 0.42365164 -0.89171314 0.13978073 0.43047526 0.011152535
-0.099824697 -0.10598453 0.43003854 -0.89083385 0.10535138 0.441946 0.011684991
-0.0968602 -0.10916167 0.4386777 -0.88943076 0.10451551 0.44496009 0.011433091
-0.10564011 -0.074658632 0.37840447 -0.99645799 0.059577439 0.059346385 0.015292876
-0.10339338 -0.078196831 0.39525783 -0.9424237 0.11376934 0.31447434 0.011664753
0.025635097 -0.16841635 0.57810384 -0.029803118 0.16282932 0.98620403 0.1210556
-0.10245936 -0.0077130827 0.38501105 -0.9413783 0.19341293 0.27640247 0.038465556
-0.10394976 -0.074543603 0.39676902 -0.93285185 0.12552339 0.33768526 0.012647076
-0.10399927 -0.11658818 0.39588422 -0.96846157 -0.0163306 0.24862708 0.0092151538
-0.092769757 -0.093817063 0.44690165 -0.87719291 0.11933076 0.46507287 0.011032976
-0.083719447 -0.1061981 0.46100438 -0.85456145 0.11278716 0.50695544 0.011259346
-0.052050482 -0.1682484 0.51630723 -0.77568781 -0.18685767 0.60282063 0.073259652
-0.0093226749 -0.18035339 0.56402421 -0.52272999 -0.070470542 0.84958059 0.089124374
-0.10398771 -0.046175301 0.40169728 -0.93117893 0.14784721 0.3332372 0.014135868
0.004203991 -0.17723195 0.57086784 -0.41837731 -0.0020871616 0.9082709 0.11150324
-0.070031211 -0.16715677 0.48838031 -0.83846951 -0.14736299 0.52464563 0.057261217
-0.075082518 -0.1764466 0.475281 -0.86850262 -0.25195575 0.42687407 0.066589735
0.0020615549 -0.18311583 0.57561696 -0.39908487 -0.095106207 0.91196823 0.12107323
-0.074294709 -0.13459715 0.47547686 -0.83211625 0.10882102 0.54382032 0.011429099
-0.059628889 -0.18196435 0.50617248 -0.78153098 -0.2763527 0.55931967 0.085395202
-0.101386 -0.086428404 0.41625848 -0.90437829 0.12841074 0.40695286 0.010899734
-0.0047622472 0.04931182 0.28447056 -0.068673871 0.92774248 -0.36684844 0.066120751
0.0046837223 0.087443739 0.42539385 -0.18724006 0.98053133 -0.059155244 0.053902231
-0.070492774 -0.05540676 0.46275151 -0.80774188 0.19208105 0.55736697 0.011695133
-0.052831177 -0.15371363 0.5130344 -0.7852878 -0.0026929264 0.61912513 0.037170421
-0.072916113 -0.017901763 0.44437993 -0.76960033 0.24284121 0.59054512 0.013422286
0.014896585 0.061569218 0.32636806 -0.069495887 0.94902372 -0.30744821 0.043086439
-0.071992002 -0.18286766 0.47923729 -0.85040325 -0.32497224 0.41377208 0.08000312
-0.04640932 -0.18433395 0.52333331 -0.71479964 -0.32035536 0.62163824 0.087077193
-0.09431541 0.015708959 0.40207714 -0.82015145 0.37135419 0.43525586 0.047999173
-0.083032429 -0.17094125 0.45577756 -0.91097432 -0.22511679 0.34561265 0.043791369
0.0053798743 0.062587976 0.33838716 -0.11477734 0.95451832 -0.27517462 0.019016022
-0.099853508 -0.078719221 0.42393664 -0.8918969 0.14060248 0.42982665 0.011287594
-0.090845294 -0.016756259 0.33346379 -0.97752154 0.0118993 -0.21049948 0.041357841
-0.05795154 -0.081865624 0.48041582 -0.75130516 0.2051855 0.62724763 0.010734618
-0.066402726 0.056747895 0.36528239 -0.32407165 0.94061989 -0.1010531 0.040239643
