# .PCD v0.7 - Point Cloud Data file format
VERSION 0.7
FIELDS x y z
SIZE 4 4 4
TYPE F F F
COUNT 1 1 1
WIDTH 1393
HEIGHT 1
VIEWPOINT 0 0 0 1 0 0 0
POINTS 1393
DATA ascii
0.053632881 -0.108338 0.52780098
0.1028445 -0.1369416 0.47805011
0.096697196 -0.1124943 0.45660499
0.065455139 -0.059154268 0.34621629
0.1195006 -0.1630363 0.4445439
0.082014292 -0.061969429 0.46257889
0.076550417 -0.06003603 0.46656469
0.057951178 0.091098867 0.41447189
0.039155241 0.1061614 0.41519561
0.045846641 0.1047668 0.4073917
0.1133573 -0.1866561 0.51408911
0.1288746 -0.20957039 0.4608053
0.1097233 -0.1942046 0.49853101
0.090537667 -0.1904265 0.3738237
0.13082451 -0.1918526 0.424119
0.09226796 -0.1531301 0.51956362
0.09373863 -0.078259997 0.4510552
0.1155562 -0.1445976 0.44930211
0.085273087 -0.1328202 0.50616199
0.087796539 0.06200007 0.3630054
0.063786417 -0.1350361 0.34232861
0.043239892 -0.083714962 0.32692119
0.105706 -0.2010501 0.37423059
0.1458509 -0.202199 0.33220461
0.05398586 -0.02624297 0.47302401
0.072177857 -0.082876347 0.48681429
0.048797298 -0.0066224039 0.47727031
0.087824367 0.024046 0.39799139
0.06229556 -0.028557841 0.46662039
0.046935938 -0.05854607 0.49966681
0.094461016 -0.062002271 0.4351714
0.091241717 -0.099262029 0.46486509
0.1136723 -0.16487511 0.49007449
0.081308693 -0.051878631 0.46055409
0.18816639 -0.2083063 0.2973533
0.10154 -0.093642831 0.4315066
0.060663279 0.08605735 0.419687
0.1079667 -0.1703749 0.51331371
0.074019507 -0.1467776 0.53896618
0.094757713 -0.085596532 0.45169559
0.055632152 -0.09455806 0.51314831
-0.092249453 -0.20769119 0.1629037
0.038882811 -0.04429248 0.49741921
0.04727817 -0.042219158 0.48349231
0.085756123 -0.18133 0.57143348
0.05883047 -0.1186752 0.33933711
0.062407792 -0.1443411 0.3490496
0.072433077 -0.1810011 0.35287839
0.110332 -0.14163961 0.45457199
0.089128546 -0.063895971 0.4400759
0.052463531 0.04646894 0.43936729
0.070764087 0.059433032 0.41965309
0.1042556 -0.1887162 0.52782649
0.1071533 -0.193027 0.38198861
0.1348854 -0.2027832 0.4262042
0.1197947 -0.1958272 0.48830551
0.079738669 -0.1266737 0.51239008
0.064775318 -0.081861377 0.49121881
0.1372114 -0.19703969 0.4550617
0.1202682 -0.1829423 0.47940019
0.086630821 -0.1182477 0.4917011
0.069341421 0.085481822 0.41394719
0.033371449 -0.066864371 0.50425118
0.043318968 -0.063812457 0.50463551
0.084622651 -0.1580013 0.37074709
0.11944 -0.189455 0.4813945
0.081026383 -0.1158346 0.4976804
0.061341491 -0.049117979 0.47688919
0.1088917 -0.18576621 0.51412368
0.038710002 0.111352 0.41483259
0.032133311 0.1133616 0.4153187
0.01532012 -0.055229072 0.50207782
0.034765869 0.06088331 0.26118219
0.043090612 -0.0137412 0.4828003
0.02163651 0.097690217 0.43993059
-0.032916371 0.087145783 0.4271017
0.048103631 0.0047855228 0.46325451
-0.020425141 0.022298889 0.4655371
0.02917343 -0.1184419 0.53062803
-0.002871335 -0.080013134 0.50641888
0.05125846 -0.074363917 0.50818479
0.05064911 -0.033144329 0.47813681
0.052639421 -0.044784099 0.47864339
0.1146149 -0.14460211 0.44179919
0.048204418 -0.0092540383 0.31433001
0.041619569 0.038754672 0.28572479
0.052864611 0.096214637 0.42051929
0.05553329 0.09693934 0.41982341
0.041281249 -0.05126211 0.4894
0.07369715 -0.1036504 0.49603719
0.091632493 0.086148769 0.33291039
0.092614472 -0.1521434 0.513713
0.071712673 -0.00044065711 0.4346225
0.081175983 -0.097729467 0.4840731
0.070981652 -0.044267301 0.47278419
0.079647027 -0.068250149 0.47442621
0.095148347 -0.1590979 0.51866621
0.2149488 -0.20818719 0.25739691
0.076138109 -0.096479893 0.48742059
0.0169673 0.069879353 0.44027689
0.049915191 -0.069947749 0.49712801
0.041952189 0.01359409 0.45721349
0.068590432 0.01534459 0.4422577
0.05579048 -0.093347847 0.51125431
0.043631669 -0.05852836 0.30564249
0.082458407 -0.1829446 0.36408091
0.09080869 -0.04053181 0.42472839
0.14569031 -0.1948749 0.2680878
0.09389241 -0.1559418 0.420838
0.1231631 -0.18972211 0.44741839
0.048433859 -0.036669519 0.48564011
0.038664669 -0.1265212 0.54792982
0.0060083568 0.04637922 0.46212259
-0.009310402 0.006727308 0.48063481
-0.01137257 -0.2005612 0.60840708
0.037063781 -0.15178169 0.56389707
-0.056131382 0.018407751 0.4560191
-0.045110859 0.019688901 0.46065989
-0.085941464 -0.073486023 0.45840639
0.040842921 0.0089096874 0.4589797
-0.05742402 0.039039191 0.44602719
-0.049626339 0.046904039 0.4457939
0.058521599 -0.1596266 0.58650798
0.070197701 -0.01326661 0.44420531
0.01695421 0.03077447 0.46927699
0.0066332519 -0.022004651 0.49600399
-0.094306082 -0.093474507 0.44936621
0.03120154 0.001671955 0.4723914
-0.024119999 0.045322999 0.45763531
-0.036218081 0.001704976 0.47007191
-0.018356349 0.08044745 0.43564451
0.030821141 -0.1631375 0.5817399
0.003360003 0.092147142 0.4373799
0.067162447 -0.1749761 0.59187877
-0.069824807 -0.063664451 0.4692063
-0.083105773 -0.038687099 0.44926149
-0.077789024 -0.04043122 0.45517051
0.044482648 -0.1789427 0.59856081
0.050719831 -0.1724578 0.5974921
0.02724457 -0.1617506 0.56530082
0.04765052 -0.051753949 0.49429089
0.01527475 -0.1672038 0.56963289
0.04383561 -0.1633438 0.59614903
0.02027531 -0.15848079 0.5734427
0.066699393 -0.086298838 0.50569659
0.077309117 -0.17709801 0.57585788
0.05228788 -0.1640866 0.59324467
0.035815921 -0.1726303 0.56269199
0.041240539 -0.16020431 0.58508217
0.043640599 -0.155945 0.57488322
0.05841377 -0.09377481 0.50027978
0.036227912 -0.16777331 0.59454769
0.049674939 -0.1596559 0.57139868
0.025236029 -0.1571151 0.57818651
0.031641331 -0.1619845 0.59217501
0.047162831 -0.1681672 0.59730119
0.074830167 -0.1538808 0.54005063
0.02464528 -0.17280179 0.60843909
-0.077254973 -0.044764411 0.45375389
0.01649278 -0.1884962 0.61014479
0.069452941 -0.1303324 0.52538198
0.068920523 -0.072703503 0.4823786
-0.091476262 -0.1247597 0.44577631
0.037004869 -0.13812169 0.54531687
-0.086038917 -0.121229 0.4655216
-0.01374213 -0.035434172 0.49000591
0.033578571 0.001696646 0.4572486
0.015804861 -0.1749199 0.59376347
0.067711003 -0.16171061 0.56397527
-0.1033915 -0.1011027 0.4398562
0.029392179 -0.1223392 0.54701102
-0.022757141 0.01156958 0.47390699
-0.01760006 0.015644509 0.4756965
-0.071855716 -0.1484572 0.4862316
-0.054384161 -0.14933249 0.51403779
-0.072550267 -0.1432903 0.49834499
-0.071971327 -0.15337481 0.49603409
-0.078131348 -0.1572914 0.48985159
-0.065062612 -0.14704201 0.50540638
0.029502871 -0.1973808 0.60724068
-0.03281315 -0.20123871 0.55752802
-0.065386496 -0.17469279 0.50234002
-0.1016131 -0.1093005 0.44999069
-0.089101426 -0.1077937 0.4646765
-0.025927359 -0.1797124 0.55651969
1.743436e-06 -0.1822187 0.58667189
-0.07270658 -0.071028203 0.4740158
-0.072174668 -0.01815 0.45343319
-0.051307559 -0.167294 0.52192158
0.028972071 -0.1416658 0.56142682
-0.020112021 -0.19584601 0.60505009
-0.024060611 -0.18024731 0.55534059
-0.089092731 -0.1055243 0.46757269
-0.079215959 -0.066225573 0.4750613
0.0085171014 -0.1530984 0.56933051
-0.1067633 -0.0224379 0.3948243
-0.096123479 0.003246665 0.41108581
-0.07814163 -0.042146381 0.46046969
-0.071159869 -0.061042611 0.47534099
-0.073851697 -0.15529031 0.48640481
-0.071014397 -0.1558343 0.49604741
-0.069016613 -0.16266599 0.5012939
-0.062531456 -0.1549212 0.50020421
-0.063078798 -0.15170179 0.51190579
-0.13030569 -0.2060428 0.53521472
-0.070900127 -0.1867349 0.50007492
-0.02173892 0.01282308 0.47769859
-0.048192691 -0.08181265 0.51079649
-0.0065407162 0.035815131 0.47436851
-0.01795879 0.0150567 0.47664341
0.039427489 -0.1711797 0.6070776
-0.035524759 -0.1192932 0.52750158
0.029356349 -0.1424562 0.56138009
-0.02476269 -0.20919859 0.61012173
0.03156748 -0.1442475 0.57138759
-0.01729596 -0.13831981 0.54293239
0.01202472 -0.16493879 0.57246828
-0.080109186 0.06038988 0.4215689
0.0342873 -0.0090124309 0.47950399
0.048312131 -0.01039672 0.4738794
0.04560164 -0.01498497 0.48026219
0.046984579 0.086639337 0.43565089
0.04392371 -0.042969581 0.4922303
0.040169541 -0.072179198 0.51145011
0.039039612 0.01043501 0.46464089
0.046455741 -0.04168117 0.48460999
0.02883634 -0.048344608 0.50288153
0.080558538 -0.05998921 0.46558779
0.040388111 0.096051417 0.42153651
0.067347556 -0.063165337 0.48477471
0.053651258 -0.078580528 0.50282103
0.0199081 0.07776472 0.38708821
0.01629925 0.06569168 0.3449454
0.03140226 -0.14558659 0.55605137
0.016622869 -0.1516238 0.5601207
0.086257823 -0.18828429 0.57127237
0.099657312 -0.1978122 0.542521
0.02038971 -0.071390301 0.51950771
0.052704651 -0.1118485 0.52497113
-0.01339728 0.075260073 0.40125331
-0.01225677 0.081493139 0.44221589
0.0049515069 0.046426062 0.46507791
0.048960451 -0.1677323 0.60007548
0.04716957 -0.03914389 0.4863894
0.1009825 -0.1931442 0.53031951
0.1204707 -0.20436551 0.4915188
0.063337177 -0.053760052 0.4800677
0.094575018 -0.1837651 0.54654908
0.070532799 -0.046980262 0.47051641
0.02673042 -0.077873863 0.51746118
0.061277822 0.065857917 0.31311911
0.053635061 0.08484596 0.42919359
0.037987921 0.063201368 0.32038599
0.041923821 -0.056146439 0.49859869
0.033005919 -0.01124409 0.47817859
0.055490371 -0.04118726 0.47905239
0.112899 -0.2076447 0.50181383
0.060382601 0.094628297 0.41331401
0.09436518 -0.19543789 0.38851419
0.080585569 -0.002251059 0.42324451
0.020255269 -0.029190481 0.49564311
0.0047421162 0.059166878 0.4573091
0.063909203 0.049849451 0.43281499
0.06103291 0.085808553 0.387261
0.076104827 -0.070548743 0.47730121
0.1184322 -0.1980492 0.47608569
0.056781959 0.099089257 0.41766599
0.030181941 0.1007225 0.4272224
0.03780115 0.090108357 0.431272
0.078059234 -0.176585 0.56523311
0.0529912 0.079146951 0.38501671
0.039592709 0.066754669 0.32595569
0.1109503 -0.2011103 0.50106388
0.055523232 0.05011401 0.43890581
0.091964543 -0.088628203 0.452948
-0.029996751 0.055264741 0.34094009
0.066122957 0.057277441 0.42415741
0.0453864 0.083809383 0.42956889
-0.053097039 0.01253802 0.4571301
-0.038602199 -0.13147169 0.52270579
0.079571024 -0.1308115 0.5104425
0.057636529 -0.1621082 0.58144152
0.02656192 -0.040802632 0.4971267
0.022820801 0.04690215 0.27422151
0.068987578 0.084407806 0.37162021
0.12628061 -0.20511369 0.4858509
0.1283948 -0.20439629 0.4573932
0.075428016 -0.1524574 0.3862952
0.1265673 -0.2092322 0.47093481
0.1080152 -0.15277509 0.4476786
0.093996689 -0.1120968 0.4279635
0.060109079 0.02376461 0.44333711
0.087370597 -0.1525235 0.51291388
0.076856971 0.076314837 0.36544439
-0.01988605 0.062927097 0.35777351
0.037315339 -0.1683941 0.28481531
0.072733738 -0.09244141 0.4857707
0.022043319 0.095697053 0.43632951
0.059816722 0.074187733 0.42635259
0.070106506 0.064406417 0.42174771
0.01018342 0.052102711 0.29473749
0.0207316 0.045238201 0.458873
0.01535624 0.087534487 0.44136941
0.053493079 0.075960986 0.43406469
0.01296502 0.059164111 0.45369381
0.085517533 -0.071983807 0.46006581
0.080818981 0.02894515 0.41626909
0.1120939 -0.2063995 0.51767552
0.031943198 -0.17716961 0.61123759
0.1086547 -0.2095101 0.41570759
0.081076413 -0.0045302808 0.4209339
0.04811186 -0.1717941 0.35673931
0.12700561 -0.200607 0.459351
0.1082235 -0.1630287 0.46432611
0.1081908 -0.1574969 0.4590863
0.083308578 -0.20723329 0.3796351
0.1187156 -0.18045691 0.45299149
-0.0071629579 0.042915121 0.2740382
0.079796001 0.044365291 0.38771081
0.071866177 0.035989519 0.34109229
0.083685763 0.01054761 0.4053539
0.093068093 -0.084797621 0.4479045
0.03815883 -0.060542788 0.31675649
0.088236183 -0.198634 0.3906464
0.1199282 -0.2094932 0.4275381
0.077026978 -0.1025727 0.3841629
0.086308658 -0.13282309 0.3944948
0.045705851 0.061690029 0.30709511
0.06224836 -0.031655401 0.34407219
0.098728754 -0.1935101 0.53231448
0.074810922 -0.1001043 0.4254519
0.094192669 -0.1203672 0.43774539
0.088990688 -0.1589836 0.5383538
0.090494543 -0.2024668 0.39213061
0.093208097 -0.1175278 0.45018101
0.090372697 -0.1465572 0.3969627
0.01363283 -0.13409071 0.33470991
0.04738358 -0.093772016 0.345375
0.084289551 -0.1191554 0.38444179
0.102233 -0.1545314 0.41781709
0.1049247 -0.157382 0.44347769
0.09403801 -0.1488391 0.49910581
-0.016338261 0.073235542 0.40063211
0.083018452 -0.087924659 0.39185989
0.07882002 0.072798491 0.35179761
0.071420193 0.068793207 0.32662651
0.062672041 -0.02866802 0.3492308
0.03652969 -0.07521224 0.32288131
0.1021762 -0.1223702 0.4435212
0.0137462 0.058457609 0.31944519
0.090052277 -0.095213383 0.4386183
0.083572946 -0.062835373 0.45071959
0.072281241 -0.037175331 0.3638106
0.05922306 -0.1308089 0.3578003
0.047771528 -0.15697099 0.58088303
0.028106511 -0.14315 0.57026112
0.090587109 -0.069868527 0.45698339
0.029633051 0.062716343 0.32367989
0.02139586 0.052794252 0.28277829
0.063058287 0.071041644 0.31976229
0.03066704 0.0368126 0.28556421
0.044616818 -0.063573688 0.33851001
0.05304658 0.05880484 0.29494581
0.02714543 0.058209639 0.30672511
0.1014423 -0.15938941 0.48744431
0.091735236 -0.17411511 0.53524941
0.050233301 -0.030629629 0.33276281
0.075567514 -0.2013752 0.37478679
0.064805202 -0.1595241 0.3590242
0.032124251 -0.15995669 0.57684982
0.1013188 -0.1501842 0.45985949
0.1066774 -0.19964071 0.5078581
0.064545929 -0.150627 0.36702809
0.1059405 -0.15146279 0.47152939
0.01038533 0.050113861 0.28573889
0.03008789 0.055780228 0.29161251
-0.02436186 0.047051098 0.29234311
0.096594453 -0.1569474 0.42791429
0.04930672 -0.09653905 0.34501949
0.048557371 0.072217137 0.34469149
0.082981683 -0.1989305 0.58692032
0.064641424 -0.02718067 0.3540968
0.081035972 -0.058512598 0.46410671
0.1086949 -0.1806031 0.50439292
0.09655492 -0.1445173 0.40717331
0.19872031 -0.099812753 0.37330759
0.097201683 -0.1071619 0.40707409
0.088780493 -0.1764632 0.3899473
0.04680467 0.075841248 0.36516389
0.071452796 0.081270009 0.36462489
0.1153083 -0.20890909 0.49508211
0.058043461 -0.1644624 0.3577325
0.0058884472 0.052236199 0.2993139
0.021979909 -0.1484668 0.34737891
0.03225559 -0.059719119 0.3053709
0.105722 -0.1831926 0.4660069
0.066984527 -0.1337245 0.37143859
0.073333681 0.083388694 0.4039799
0.1057185 -0.1653295 0.42846951
0.097334087 -0.1200684 0.4106172
0.053034119 0.095042937 0.41240081
0.044444531 -0.045675579 0.48960549
0.065434687 -0.15422259 0.36233869
0.077734128 -0.1790515 0.58083421
0.079945743 -0.16179889 0.53459531
0.092507422 -0.074735582 0.438162
0.1034752 -0.1239489 0.38223001
0.07610184 -0.1343234 0.51272517
0.061113041 0.06955874 0.32135251
-0.001108587 0.048720211 0.26453471
0.06181052 0.071393579 0.3372137
0.041980639 0.03866351 0.29365021
0.05493116 -0.1381834 0.356765
0.0302062 -0.092420101 0.32735249
0.087939508 -0.1550401 0.39492741
0.069982499 -0.1837409 0.60196209
0.15541551 -0.2090915 0.1314515
0.081058711 0.081301808 0.37005481
0.0033437009 -0.1292485 0.33811179
0.1205945 -0.1549824 0.46771261
0.01568717 0.074203342 0.376165
0.074356049 -0.01646319 0.4464826
0.052361701 0.075891912 0.34996369
0.090420313 -0.1584786 0.3904241
0.072390109 -0.1626406 0.38204119
0.069360606 -0.14726169 0.37598571
0.114247 -0.1855341 0.448975
0.098430634 -0.1332161 0.43001121
0.087340184 -0.090738267 0.43179309
-0.047281802 0.048478689 0.30142611
-0.065758593 0.063708022 0.38541481
0.007837683 0.05960593 0.31677341
-0.02290535 0.071859218 0.38911709
-0.067779779 0.057894081 0.36485991
-0.088174731 0.041685671 0.30251551
-0.029873939 0.05514371 0.33375621
-0.084873833 0.055148721 0.37168539
0.003897876 0.079465993 0.3953093
0.00088959932 0.075405777 0.39184371
-0.084153347 0.042959519 0.29963419
-0.1012167 0.051298141 0.35075051
-0.084784448 0.049716201 0.33031681
-0.022974551 0.047711551 0.29255271
-0.0070274472 0.072445773 0.37210089
-0.053826299 0.05557229 0.34024531
-0.045505609 0.040291831 0.26588741
-0.01269525 0.045797989 0.26531541
-0.027142139 0.068071112 0.36731419
-0.04723442 0.05516943 0.33172989
-0.091547757 0.05227207 0.3529045
0.017930601 0.074669562 0.37047699
-0.053237941 0.039627999 0.26965129
-0.075219959 0.03979132 0.28379759
0.03537846 0.080845289 0.38881171
0.01012141 0.07655701 0.3869628
-0.108512 -0.1099323 0.42361361
-0.092550866 0.050380532 0.3437067
0.01329073 0.070713863 0.36649349
-0.080461323 0.054942612 0.35111469
0.024821009 0.08592017 0.41385031
0.053296659 0.094818398 0.41304311
-0.01735309 0.058538262 0.33116049
0.007013977 0.055413309 0.29696941
-0.099350363 0.0467057 0.32698509
-0.068649381 0.057361498 0.36316741
-0.073663503 -0.1200729 0.3410069
-0.035794169 0.075445473 0.41367969
-0.021726189 0.070185751 0.38001201
0.043214232 0.098037042 0.41778871
0.058597561 0.085706942 0.3772684
-0.058508549 0.036189482 0.26998511
-0.043178018 0.044057861 0.27165291
0.034808341 -0.06208339 0.31235641
-0.093395203 0.039112002 0.30459359
-0.095919311 0.037993331 0.30256969
-0.075431503 0.03643341 0.2812402
-0.072102576 0.037242889 0.27685031
0.001431286 0.064581871 0.35552031
-0.080756277 0.03199508 0.2846292
0.062894143 0.087882429 0.39011139
-0.07362479 0.060973849 0.38118929
-0.0034677091 0.05547693 0.31345499
0.01411676 0.077913702 0.38121289
0.05601484 0.088858709 0.40199399
-0.00067847967 0.071617991 0.36618891
0.072279662 0.087540403 0.3824676
0.0063309371 0.069949873 0.36526069
-0.015828731 0.061222609 0.35451749
0.01222038 0.083840214 0.40770841
-0.0119471 0.055346999 0.29457909
0.025663139 0.095266387 0.42215061
0.039055821 0.093367048 0.41881299
0.03815401 0.098310977 0.42072091
0.043669399 0.085147843 0.40969741
-0.09588185 0.043813001 0.31183591
-0.1076906 0.048990939 0.34835279
-0.069222987 0.04016627 0.28037059
0.019651061 -0.069368958 0.31975451
-0.0092808008 0.074581243 0.39288729
-0.01090455 0.05603189 0.3135387
0.01071841 0.094544724 0.42433259
0.04027712 0.1008821 0.41870201
0.0065019731 0.083592862 0.41815779
0.019346509 0.1004061 0.43000481
0.0052618091 0.090011939 0.4237535
0.01722336 0.092986248 0.41988829
-0.070833363 0.065765411 0.39780501
-0.089783877 0.038399171 0.29816619
-0.080857366 0.038025271 0.28590831
-0.0083037019 0.045897141 0.27116221
-0.034311678 0.071320131 0.38002509
-0.096083641 -0.01457956 0.33317199
0.005164146 0.092793062 0.4299421
0.060361739 0.085973203 0.40093169
-0.0090649128 0.068126783 0.36642531
0.01672918 -0.064492367 0.31322071
-0.03167915 0.068053417 0.37502539
-0.1063292 0.0045671458 0.3710002
-0.077275932 0.04458252 0.29567391
-0.044157859 0.056006391 0.33972371
0.025387021 0.052334949 0.2760312
0.02269548 0.1060296 0.427564
-0.051391181 0.044288669 0.27419221
-0.056416601 0.07012701 0.4142648
-0.058362041 0.070570223 0.42070541
-0.01050994 0.073612392 0.40158549
-0.05306131 0.074055977 0.42086989
-0.046630051 0.073231287 0.41169611
-0.052197691 0.072562553 0.40833741
-0.051433679 0.068254054 0.3991749
-0.095907807 0.042735338 0.30831569
-0.107001 0.044441689 0.3391017
-0.1089797 -0.054145899 0.3878074
0.068320177 0.06629394 0.3230893
-0.048135731 0.04201116 0.27081221
-0.1000373 -0.077448159 0.4238022
-0.099797927 -0.1059297 0.42999831
-0.09632799 -0.1091166 0.43845609
-0.065364033 -0.2019223 0.49450901
-0.098515302 -0.071259409 0.37883621
-0.1019843 -0.077788427 0.3952283
0.02462244 -0.1670201 0.57985967
-0.1016502 -0.0077516511 0.3847754
-0.1034239 -0.073268607 0.39736819
-0.05542567 -0.2057783 0.51434487
-0.100851 -0.1149827 0.39511779
-0.093244307 -0.093786567 0.44717371
-0.084394753 -0.1062238 0.46146479
-0.05416742 -0.1680917 0.51829052
-0.0078774095 -0.1822927 0.56185049
-0.1034164 -0.047029201 0.40196761
0.00348404 -0.1765907 0.57126617
-0.072407097 -0.1674936 0.48943701
-0.074963361 -0.1764672 0.47520301
0.001800805 -0.1827651 0.57586199
-0.076232277 -0.1341362 0.4767893
-0.060614619 -0.1819758 0.50675672
-0.029423591 -0.19813649 0.545151
-0.099530518 -0.086730942 0.4161754
-0.0047785938 0.049495999 0.28439811
0.0046104789 0.087666169 0.42536429
-0.070768148 -0.055339869 0.46287879
-0.053420961 -0.15365981 0.51365972
-0.073111981 -0.0177758 0.44444659
0.01474673 0.062197249 0.32630089
-0.074711949 -0.1835414 0.48087749
-0.030147521 -0.20404799 0.55241072
-0.050207108 -0.1851009 0.52478278
-0.093345173 0.01547168 0.4014397
-0.087240793 -0.1739379 0.45603901
0.005274951 0.062879369 0.33830541
-0.1000242 -0.078413904 0.42408001
-0.090313971 -0.01540603 0.33298361
-0.059697028 -0.080273688 0.48316139
-0.066433936 0.057840548 0.36503679
-0.074645251 -0.1478754 0.48257101
-0.061195731 -0.16148511 0.5061807
-0.1048919 -0.1096014 0.41415441
-0.091299951 0.003803395 0.41040519
-0.068702191 -0.098356187 0.47841421
-0.085249253 -0.1075623 0.46010071
-0.069237024 -0.1169075 0.48061171
-0.078523763 0.050890021 0.3346062
-0.055454791 -0.042355951 0.47202319
-0.095698237 -0.037626158 0.41632921
-0.075589448 -0.034055341 0.31694129
-0.069910377 -0.061660159 0.32109511
-0.082425833 -0.04608202 0.33130121
-0.071683817 -0.02712366 0.45008481
-0.05046472 -0.017841291 0.467307
-0.070832908 -0.1448523 0.49236411
-0.079255909 -0.1647616 0.47433561
-0.062825978 -0.1495747 0.50057542
-0.071871489 -0.1419667 0.4863005
-0.065758973 -0.122609 0.48848549
-0.0531714 -0.1751118 0.52196038
-0.066130072 -0.1697368 0.4995136
-0.068556733 -0.16769861 0.49228001
-0.073726922 -0.2084 0.4705894
-0.1015741 -0.02470224 0.38959321
-0.099888027 -0.02125665 0.38434821
0.053124931 -0.1619522 0.58921838
-0.04996511 -0.14153729 0.51373488
-0.086148262 0.0077311988 0.31615531
-0.069895633 -0.097105682 0.48054591
-0.026206311 -0.1911325 0.55214179
-0.06956017 -0.1063419 0.4816981
-0.097967774 -0.015876001 0.38815191
-0.048921078 -0.1881993 0.34305981
-0.099171042 -0.0094212908 0.389727
-0.102917 -0.077319011 0.3991392
0.01578572 0.062835827 0.33261669
-0.021837739 -0.20721389 0.59977949
-0.095622897 -0.09880735 0.44825909
-0.098998643 -0.086920783 0.42109609
-0.083227962 -0.17510781 0.46661469
-0.102866 0.01083615 0.37805441
0.01235287 0.095454693 0.42949769
-0.077195413 0.059224252 0.4196189
-0.099080339 -0.1287844 0.40528271
-0.087932378 -0.1554758 0.38213131
0.041858319 -0.1753346 0.35478631
0.02819656 0.095693901 0.42796451
0.01923978 0.095002398 0.44463009
0.038544551 0.099622741 0.4269124
-0.1030755 0.02812049 0.3727684
0.081697397 -0.2058681 0.38351139
0.040665239 0.094215207 0.42269161
0.01485673 0.0908176 0.43196961
-0.093809374 -0.130189 0.43831491
0.029767681 0.1043079 0.43422869
-0.090019517 -0.01611492 0.33826801
-0.071391791 -0.1575022 0.4867363
-0.08609724 -0.1648109 0.44643721
0.067710429 0.095993951 0.40488189
-0.1021506 0.022945611 0.3690986
-0.1016507 0.018609621 0.37841561
0.0121592 0.069996253 0.36944461
0.059984531 0.096773401 0.42002401
0.01504704 -0.106113 0.32338741
0.065546267 -0.1438147 0.35934779
0.066819519 -0.15497661 0.35872149
0.054126021 0.1005659 0.42744049
0.03596196 -0.14201009 0.35025221
-0.084567606 0.03946596 0.3107506
0.061173741 -0.1629131 0.35826641
-0.01512045 -0.1969211 0.35325021
-0.050692622 0.078119889 0.44330579
-0.067400038 0.03114485 0.291895
-0.083106987 0.032979742 0.31124419
-0.068459243 -0.042201769 0.3129814
-0.1018055 -0.050336931 0.38647139
-0.002580374 0.050809 0.2894406
-0.022635641 0.068265744 0.38131931
0.01181185 -0.1387554 0.33460349
0.043502901 -0.17961 0.35797489
0.048473299 -0.1702362 0.35796171
0.05019572 0.094538473 0.40965879
0.040956501 0.09669584 0.41646191
0.036578801 0.098802567 0.42290261
-0.066677928 0.054821938 0.36607751
0.050954189 0.1018364 0.3973282
0.05473965 0.086228177 0.39330041
-0.029770279 0.061915189 0.379816
0.0094349682 0.068301409 0.3399666
-0.005079031 0.054247651 0.28431299
0.016520111 -0.2037379 0.3670944
0.03041527 -0.1720756 0.35450539
0.054051399 0.089782417 0.4165059
0.028190169 0.089891203 0.42860329
-0.0043562651 0.043603841 0.2909815
-0.104546 0.059514761 0.35277051
-0.079845987 0.040593032 0.2955775
0.0071976781 0.050572511 0.2635473
-0.021444529 0.044323739 0.2944096
-0.076492652 0.069438927 0.34478191
0.01453692 0.1150075 0.40532961
-0.044399481 0.079468668 0.35544759
-0.05717146 0.05744797 0.3347128
-0.092174619 -0.20938399 0.39273971
-0.09901078 -0.105837 0.41919261
-0.1074991 -0.1354941 0.4246867
-0.053479359 0.070090093 0.3936646
-0.03641025 0.071857601 0.4029552
-0.047350772 0.075527638 0.4083443
-0.099381767 0.047504101 0.35408649
-0.065147631 0.050691459 0.37278551
-0.073020779 0.04507437 0.34676039
-0.094210133 -0.124993 0.4030765
-0.064021297 0.061401311 0.35576531
-0.072213553 0.044266131 0.43406069
-0.086129099 0.046875831 0.35804421
-0.06378229 0.064637929 0.38086021
-0.05635497 0.084108546 0.38751459
-0.089697018 -0.171084 0.39701349
-0.077560499 0.054841239 0.4178634
-0.01761849 0.075198673 0.3922005
0.045984421 -0.16265661 0.34784019
-0.1036503 0.049749419 0.33865109
-0.077605426 -0.1439231 0.3804507
-0.094686903 0.053470969 0.35303429
-0.030038871 0.065456577 0.29413331
-0.079020217 0.04986681 0.31210631
-0.022290921 0.048238929 0.28811279
-0.045438688 0.053283971 0.4170492
-0.23237699 -0.181703 0.27770269
0.030362681 -0.073103897 0.31930199
-0.099639289 0.04909445 0.35186809
-0.066024229 0.05963869 0.39196941
0.031475861 0.05253971 0.2785919
0.036736291 -0.059550229 0.31537679
0.01334129 0.04722419 0.26962179
0.0084480643 0.055749279 0.29501611
0.0017025321 0.043969989 0.26619071
0.02806941 0.086087659 0.4144837
-0.0740996 0.045554429 0.3215678
0.025711389 0.05210432 0.27530009
-0.01610579 0.037249979 0.2635482
0.01494411 0.05145051 0.27512851
0.075821437 -0.2043284 0.37536889
0.02584888 0.05474234 0.28089941
0.034781352 0.05744591 0.29078621
0.027866101 0.073855527 0.36968139
-0.0048264558 0.040149849 0.26328611
-0.0305444 0.050139781 0.3054606
0.066954181 -0.1953062 0.37211159
0.0499635 -0.080688059 0.3466289
0.06225555 -0.1912358 0.36858961
0.046969231 -0.094665043 0.34817079
0.049437679 -0.059800241 0.33973041
-0.0084438473 0.045762111 0.27088401
-0.079784483 -0.1272036 0.3417795
0.0066297129 -0.1010665 0.31848061
-0.02501717 0.0548039 0.33681619
0.05128767 0.059346709 0.29810539
0.064604193 -0.15335479 0.36295351
-0.079394683 0.045126729 0.32138929
0.03537792 -0.1152404 0.34261471
0.01160233 -0.1189723 0.33095801
0.04744551 -0.03797942 0.3223227
0.04982553 -0.04579125 0.32920441
0.036430269 -0.05416863 0.31636491
0.065458708 -0.03268588 0.34788531
-0.075457618 0.04730352 0.32905969
-0.0061329012 0.05352835 0.3054578
0.0045727938 0.07229621 0.38467959
0.01628584 0.089858472 0.4235402
-0.097647741 0.043482341 0.32475039
-0.0090445131 0.087697178 0.43905821
0.057487469 0.061205968 0.29986209
0.05951545 0.062338971 0.3084273
0.03405356 0.059079919 0.28472331
-0.1016599 0.050100408 0.36433959
0.058068618 0.065231122 0.3026492
0.019773269 0.05433378 0.27782109
0.072028346 0.060166258 0.3208423
0.035581511 0.065988258 0.31514329
0.059666749 -0.1329226 0.35549241
0.063497767 -0.1580731 0.358123
0.048754659 -0.1691637 0.35333881
0.047777101 -0.1687668 0.3559112
0.099095449 -0.2062621 0.40073121
0.1115388 -0.207617 0.4106217
0.1008132 -0.1900419 0.4038597
0.058045499 -0.16389661 0.3579658
0.056204181 -0.1516955 0.35952541
0.054130889 -0.13890781 0.35647261
0.1009523 -0.1988385 0.40358299
0.083511077 -0.2079722 0.3757509
0.082015388 -0.20779181 0.37628639
0.087360941 -0.1281765 0.3879582
0.094827913 -0.1458474 0.4005565
0.095675409 -0.1427988 0.40489051
0.091121972 -0.1365288 0.3992812
0.034001011 -0.061332632 0.31205699
0.047286179 -0.090151317 0.3393203
-0.035068352 0.052710429 0.32828379
-0.061766282 -0.1133745 0.34693199
0.030566409 0.0073063821 0.29194021
0.087822229 -0.1038087 0.39790979
0.083311051 -0.14368699 0.40378559
0.02525707 0.05269165 0.26483041
0.083312213 -0.1169405 0.38104099
0.067122951 -0.01988757 0.3384901
0.05225658 -0.031476501 0.32877019
0.06076638 -0.0080949524 0.3314203
0.05797353 -0.01032169 0.33406511
0.02923654 0.064236037 0.32149121
-0.02000095 0.042627171 0.26382461
0.083889097 -0.1170289 0.3860108
0.048577469 -0.1531852 0.3596673
0.06528689 0.070749037 0.31381321
-0.03030153 0.047666609 0.29121491
0.061588049 -0.003248557 0.33306351
0.071512982 -0.1434575 0.3723931
0.05678533 -0.03707128 0.3358044
0.044765159 -0.1163892 0.3508049
0.095809303 -0.1374023 0.40857261
-0.031097431 0.071652561 0.40107629
0.071390957 -0.0345436 0.35501719
0.063173853 0.056475971 0.31095049
0.0068566198 0.056720588 0.31147999
-0.072019219 -0.1311015 0.34150949
0.045635462 0.06785436 0.3176952
-0.043719988 0.064762548 0.3919473
0.028713381 0.079624847 0.37660691
0.05784392 -0.13015381 0.3599999
0.1069328 -0.203621 0.41065681
-0.01447252 -0.1998356 0.35751349
-0.075499631 -0.04111049 0.31374869
-0.0004369244 0.067300141 0.35691181
0.056461681 -0.20711809 0.37121469
0.081885949 -0.1447465 0.3869181
-0.008508265 -0.064451814 0.30368519
0.1017173 -0.2088473 0.38758829
-0.03553582 0.03548241 0.26225051
0.01276893 0.075740807 0.42501971
0.0069865212 0.077401303 0.43789771
-0.03023476 0.035895109 0.25901181
0.006700167 0.051307511 0.33416519
0.056238469 -0.16355 0.35592601
0.037027679 -0.17250919 0.35029069
-0.01869899 0.037571579 0.2628378
0.024392501 0.049262229 0.2793794
0.04706509 -0.1361735 0.35961011
0.0126365 0.041536301 0.27920881
0.019550109 -0.01371649 0.29683751
0.05774926 -0.1584136 0.36445829
0.035084989 -0.120406 0.34780759
0.001656603 0.040029529 0.26796281
0.0085652024 0.05390897 0.32236671
0.05715996 0.083383948 0.38185671
-0.1090557 0.03765649 0.36135489
-0.1109733 0.037394729 0.36122471
-0.025391219 0.049627561 0.29243109
-0.090599477 0.032607231 0.32543761
0.048412561 -0.02788174 0.33117321
0.060430031 0.075862847 0.3511214
0.082985513 -0.20268691 0.37574211
0.064065777 0.065241873 0.32692361
0.044787779 -0.065962017 0.33112279
0.0054841642 0.050939798 0.30395851
-0.077254042 -0.1206231 0.34160131
-0.1052631 0.042051021 0.38772061
0.1030194 -0.1802395 0.41464809
-0.01436579 0.04053295 0.27658999
0.0085871816 -0.099719107 0.31942841
0.1009135 -0.20721629 0.3961502
0.071687371 0.033423241 0.33936599
0.081106007 0.074606568 0.34539181
-0.0070964689 0.072300613 0.39672929
0.01560313 0.072046161 0.361444
0.081382453 0.080224648 0.35581049
0.067952164 0.066525072 0.3217324
0.080335349 0.049931679 0.3760244
0.02250224 0.054012001 0.28173071
0.02649587 0.06016523 0.30726129
0.03067136 0.062281579 0.3203257
0.085011482 0.049363319 0.37201449
0.057704031 0.016074959 0.32190639
-0.0052375202 0.057456881 0.32118481
-0.065883704 0.043741491 0.31375781
0.001875937 0.056285921 0.3165794
0.076634757 0.082221612 0.35027501
0.073169559 0.081875212 0.35981679
-0.0072311158 0.052535001 0.2964364
0.038557589 0.01078027 0.29504141
0.048491839 0.0041791801 0.31717211
0.081170797 0.0099699805 0.40463749
0.074546397 -0.107007 0.38244709
0.089049399 -0.2070124 0.55612719
0.065845221 -0.1580143 0.35801589
0.092187427 -0.20364881 0.53495061
0.05869415 -0.131675 0.3583439
0.075937033 -0.20376299 0.3745147
0.1101155 -0.2063496 0.4131321
0.079066373 -0.2094513 0.3807441
0.084861249 -0.20696311 0.37695849
0.027691839 -0.16477069 0.58121449
0.1299089 -0.2009189 0.45903659
0.09267661 -0.1219654 0.44442341
0.095068254 -0.2052362 0.39834431
0.04545391 -0.15549541 0.57349789
0.1017919 -0.1475035 0.45838809
0.028142899 -0.09382996 0.5175631
0.044048309 -0.1857959 0.364268
0.086081892 -0.195629 0.39030129
0.071535438 -0.1979897 0.37094271
0.087024122 -0.15580741 0.52800149
0.1039255 -0.16199841 0.4614073
0.1219308 -0.2021475 0.43932211
0.1087188 -0.2051526 0.4052512
0.12692539 -0.2008083 0.4483555
0.1056512 -0.19744299 0.4031221
0.091123849 -0.2016605 0.39094129
0.092804007 -0.17289449 0.53433979
0.08641234 -0.1430387 0.39449811
0.07930705 -0.1135375 0.3856746
0.093460321 -0.1368816 0.43221971
0.099972896 -0.1872063 0.41229171
0.1054946 -0.165793 0.46774149
0.086550467 -0.116942 0.48947549
0.078666657 9.4413757e-05 0.40322569
0.093569927 -0.075047337 0.43879879
0.05054462 -0.1676133 0.3520121
0.03489998 -0.063501209 0.31425339
0.01460344 -0.13298111 0.33487809
0.0085639358 -0.099815249 0.31932741
0.03755945 -0.06821689 0.3180477
0.049977601 -0.03003752 0.32920271
0.04571015 -0.094163507 0.34527159
0.047664821 -0.1119713 0.3477889
0.107851 -0.2081278 0.38876969
0.03302544 -0.086119197 0.50143611
0.1019363 -0.1522392 0.4241285
0.06237388 -0.03124601 0.34298551
0.083802037 -0.093254149 0.42376831
0.037972629 -0.2063964 0.35444781
0.1246825 -0.2087407 0.2491689
0.067866437 -0.2082697 0.30850169
0.079494603 -0.0051552951 0.42204249
0.090361513 -0.088083677 0.4458788
0.08169046 -0.1989007 0.57236159
0.048860729 -0.086385816 0.3386378
0.092214793 -0.13474859 0.3959257
0.035664439 -0.031193109 0.31160089
0.057806581 -0.033981081 0.34129131
0.089758568 -0.1275176 0.43798989
0.096915781 -0.1265254 0.44865939
0.096533723 -0.1202719 0.43456259
0.021470729 -0.1072071 0.3266879
0.086740427 -0.094902039 0.4353686
0.090029784 -0.14918511 0.40871879
0.1129616 -0.1757708 0.49999821
0.095422179 -0.1441856 0.50801241
0.1180321 -0.1805483 0.4535377
0.1222448 -0.1834496 0.46556771
0.079921506 -0.1168836 0.49904901
0.084185056 -0.0621376 0.45065761
0.095498063 -0.1065861 0.40922749
0.1010546 -0.15907291 0.48702171
0.1029043 -0.15954091 0.49263531
0.103431 -0.15875021 0.4453333
0.1148019 -0.17018411 0.4543536
0.072265834 -0.0031961801 0.34709841
0.1106611 -0.1760339 0.45873949
0.0262475 -0.13584021 0.3483814
0.041805979 0.045795951 0.29737589
0.1199778 -0.19960169 0.43151969
0.098798871 -0.14722469 0.4728165
0.090285003 -0.077325366 0.45176059
0.069105148 -0.1613605 0.55962092
0.08290422 -0.17645641 0.38825759
0.079970032 -0.042712871 0.4455505
0.057757851 -0.01131761 0.33383179
0.084965169 -0.086574323 0.3902235
0.064198457 -0.0078186085 0.3438361
0.044728819 0.023743959 0.29695141
0.1002578 -0.1558792 0.412348
0.060175721 0.0041707749 0.33685371
0.098740943 -0.1186908 0.48080581
0.025938749 -0.044741958 0.30924049
0.1042216 -0.1987116 0.52902192
0.1259831 -0.2018014 0.4560847
0.074627221 -0.146622 0.52022302
-0.001336813 0.061237901 0.32964829
0.057040039 -0.034144279 0.3331449
0.082786798 -0.12759981 0.50708532
0.060587939 -0.095635243 0.50524127
0.076273113 -0.2076212 0.38992459
0.088974543 -0.15223029 0.40187851
0.01959056 0.084869623 0.40610111
0.05458194 -0.06895408 0.34349239
0.032268289 0.0163908 0.29709989
0.09624058 -0.1466198 0.4960157
0.064963847 -0.032625649 0.35025039
0.065037817 -0.036584049 0.35685939
0.087444223 -0.033859968 0.4275645
0.069656193 -0.0394671 0.36335629
0.076742977 0.02786818 0.34162909
-0.017477389 0.074161589 0.4017795
0.071217783 0.082472064 0.36385489
0.075439394 -0.1839902 0.58384371
0.1014688 -0.1568128 0.4525567
0.093290538 -0.1129552 0.44618151
0.097719163 -0.1655637 0.52156782
0.064048678 -0.1374014 0.35637361
0.055659171 -0.055781689 0.33545509
0.1166963 -0.1904178 0.41506609
0.1050598 -0.15071879 0.47155079
0.091423184 -0.066029944 0.45535639
0.071545899 -0.1013659 0.49417281
0.04799968 -0.097805768 0.3461951
0.082927287 0.083243191 0.36856431
0.1031502 -0.1426359 0.44836771
0.080946513 -0.086556792 0.47612369
0.1110431 -0.1680651 0.48025489
0.1127938 -0.1853637 0.49041441
0.087214321 -0.04820687 0.43811721
0.087512732 -0.1036369 0.3979499
0.067120187 -0.042194489 0.3549377
0.1240249 -0.1943409 0.46060759
0.04983044 -0.1391003 0.54587519
0.05618313 -0.031778689 0.33780879
0.1010772 -0.1581115 0.50297958
0.057324652 0.061614841 0.30170989
-0.01123196 0.079210088 0.4244265
0.059664398 0.043142781 0.3125163
0.07847935 -0.189665 0.37784949
0.04156303 0.095797688 0.4219698
0.058028981 -0.03686494 0.47968271
0.065258317 -0.15837011 0.35936829
0.052439719 0.081798121 0.42783779
0.077515103 -0.0623447 0.46311709
0.086531252 -0.090258896 0.4517478
0.063869603 -0.054502789 0.47986019
0.045623299 -0.01307952 0.47235611
0.079750448 -0.0038278699 0.42141399
0.051975641 -0.1119816 0.52445209
0.03772429 0.090476863 0.43071929
0.085744947 -0.1012017 0.46982241
0.094915964 -0.1166835 0.45199609
0.0495275 -0.036565691 0.48682809
0.036601361 0.08797133 0.42965499
-0.0034841599 0.056579351 0.32169279
0.090995103 -0.084124386 0.4453598
0.047193348 0.086008526 0.4317697
0.042170141 -0.068762302 0.50219572
0.091549464 -0.1071448 0.4435775
0.039129641 0.0077635348 0.46435571
0.071770668 -0.0471569 0.47027341
0.03049201 0.1006887 0.427306
0.062887579 0.094121963 0.4169133
0.04094249 -0.05626044 0.49877909
0.1011688 -0.1589511 0.46656361
0.06279394 0.047975179 0.4324601
0.039403621 0.093660057 0.42134029
-0.025168991 0.080852143 0.39345089
-0.045053091 0.07175532 0.4130106
0.063448459 0.054089751 0.42175871
0.027819989 -0.1539246 0.55471158
0.02737698 -0.077635936 0.51794767
0.082668692 -0.1115153 0.47764501
-0.094224513 0.039750811 0.3169921
0.037440062 0.079164848 0.4298434
0.068098962 0.069996603 0.42311189
0.067202337 0.069373369 0.4229973
0.00062699622 0.05801788 0.32409811
0.03096774 0.1017542 0.4281573
0.0497129 0.095592052 0.42090541
0.1084315 -0.138293 0.46156931
0.042498801 -0.044200901 0.49160749
0.046170682 -0.01121113 0.4736656
-0.1027768 0.056277841 0.37780041
0.051348839 -0.080019802 0.50404888
0.018706869 -0.039519042 0.49831051
0.020400681 -0.074165642 0.51799011
0.080403708 -0.12905259 0.50964361
0.05402584 -0.1139556 0.52419549
0.01557938 -0.02627605 0.49733171
0.02392726 -0.065520287 0.50914317
0.042668462 -0.056618299 0.49930349
0.043788768 -0.068545938 0.50200099
0.024766469 -0.048232909 0.50932908
0.04271993 -0.079990298 0.50981629
0.069568276 -0.1103259 0.51249081
0.1054973 -0.1515259 0.47083339
0.028244421 -0.077266932 0.51794517
0.068617597 -0.088652372 0.5032202
0.04823846 -0.065460376 0.4930369
0.020568989 -0.026312649 0.4949781
0.067446887 -0.065066747 0.48297119
0.079511218 -0.0622763 0.4638575
0.071341991 -0.04897267 0.4688434
0.077554047 -0.070125878 0.47615519
0.074201219 -0.05925769 0.47416949
0.059501018 -0.034173429 0.4818604
0.064541079 -0.050452951 0.48084581
0.063299611 -0.087830782 0.50699067
0.040356278 0.090931833 0.43298471
0.040039439 0.09268263 0.415227
0.056287851 0.082121909 0.4258379
-0.01542015 0.074265897 0.40045759
-0.0055414252 0.085150003 0.4245069
0.060476299 0.1031393 0.41944519
0.045432221 0.087140113 0.43719429
0.1421787 -0.20670331 0.2104471
0.054436129 -0.085949302 0.50836557
0.046673 0.086163729 0.43536139
0.032684799 -0.0877828 0.52220267
0.049857561 -0.056253251 0.49162701
0.049895439 0.095187306 0.41877621
-0.016097751 0.073545903 0.39596051
0.048412539 -0.1002076 0.52604312
0.058453929 -0.055630978 0.49185511
-0.1039925 0.04949775 0.36982441
0.01987033 -0.042367458 0.50465852
0.01251547 -0.064264603 0.51407909
0.01372916 -0.01996547 0.49511829
0.04626156 -0.0787552 0.50709343
0.0148273 -0.040395681 0.50415587
0.031676251 0.1016541 0.42715049
0.01444636 -0.04547745 0.50578588
0.040745951 -0.05444083 0.4983364
0.0046546459 0.0062365532 0.48234409
0.052488871 -0.06205577 0.4913457
0.003711455 -0.0028349459 0.48742241
-0.007893011 0.085192174 0.4276382
0.056548681 -0.046901051 0.48755839
-0.042217299 0.063083977 0.38843879
0.01416142 -0.0079582334 0.48732081
0.053089712 -0.071882188 0.50205892
0.1115396 -0.19650599 0.40095299
0.1010971 -0.15736981 0.51405603
0.022907799 -0.067644767 0.51369148
0.075080328 -0.1471139 0.53718698
0.042321369 -0.065590143 0.50121552
0.089708589 -0.14969461 0.51301831
-0.00059942162 -0.03143084 0.50050378
0.1120592 -0.19846 0.49759179
0.057438541 -0.037478302 0.48130831
0.080737352 -0.058984991 0.46180111
0.052830741 0.090518244 0.4214218
-0.01042058 0.083781421 0.4418532
-0.093276501 0.028407101 0.40324461
0.047116429 -0.01056156 0.47351739
0.043641031 -0.04324767 0.49168319
0.055754039 0.084922433 0.42916921
0.035973608 -0.0084255934 0.47927371
0.035455231 -0.0092724264 0.47747239
0.026241209 -0.058755551 0.51070702
0.06090489 -0.035141889 0.47967339
0.082836419 -0.056555089 0.46523729
0.047978941 -0.0090128481 0.47321981
0.073398501 -0.043675601 0.47027719
0.031279061 0.1024507 0.4275333
0.066276073 -0.091279954 0.50044042
0.041902691 0.091307223 0.43222019
-0.008813411 0.080719888 0.4052023
0.0403102 -0.057842702 0.49908221
0.043877572 0.01203403 0.46540651
0.063863277 0.1012608 0.4178327
0.037836581 -0.1240948 0.54682082
0.043869641 -0.06689617 0.50988072
0.051090389 -0.035319541 0.48693341
0.045334522 -0.062852263 0.50222862
0.046660159 -0.041620281 0.4920215
0.042717841 0.097145677 0.422701
0.056661751 0.1001174 0.41607529
0.087073676 0.00095927721 0.4205527
0.059441179 -0.03480801 0.47979191
-0.066833757 0.066063881 0.4210307
-0.032575581 -0.12634081 0.5246827
0.052857999 -0.07483533 0.50620311
0.065682441 0.09903878 0.41568631
0.061345611 -0.089694649 0.50526482
0.095542878 -0.087849833 0.4352341
0.001593828 0.060330991 0.3249844
0.066427983 -0.1405431 0.35844159
0.093170673 -0.08064279 0.44619551
0.04650021 -0.077490181 0.51124191
0.077524163 -0.067672223 0.47664121
0.048287421 0.088080443 0.43365249
-0.091960698 0.041482989 0.31760201
-0.091636866 0.055552661 0.39606109
-0.089917868 0.04884392 0.31051239
0.073830597 -0.1840311 0.36917499
0.085638113 0.01717904 0.40696511
0.056729939 0.086159289 0.39288151
0.045918491 -0.04028675 0.31687021
0.05778921 0.051761512 0.43883911
0.04282042 0.096998841 0.4231115
0.00639993 0.056470931 0.3211883
-0.01102069 0.062594317 0.45501441
0.068200558 -0.1525611 0.36187911
0.064458907 -0.1267779 0.35668781
0.083759367 -0.2042802 0.37979531
0.095590979 -0.1120763 0.4461489
0.083199263 0.079994261 0.3553631
0.032356922 0.065843157 0.3225686
0.040281121 -0.058684919 0.3154301
0.068628907 -0.1548546 0.35664839
0.085958868 0.01283219 0.40483189
0.04868352 -0.1692816 0.3547211
0.1086115 -0.2076364 0.41558889
0.089553028 -0.2023427 0.3936972
0.088806123 -0.1968534 0.39266971
0.03276369 0.03955147 0.28400069
0.0088639855 0.053257499 0.2969189
0.03333649 -0.077976443 0.32476279
0.024006279 0.058048218 0.30849531
-0.00040754679 0.055746201 0.29378551
0.06407249 -0.15191311 0.36246881
0.1043642 -0.199287 0.4051266
0.1117215 -0.1484455 0.4537659
0.1095363 -0.15911821 0.46487239
0.074123234 -0.1014394 0.4943822
0.08603999 -0.13134301 0.39506701
0.088750392 -0.1151933 0.4888064
-0.16365729 -0.17915531 0.25193551
-0.025932729 0.04885152 0.29239729
0.092019022 -0.209171 0.55730569
0.074539691 0.084021449 0.36345899
0.068493158 -0.1444249 0.36446989
-0.063781291 0.03866389 0.26664779
0.060169149 0.067767084 0.3224878
0.00028461221 0.01502958 0.2784684
-0.077540427 -0.19835 0.31905919
0.01127672 -0.098600887 0.3185409
0.02306971 0.006379724 0.2901876
0.1007743 -0.192329 0.4071008
0.1163639 -0.1703359 0.4587985
0.1084278 -0.1544428 0.442615
0.073119521 0.037594829 0.33831081
0.036084231 0.087213367 0.4109053
0.1140314 -0.1059647 0.44279581
0.054749519 -0.1519818 0.36602131
0.068008102 0.07615599 0.34256929
-0.0078624189 0.060254421 0.35285869
-0.01213935 0.054757182 0.33434021
-0.0122717 -0.0056448882 0.28428131
0.070831209 0.03597125 0.34244251
0.031404499 -0.091283053 0.32762361
0.043968219 0.058288511 0.30880219
-0.07715898 0.05996339 0.40744159
0.0065193032 0.05536196 0.33505899
-0.066515237 0.053131089 0.3696
0.01369822 0.05110389 0.27798289
0.01036491 0.045340929 0.2698881
0.02297876 0.04564343 0.27913201
0.063948229 -0.1639967 0.36719191
-0.0080655254 0.062006921 0.37427461
0.003000099 0.01320571 0.27974901
-0.024120159 0.039963391 0.26529559
0.04721836 -0.1726044 0.35549209
-0.002164192 0.054021839 0.3255935
-0.0148292 0.04380548 0.2641336
0.0249913 0.05258904 0.27991641
-0.0090028346 0.048075821 0.28948089
0.050857261 0.0588721 0.30457589
0.0035004991 0.048620719 0.2659716
-0.1066909 0.04675445 0.34364459
-0.1061141 0.044819832 0.3467398
-0.094896503 0.039021101 0.31402311
-0.02467994 0.041243121 0.26811841
-0.048793789 0.037087929 0.26624581
-0.076838672 0.038951982 0.28637961
-0.1011058 0.04739194 0.35403329
-0.045398649 0.064700417 0.38891149
0.01876724 0.071896702 0.36983511
-0.033279721 0.04895791 0.30191979
-0.089609891 0.046029299 0.3252297
0.01097828 0.071529247 0.3613548
-0.090506062 0.043507889 0.31770489
-0.085737929 0.047026459 0.33082199
-0.04435965 0.040137772 0.2722916
-0.069814757 0.054534759 0.35298499
0.04341232 -0.096523553 0.34207481
-0.02378656 0.070552357 0.38692099
-0.025902299 0.06402798 0.3568939
0.029979611 -0.1537406 0.346306
-0.1073496 0.04804945 0.36596039
0.02614731 -0.074813686 0.32030219
-0.073829077 0.045650959 0.3148115
-0.087241687 0.052951168 0.371728
-0.066543877 0.06086247 0.3875635
-0.076762483 0.046671301 0.32723349
-0.0096187182 0.051165968 0.30596739
-0.031808741 0.051248509 0.33307371
-0.085241526 0.040930729 0.2983889
0.0061352248 0.075200208 0.39548919
-0.01603842 0.071226001 0.39759529
-0.078599572 -0.1486354 0.4826583
-0.1026153 0.043371469 0.3295694
-0.1014264 0.04505467 0.32842121
-0.1099567 0.046500701 0.34767079
-0.1099374 -0.065815464 0.37965679
-0.1065937 -0.07850112 0.39487121
-0.063175738 -0.2057884 0.49524131
-0.1076345 -0.1046856 0.4255411
-0.1076393 0.05225122 0.36151999
-0.1003474 -0.00094825029 0.40624189
-0.1079381 -0.026641561 0.38922599
-0.081519254 0.060228899 0.412451
-0.1067269 -0.0099181533 0.3853105
0.0009367466 0.058507189 0.32471991
-0.095720977 0.044227809 0.34538081
-0.090036184 0.05682997 0.38109401
-0.079269588 -0.02678843 0.44796899
-0.1000124 -0.092387572 0.4454703
-0.08027643 -0.20419499 0.4680247
-0.032202661 -0.20733009 0.60047603
0.00925529 0.058349121 0.32592511
-0.06078982 -0.083638087 0.4822098
-0.02321017 -0.1376695 0.53257972
-0.079264611 -0.1789919 0.4721272
0.0038354101 0.076896988 0.3952426
-0.1087929 -0.065935358 0.37939009
-0.1099695 -0.06963101 0.376661
0.01417571 0.074652269 0.3806079
-0.075087309 0.058731992 0.38062659
-0.01686674 -0.1960098 0.58955061
-0.02349529 -0.1966926 0.58851302
-0.001335144 -0.17495491 0.58850062
-0.1133718 0.04431795 0.3556399
-0.1119321 0.04141226 0.3559657
-0.1121483 0.041991521 0.33981311
-0.1079867 -0.1047799 0.4245148
-0.099567652 -0.001047209 0.40587741
-0.1075446 -0.0096254088 0.38376209
-0.057671551 0.067327723 0.41417679
0.079851933 -0.1733751 0.3703725
0.04021579 0.1020955 0.41578281
-0.1115243 -0.05778591 0.38760209
-0.005297184 0.05456138 0.30942699
0.0097084939 0.090388447 0.43290281
0.053559661 0.093392998 0.41100651
0.030602841 0.094845928 0.42565021
0.0050714021 0.093112767 0.4485321
0.075891636 -0.1480926 0.3692967
0.078717947 -0.15400361 0.36813551
-0.01893002 -0.0215654 0.291419
-0.070451781 -0.1267906 0.3474465
-0.0097477734 -0.2016046 0.3587375
0.019625461 -0.1413669 0.33976769
0.04966769 0.1042487 0.42679229
0.027183199 0.066608563 0.32604069
0.00027912861 0.020494221 0.2744478
-0.072734527 -0.1049514 0.3525376
-0.050408602 0.02956501 0.2768853
0.072482944 0.099420063 0.40914121
0.061606709 -0.2066007 0.3713471
0.046922389 -0.065570168 0.3232778
0.049868319 -0.13892131 0.34381449
0.02671355 -0.1417795 0.3443695
0.01764944 -0.13942499 0.33761489
-0.081844747 -0.2028323 0.48968509
-0.072599232 -0.176561 0.46313211
-0.079862237 -0.1188718 0.34971181
-0.02489784 -0.121795 0.33367079
0.045777261 -0.1817816 0.3525025
0.067859381 -0.1638049 0.35808319
0.066653907 -0.1763954 0.3564001
0.061790049 -0.1822034 0.35378489
0.046043869 -0.1750603 0.349168
-0.065726399 -0.1301984 0.34983739
-0.01346248 -0.1976082 0.35348681
-0.064571559 -0.1702515 0.36489439
-0.031344861 -0.1418765 0.3379589
-0.026190549 -0.17545959 0.34948599
-0.090670258 -0.1548292 0.3765744
0.058243129 -0.1448721 0.35819939
-0.073260836 -0.1046243 0.3483133
-0.03331998 -0.1884694 0.35544339
-0.067121603 -0.2092762 0.40193191
-0.076746427 -0.058180351 0.3194885
-0.1038923 -0.077080563 0.39755261
0.0084530711 -0.047624022 0.30279541
-0.033731971 -0.04299603 0.30152899
-0.1081688 -0.072248183 0.38276261
-0.06234837 -0.19718701 0.4926177
-0.099928997 -0.1164699 0.4285039
-0.0688411 -0.1050204 0.35212961
0.04475471 -0.1764987 0.3491579
0.041262839 0.090877473 0.4169521
-0.093746483 0.032378029 0.3040244
0.02942678 0.092701212 0.42190179
0.01889685 0.091923118 0.42784151
0.0485906 0.095115677 0.41986391
-0.098640047 -0.1159107 0.42390749
-0.003992856 0.063962013 0.34671569
-0.058668111 0.045160308 0.32207829
-0.1017883 0.038526159 0.2971136
0.01232564 0.073173307 0.38600051
0.027615219 0.074439973 0.3797971
0.018775981 0.098780073 0.42507851
-0.01222324 0.070325121 0.3991558
0.056032419 0.092128567 0.41060179
-0.091688603 0.03724838 0.3142429
0.0001139343 0.067584261 0.37775141
-0.096826486 0.047354858 0.37056711
-0.1038749 0.047648001 0.3663137
0.057799309 0.085934557 0.39161769
0.0030708311 0.048187699 0.2897222
-0.04647607 0.064709499 0.40174791
0.02170801 0.058226421 0.3237426
-0.04929119 0.070458829 0.4086391
0.0078800619 0.075733021 0.39569941
0.06292972 -0.1327506 0.35358539
0.0079308748 0.055643231 0.31639901
-0.045294639 0.04366583 0.29884011
-0.063518733 0.053418111 0.36748651
-0.050300028 0.050428782 0.34303281
