# .PCD v0.7 - Point Cloud Data file format
VERSION 0.7
FIELDS x y z
SIZE 4 4 4
TYPE F F F
COUNT 1 1 1
WIDTH 798
HEIGHT 1
VIEWPOINT 0 0 0 1 0 0 0
POINTS 798
DATA ascii
0.068796009 -0.2032024 0.28790709
0.05750021 -0.21193109 0.32486191
0.06082724 -0.20616969 0.35298371
0.077458978 -0.2055131 0.29009941
0.60694218 -0.24025279 0.51102161
0.69706923 -0.2337916 0.61153471
0.55961412 0.040894121 0.45278949
0.53199869 0.003523916 0.47563931
0.56278008 -0.070137776 0.47112581
0.54739451 -0.03129521 0.49058431
0.55735582 -0.075847253 0.46668279
0.55039418 -0.1199343 0.4722856
0.62167227 -0.2493507 0.58772922
0.52753371 -0.1160554 0.46953249
0.54961967 -0.01290469 0.49783731
0.53453732 0.016005339 0.4803274
0.51693988 -0.00013995171 0.50311822
0.51892108 -0.01467226 0.50864518
0.55476451 0.025528461 0.48616499
0.54837382 0.01879088 0.49688581
0.51991868 0.0010608661 0.51443189
0.5037201 0.06016821 0.51568383
0.4476229 -0.1437405 0.55504477
0.43289351 -0.093282841 0.52403659
0.4452703 -0.1426062 0.56517053
0.45088789 0.01327567 0.53889447
0.42442891 -0.1440108 0.56871599
0.44635221 -0.1000723 0.55862582
0.4485155 -0.045564499 0.56780511
0.4160673 -0.035893951 0.58610249
0.35057899 -0.079072803 0.47511151
0.71649009 -0.2473648 0.53302938
0.55189937 -0.2025383 0.59557343
0.56602198 -0.21315759 0.61603689
0.28286901 -0.2465321 0.3545841
0.2642749 -0.24542829 0.36218241
0.40829229 -0.042257998 0.57875252
0.2453687 -0.2459432 0.37157589
0.2259685 -0.2442016 0.28965059
0.28845859 -0.1979738 0.42229581
0.25312459 -0.1170319 0.48652589
0.24011099 -0.1142847 0.50383413
0.29939529 0.063832909 0.65919262
0.17806371 -0.24952079 0.39523709
0.1887362 -0.2463135 0.28617719
0.2130501 -0.248074 0.2919201
0.2177026 -0.2469705 0.35039249
0.1933196 -0.2454644 0.3089937
0.1982674 -0.24761251 0.31888831
0.38069451 -0.01357667 0.59128302
0.21860971 -0.2483393 0.3268764
0.16602349 -0.2462949 0.29629499
0.1953762 -0.24767929 0.38579491
0.19139969 -0.2494006 0.37673801
0.1915469 -0.24819539 0.39948899
0.22566479 -0.1151906 0.50251877
0.1956439 -0.2305402 0.44748169
0.1708456 -0.24573679 0.40446159
0.22634999 -0.1172811 0.49862659
0.1948572 -0.2299729 0.44303191
0.2184073 -0.087310821 0.71308148
0.2284871 -0.084349923 0.6903404
0.23375539 -0.079997241 0.68649107
0.240658 0.09562397 0.69868708
0.25040701 -0.1140662 0.4885473
0.1494299 -0.24260271 0.40891051
0.1575861 -0.24660499 0.4013755
0.20683759 -0.2490776 0.38365349
0.095371582 -0.2458784 0.43857241
0.08427801 -0.24431761 0.43062279
0.1025747 -0.2450631 0.4230547
0.2099874 -0.24913929 0.39229611
0.1718563 -0.2492221 0.3891508
0.047060579 -0.22388349 0.48983929
0.048491679 -0.2240245 0.49488741
0.053312272 -0.22237851 0.49184769
0.0092714624 -0.2361988 0.4620139
0.01777092 -0.23714259 0.3666746
0.050229151 -0.2403689 0.4516238
0.0051211342 -0.23853479 0.44842431
0.037296329 -0.23325799 0.44417939
0.056460999 -0.234879 0.4382025
0.03639416 -0.2323198 0.4341951
0.007665142 -0.2362662 0.44888511
0.044076242 -0.2375499 0.42452809
-0.01442993 -0.2358689 0.40285999
-0.043704629 -0.23521321 0.53310359
-0.04419608 -0.2343123 0.53138798
-0.058166791 -0.23378611 0.29424259
-0.03953075 -0.2314924 0.53532523
-0.027417639 -0.23541769 0.4136284
-0.051821709 -0.2363039 0.50594568
0.0042084982 -0.2349793 0.36167061
-0.01777688 -0.2338649 0.4032886
0.03985079 -0.2315132 0.4860729
0.032081261 -0.232381 0.47787109
0.00091448432 -0.23147739 0.36165729
0.01893728 -0.23299921 0.35467711
-0.01036753 -0.2350156 0.4056569
0.0086619481 -0.23110659 0.37884349
0.049633611 -0.2334006 0.4240213
0.05666991 -0.23263811 0.4578577
0.009729892 -0.2313223 0.37730259
0.02957255 -0.2316294 0.4269864
0.01552931 -0.23112281 0.39504841
0.017712381 -0.235137 0.47262099
0.043853112 -0.24261551 0.40161049
0.01358826 -0.2394297 0.36825049
0.0059683551 -0.23722599 0.47554731
0.02307565 -0.2309894 0.4120208
0.01766916 -0.23223031 0.39644271
-0.00013161451 -0.22978941 0.36793071
-0.003981791 -0.2356613 0.42033729
0.072441094 -0.1406236 0.53879768
0.071852498 -0.1471065 0.52848673
0.07421378 -0.1503897 0.52738887
0.22516111 -0.075914383 0.72048318
0.2335801 -0.07370165 0.69461769
0.1845143 -0.2256894 0.43905729
0.1902276 -0.22354449 0.43655699
0.1639042 -0.2450369 0.40791729
0.1045543 -0.2380777 0.34509641
0.20293871 -0.1569019 0.48708019
0.2245456 -0.1107166 0.49668771
0.1933465 -0.22424489 0.43573219
0.1140292 -0.2396412 0.42125261
0.1325444 -0.239694 0.4121308
0.1711123 -0.2422934 0.39936051
0.1909955 -0.243251 0.3929581
0.178497 -0.2412509 0.37851909
0.1699356 -0.2424434 0.30923721
0.23031621 -0.24419831 0.37664539
0.2175106 -0.2438104 0.36598289
0.22638521 -0.2453662 0.36057949
0.23488329 -0.2446107 0.35825029
0.2024757 -0.1508361 0.4806433
0.29171869 -0.19701651 0.41487291
0.31319359 -0.1120602 0.46298301
0.25138929 -0.1114642 0.47987789
0.25418779 -0.1110951 0.48852861
0.099062249 -0.2416096 0.40624821
0.18988989 -0.24267361 0.367515
0.19234221 -0.2425961 0.2978521
0.21359269 -0.24276219 0.30939949
0.2359883 -0.17696071 0.452198
0.2275144 -0.2440657 0.3538298
0.2663829 -0.24349821 0.35970861
0.18180031 -0.2437499 0.28553891
0.2014332 -0.2451594 0.2794525
0.20820659 -0.24344499 0.29718611
0.27578339 -0.2439799 0.35616711
0.1666467 -0.2417212 0.28963679
0.18925589 -0.2420231 0.2806195
0.18115731 -0.2448151 0.2911486
0.16877601 -0.239085 0.28848311
0.22565719 -0.2467141 0.31941381
0.19743641 -0.2420309 0.37099361
0.22572351 -0.2449967 0.36810431
0.1788649 -0.23854131 0.31004119
0.1978438 -0.2425447 0.31042439
0.2054714 -0.24405991 0.3025502
0.20082261 -0.243122 0.32876149
0.60889482 -0.2406919 0.64353782
0.4685514 -0.0073061772 0.5678556
0.23906121 -0.24573991 0.26289231
0.34359339 -0.21641511 0.37931779
0.28304479 -0.2460078 0.312444
0.243228 -0.2456333 0.27137259
0.33801311 -0.2082348 0.38195941
0.32869059 -0.2459321 0.36977121
0.29035741 -0.2456075 0.3298533
0.2257548 -0.24175631 0.26358861
0.29374829 -0.2427066 0.34640789
0.26596451 -0.2446333 0.31526539
0.3172254 -0.2297892 0.37906289
0.35844281 -0.083960377 0.46640241
0.271175 -0.24453551 0.32657659
0.2258853 -0.2450933 0.28374839
0.2294997 -0.2408841 0.28561729
0.28666341 -0.24398249 0.35161471
0.234046 -0.24239489 0.29471359
0.27289981 -0.2445402 0.34293291
0.24174391 -0.2442954 0.30897191
0.26435119 -0.2443873 0.33664909
0.2319244 -0.24267951 0.30035821
0.2914423 -0.2432889 0.37261409
0.225068 -0.2455848 0.2941927
0.2152003 -0.2415249 0.3013106
0.2450631 -0.2430279 0.3433401
0.29002801 -0.2447854 0.36380801
0.25056159 -0.2432214 0.3556295
0.25667769 -0.24310289 0.36284891
0.2436351 -0.2447048 0.35188711
0.1941364 -0.2421397 0.2914083
0.2125383 -0.242248 0.284448
0.2065362 -0.24253739 0.317377
0.25943971 -0.24222749 0.34772971
0.1882709 -0.2442228 0.29803759
0.20122311 -0.2457592 0.28417751
0.28984761 -0.1929525 0.41709149
0.21728849 -0.24106491 0.3182961
0.24068309 -0.2420985 0.35553789
0.20841859 -0.2422547 0.35903341
0.2034066 -0.2407344 0.37066191
0.19749589 -0.2429437 0.28378561
0.1770208 -0.2421532 0.29347211
0.20295981 -0.1931421 0.4547593
0.152399 -0.2404795 0.31692219
0.1157652 -0.24281991 0.36915311
0.27280951 -0.2410236 0.296581
0.43029699 -0.2316554 0.4053233
0.41226411 -0.232794 0.3911466
0.40993711 -0.22886179 0.4118225
0.57767302 -0.24301811 0.5963859
0.58541298 -0.21242151 0.62438262
0.62938452 -0.2499503 0.5220055
0.5271582 -0.007277261 0.49601129
0.52350378 0.00066055357 0.50023258
0.72494298 -0.24477939 0.63214159
0.52095318 -0.01211821 0.4998318
0.72712278 -0.24961171 0.65399969
0.4366124 -0.2250609 0.38386059
0.50778902 0.01467762 0.50763881
0.59198898 -0.1991237 0.56532341
0.46668121 -0.2233219 0.46379259
0.40816259 -0.23777001 0.36198911
0.58863741 -0.2184342 0.63617599
0.4711968 -0.2319788 0.34583709
0.4648301 -0.228597 0.3531253
0.55289662 -0.1187995 0.46445021
0.53724039 0.005504448 0.4741084
0.55200458 0.01694729 0.49116641
0.45229799 -0.2307487 0.35691899
0.54984438 -0.035726491 0.48559621
0.60297829 -0.2386702 0.52402431
0.53977108 -0.053765241 0.4755947
0.52808899 -0.0079436116 0.4902271
0.44736081 -0.1403289 0.53954297
0.52471483 -0.23251119 0.30695611
0.42723241 -0.25260761 0.2454952
0.60711348 0.06749621 0.43607461
0.59976351 0.084047392 0.44794351
0.58442259 0.040338669 0.47105539
0.58489257 0.057195172 0.44614279
0.5788306 -0.076298013 0.4373779
0.57565087 -0.083115712 0.45907089
0.56725299 -0.070174873 0.46634471
0.55212939 -0.0201828 0.45676851
0.40561149 -0.25453621 0.33731961
0.54673272 0.027229151 0.46559939
0.55865782 -0.083067097 0.46784139
0.53654689 0.02048279 0.4705227
0.3721979 -0.25230169 0.35839111
0.51595819 -0.017020641 0.4970516
0.35908309 -0.2380712 0.39278769
0.40155169 -0.2285056 0.41470969
0.31194541 -0.24987771 0.23337691
0.52846438 0.01117205 0.49515939
0.46686229 -0.2242208 0.41700941
0.50426388 0.017356271 0.4754419
0.4444204 -0.2257725 0.43411219
0.41204599 -0.2222603 0.41270271
0.42099151 -0.2221078 0.46986139
0.4266938 -0.22027171 0.49792889
0.55144042 -0.22209869 0.35105661
0.72108161 -0.24962591 0.53105921
0.48384309 -0.2262259 0.32494119
0.55508512 -0.2150653 0.39084831
0.54480278 -0.21794979 0.40669739
0.4641836 -0.22690959 0.33977449
0.61195761 -0.2410343 0.50981921
0.61808842 -0.23789971 0.52254742
0.44507971 -0.22581241 0.3513428
0.56714201 0.031442858 0.4649556
0.60853869 -0.2421466 0.53200507
0.54767072 -0.071953148 0.46976599
0.59155238 0.05880047 0.456696
0.53417927 -0.1164721 0.47027701
0.4577609 -0.2243889 0.39725709
0.53556758 -0.0085096695 0.47262451
0.42619091 -0.2257024 0.36513549
0.56854731 -0.082125083 0.4510304
0.53387839 0.004880616 0.47211269
0.59993792 -0.237627 0.57713509
0.4372682 -0.2256109 0.38659161
0.43115371 -0.2237955 0.39112559
0.52047288 -0.0068320371 0.48811769
0.52563113 0.01038886 0.4929415
0.4753617 -0.2171026 0.45560351
0.47155759 -0.22326881 0.4582909
0.4187879 -0.2220543 0.39125019
0.51710808 0.001301836 0.49338931
0.56953567 -0.2378628 0.58544338
0.50678188 -0.01160212 0.48327619
0.41559851 -0.2224123 0.4007839
0.53859538 0.02020354 0.47616461
0.40355891 -0.2226122 0.4027895
0.40918279 -0.21974289 0.41168869
0.40405321 -0.23411021 0.3585757
0.52411449 -0.0098264106 0.48686209
0.3997457 -0.2226041 0.41208801
0.53079998 0.01339557 0.49327469
0.39307949 -0.22415949 0.40431571
0.43399131 -0.2134514 0.47396839
0.3896983 -0.2238467 0.417714
0.50974208 0.0029160641 0.48986721
0.41771191 -0.21973211 0.46633771
0.3533057 -0.231773 0.3852402
0.45501751 -0.1303888 0.52928323
0.4125455 -0.2088588 0.47639579
0.54838288 -0.2473405 0.60351872
0.4525716 -0.1383767 0.53326237
0.44598451 -0.1158864 0.52760708
0.31373149 -0.2356832 0.34561959
0.26772639 -0.23291489 0.27488989
0.27239901 -0.2335473 0.28369671
0.44802859 -0.0739941 0.5323602
0.3163169 -0.2342338 0.35608441
0.25768909 -0.2341529 0.26507989
0.49091601 0.073937729 0.50679559
0.4391312 -0.0939904 0.52752447
0.2745879 -0.23242199 0.2938537
0.2620393 -0.2345186 0.27498421
0.42859831 -0.1297805 0.52184409
0.4561646 0.01467464 0.53995651
0.26855251 -0.23760609 0.28694281
0.2822035 -0.23249631 0.31097609
0.2679823 -0.2328213 0.28892079
0.28957361 -0.2327016 0.32584441
0.27597761 -0.23929951 0.30608779
0.41932771 -0.13233189 0.51933938
0.45817789 0.061588719 0.54377067
0.45401391 0.0558259 0.53635317
0.44110319 -0.0065574832 0.53293061
0.35781679 -0.2331935 0.38732401
0.28580859 -0.23781811 0.32786921
0.3097733 -0.2214139 0.36837661
0.28868061 -0.2359089 0.33807611
0.231378 -0.2342231 0.25344181
0.25993979 -0.23638339 0.3064864
0.2792438 -0.23508769 0.3414484
0.28451219 -0.2340977 0.36183709
0.258185 -0.2375696 0.31411859
0.25821361 -0.2347654 0.27071971
0.26523381 -0.2344943 0.33169791
0.42297211 0.065573707 0.54565138
0.2433344 -0.2325051 0.29261091
0.2457293 -0.232627 0.29790911
0.22158881 -0.23362841 0.2568126
0.34901851 -0.074073933 0.45902091
0.2726787 -0.2370695 0.30641299
0.41461039 0.016851019 0.55323309
0.40893561 -0.03234522 0.55690402
0.27667871 -0.23465639 0.36084241
0.2443832 -0.2345368 0.30570871
0.30866271 -0.2191598 0.3738828
0.28884429 -0.2436842 0.3445228
0.22738311 -0.2312289 0.28372511
0.2257217 -0.23343541 0.27901071
0.2353889 -0.2351734 0.29965809
0.26119089 -0.2353202 0.34963039
0.22778749 -0.2366318 0.29578319
0.4008038 0.01708653 0.56642288
0.4360804 0.098295197 0.54362279
0.401526 0.04550086 0.5672099
0.2195361 -0.2220203 0.28309831
0.40085229 0.060572769 0.56622469
0.2837559 -0.1892394 0.40153939
0.2227902 -0.2362853 0.29349619
0.25018069 -0.23684131 0.2994501
0.3933211 0.01145516 0.5692063
0.3942624 0.06570749 0.57125789
0.3461718 -0.080295101 0.45764709
0.30502319 -0.1080876 0.4487868
0.229596 -0.23318981 0.28125459
0.2079019 -0.2316395 0.28517321
0.2113937 -0.23310471 0.29350901
0.42114681 0.098454252 0.56078231
0.39880311 -0.03812556 0.56090748
0.25069419 -0.2321938 0.33632699
0.3823266 0.088426307 0.57421142
0.2011012 -0.2336868 0.29254991
0.2300138 -0.2174691 0.2955412
0.2049955 -0.2359685 0.30071709
0.36444601 -0.01135438 0.58404821
0.3695173 0.009808924 0.59405881
0.40466839 0.098327897 0.5697732
0.28164721 -0.1868576 0.4065502
0.2353476 -0.23668779 0.32479161
0.1863625 -0.2334636 0.27250749
0.39228469 0.01524956 0.57145703
0.1892423 -0.2343874 0.2892257
0.1935938 -0.2330398 0.30106971
0.1899676 -0.231326 0.29331511
0.4087792 -0.22902 0.384835
0.46388841 -0.2218722 0.4613772
0.56146801 -0.1922671 0.56848472
0.1941683 -0.20560239 0.42228729
0.080330297 -0.2096092 0.30638319
0.074302927 -0.2316142 0.33534229
0.065881267 -0.2327818 0.36784309
0.057932641 -0.2072535 0.31995091
0.1696116 -0.2342196 0.29934549
0.1083443 -0.1612196 0.59642851
0.073304869 -0.1224891 0.51304817
0.1184672 -0.076392673 0.6308313
0.051438961 -0.1858969 0.44157651
0.19611619 -0.21924309 0.45025551
0.056760509 -0.1852615 0.44810429
0.1349671 -0.23716369 0.4301292
0.0021204499 -0.2030078 0.327025
0.049143709 -0.2337793 0.3933624
0.06515307 -0.2192006 0.32717559
0.046530109 -0.22174791 0.33842191
0.016558271 -0.2007412 0.31591931
0.052001711 -0.20399471 0.3055191
0.033197429 -0.2009124 0.3091974
0.073107094 -0.20378239 0.29716831
0.1473687 -0.2160603 0.37676659
0.1751042 -0.2348858 0.311524
0.020067001 -0.204402 0.37072161
0.1656034 -0.2164741 0.36957341
0.076995261 -0.2032623 0.30604011
0.047466259 -0.2320908 0.3764604
0.05095296 -0.2355936 0.38724059
0.1263186 -0.1486305 0.54671508
0.01250508 -0.22704761 0.45004991
0.038455632 -0.21121959 0.34077039
0.079664104 -0.1382426 0.51883811
-0.1277906 -0.47289681 1.003708
-0.079025768 -0.4589268 1.049585
-0.0064732879 -0.2412407 0.60552162
0.091182783 -0.1285518 0.48102179
0.064612843 -0.1623417 0.4965511
0.057206981 -0.1973636 0.47250211
0.062554233 -0.16990259 0.49125031
0.03599355 -0.2160174 0.42452091
0.019941 -0.20585451 0.33280441
0.029285191 -0.2068515 0.34793821
0.02076173 -0.2189969 0.39278391
0.02810267 -0.203778 0.33995661
-8.8734552e-05 -0.2152894 0.3443166
0.0081152339 -0.2047037 0.44140029
0.03184443 -0.2070484 0.3503204
0.082166366 -0.22019219 0.32874161
0.151564 -0.1898126 0.47723219
0.077117532 -0.16549639 0.46964481
0.14800049 -0.1753647 0.4486497
0.05099754 -0.1969391 0.4793646
-0.01308217 -0.2022437 0.3880724
0.0085191755 -0.203668 0.44368991
0.002358289 -0.20689081 0.4320944
0.162395 -0.1924063 0.40903351
0.1330795 -0.16216891 0.45596349
0.55060172 -0.2211279 0.5728125
0.44924 -0.20488819 0.4762378
0.26013711 -0.2161151 0.30042839
0.31320521 -0.18251529 0.40834069
0.27364841 -0.2216371 0.33291101
0.1908762 -0.22499619 0.2770884
0.185591 -0.21683531 0.2712768
0.36415559 -0.36805689 0.55793279
0.36603779 -0.2013379 0.3306298
0.36873481 0.020603109 0.47925621
0.31875709 -0.19737349 0.35105231
0.34010759 -0.07127884 0.41949669
0.2141811 -0.2107604 0.25035211
0.34700671 -0.0086168721 0.4909524
0.2088441 -0.2044317 0.2459172
0.2787734 -0.1856517 0.35198101
0.52336693 -0.064777523 0.42630741
0.55440891 -0.2118188 0.49275419
0.51679409 -0.2082056 0.29881611
0.51712751 -0.2200342 0.3075949
0.49798071 -0.2069995 0.3226082
0.48241621 -0.1992031 0.35314399
0.48464119 -0.20838331 0.32127491
0.62915999 -0.2354724 0.51971912
0.68067652 -0.2215229 0.53675717
0.7146126 -0.2239145 0.6114046
0.58012623 -0.2043606 0.34283581
0.63890398 -0.23090211 0.21607231
0.57768559 -0.2292392 0.58450103
0.57395548 -0.2279774 0.58319843
0.57450432 -0.2278491 0.58322281
0.58522332 -0.2263381 0.230774
0.59428722 -0.20994221 0.27386951
0.5810582 -0.1833012 0.54626697
0.4218201 -0.20113011 0.47961029
0.4563877 -0.1290504 0.53063351
0.45303711 -0.085063867 0.52252448
0.44954371 -0.1301181 0.53683579
0.58233821 -0.21622001 0.49723941
0.52596837 -0.1032287 0.4561294
0.59758312 -0.18834829 0.55880368
0.40721521 -0.21900719 0.35189331
0.51175117 -0.22227719 0.53396457
0.40576181 -0.21820121 0.35043231
0.4642204 -0.1294848 0.53062367
0.25524059 -0.2106777 0.25349611
0.41620031 -0.118071 0.49105921
0.42475721 -0.080327362 0.50133872
0.25602591 -0.2235927 0.26466569
0.32429129 -0.22307999 0.32065731
0.42991781 0.018203041 0.51158452
0.28154689 -0.21075369 0.31844279
0.2490893 -0.2140183 0.24072389
0.25762519 -0.2122418 0.2602621
0.2394975 -0.2234149 0.28190809
0.2537832 -0.22095101 0.26128021
0.27482209 -0.2159691 0.29751891
0.3137967 -0.2054503 0.3657344
0.28594619 -0.220605 0.32677761
0.24193311 -0.2262594 0.30688119
0.53172243 -0.18081351 0.56291401
0.26087019 -0.2243624 0.29884481
0.235148 -0.218254 0.25568601
0.2263968 -0.2274349 0.2928915
0.22079811 -0.2237056 0.27967969
0.2497673 -0.2084918 0.31709239
0.41788751 -0.016456351 0.57880741
0.2178409 -0.2201446 0.26337761
0.2210889 -0.2167411 0.28207389
0.1833902 -0.2091641 0.27249169
0.2005524 -0.2178002 0.26976281
0.31119451 -0.2006827 0.3760128
0.2043163 -0.21811 0.2921758
0.32123849 0.0079316664 0.62197357
0.1857093 -0.22171789 0.26031271
0.24710239 -0.40913889 0.5803206
0.093088657 -0.2186653 0.3193081
0.071433581 -0.21910369 0.33571979
0.067865223 -0.22024129 0.32706901
0.093124159 -0.15925141 0.57656461
0.08374051 -0.2353549 0.35157481
0.02281132 -0.2307733 0.36739561
0.02668339 -0.2349471 0.47657159
0.08350227 -0.21899021 0.51873428
0.03276692 -0.2411883 0.3558504
0.068816721 -0.1916053 0.51314592
0.065657467 -0.20334271 0.50543368
0.051901221 -0.2176789 0.43209311
0.03075364 -0.2183598 0.3405391
0.085169911 -0.1247804 0.53603518
0.080646798 -0.14482421 0.52780622
0.074700028 -0.16983201 0.51432252
0.070119657 -0.1873291 0.50280869
0.063358493 -0.2098466 0.48394871
0.052378099 -0.2238656 0.43567091
0.03111532 -0.2283733 0.476827
0.021192489 -0.2285796 0.4524757
0.01328459 -0.21436781 0.34237131
0.0091051608 -0.2276635 0.4243806
0.031854119 -0.22864731 0.38564271
0.0047681928 -0.23213769 0.41729781
0.01830125 -0.2337717 0.45368561
0.027997261 -0.23468959 0.47284049
0.024837591 -0.2301759 0.4528611
0.01278641 -0.2287944 0.42422041
0.087749057 -0.2189118 0.32660031
0.073528498 -0.2238266 0.34424999
0.062941119 -0.2406117 0.359662
0.065512858 -0.2448281 0.39491349
0.060746871 -0.24694119 0.39636171
0.0445395 -0.24125651 0.36755699
0.038577899 -0.2254435 0.35932389
0.060224742 -0.2331266 0.3558867
0.028967731 -0.2210107 0.3796778
0.075931437 -0.2350412 0.44282469
0.060086358 -0.2454112 0.39826441
0.01772394 -0.2239013 0.35667011
0.029579081 -0.221053 0.37738019
0.02277541 -0.2306553 0.3692435
0.073736884 -0.2327705 0.52547443
0.0090468694 -0.2485368 0.44105741
0.0044886488 -0.2474198 0.42960209
0.03900538 -0.24977911 0.51724851
0.02525018 -0.24963801 0.48083279
0.092292957 -0.24659979 0.3651548
0.1911432 -0.24137279 0.32590559
0.18392441 -0.2264156 0.29743731
0.1772656 -0.23348659 0.30118781
0.19597089 -0.2302487 0.3164241
0.42519629 0.069640517 0.620857
0.40243861 -0.00709461 0.6117996
0.40524951 -0.0382706 0.61765993
0.46270409 -0.089763314 0.55573589
0.39301571 -0.06138036 0.4746376
0.3682507 -0.076043703 0.48250109
0.55690563 -0.1102355 0.48878479
0.56799811 -0.2528398 0.60782307
0.61978447 -0.2327307 0.53468281
0.64883071 -0.24240629 0.53445709
0.33499441 -0.2239663 0.39405921
0.42658821 -0.23160701 0.37486759
0.30859861 -0.2426334 0.3614175
0.27084899 -0.2316086 0.35439929
0.36223251 -0.2097009 0.402358
0.41472441 -0.26176 0.45716649
0.51127672 0.082099013 0.4949795
0.57922119 -0.21921989 0.27947119
0.55039853 -0.21976569 0.30393529
0.57748312 -0.204099 0.34166011
0.52624601 -0.2145932 0.30707291
0.51059443 -0.2154578 0.31884581
0.61720121 0.099911883 0.4303712
0.66430771 -0.049808919 0.4243837
0.73327869 -0.2499748 0.64293021
0.72843379 -0.2324094 0.65386093
0.59291118 0.052565109 0.4590002
0.61352569 -0.2289162 0.55819732
0.53783792 -0.1048735 0.47030541
0.71443331 -0.2220788 0.60785168
0.44142491 -0.2088432 0.37922981
0.60510391 -0.2229339 0.53139299
0.59820801 -0.21937829 0.27026811
0.74656349 -0.051198158 0.34990779
0.57751977 -0.21873941 0.27685529
0.74968457 -0.058790769 0.39909059
0.56103933 -0.21785501 0.28910959
0.55038929 -0.22169439 0.30347911
0.71039248 -0.049138561 0.36817491
0.53300488 -0.2194438 0.3111392
0.7459476 -0.24005879 0.5530436
0.49788499 -0.218071 0.33221501
0.64849252 0.082315423 0.45541379
0.4688507 -0.2252225 0.371986
0.64184737 -0.2454669 0.59369081
0.61155349 -0.074516259 0.47466481
0.61145449 -0.1941011 0.57939929
0.54662251 -0.1068402 0.47831291
0.57517022 -0.036277682 0.49862421
0.46359211 -0.2280518 0.4127354
0.6050567 -0.2246893 0.53223652
0.55903691 -0.042274181 0.49541321
0.58551699 -0.233752 0.59742248
0.44378141 -0.2165105 0.40359351
0.41449231 -0.2254671 0.3660723
0.46222281 -0.224806 0.43179181
0.59767503 0.05029564 0.46870199
0.49971399 -0.2283252 0.49201071
0.56264132 -0.073576562 0.4734979
0.44560391 -0.2282345 0.42518219
0.58001357 0.051496021 0.47275829
0.56821471 0.027056981 0.46764311
0.58365393 -0.20691431 0.57235122
0.55483967 -0.04849105 0.49577191
0.4195931 -0.23056179 0.375597
0.4571124 -0.21730439 0.35853681
0.1075712 -0.2215986 0.34808141
0.09824241 -0.2168608 0.35078031
0.143815 -0.2217987 0.3714827
0.072822914 -0.2248074 0.33172119
0.071051687 -0.21989609 0.31426191
0.081316583 -0.21750949 0.36082029
0.065325573 -0.2173809 0.34692359
0.066784807 -0.22161061 0.33713001
-0.032453511 -0.2211919 0.51328307
-0.036091961 -0.22865669 0.53950691
-0.042049211 -0.2346562 0.53284401
-0.051944181 -0.2265625 0.2976006
-0.03609721 -0.23066209 0.54337019
0.2221971 -0.06207034 0.70039809
0.078664362 -0.1325499 0.53708982
0.076091006 -0.1328079 0.5403803
0.069930144 -0.1579037 0.52598971
0.059181001 -0.2102174 0.49192351
0.05711225 -0.21482889 0.49435729
0.057810899 -0.2204939 0.4492442
0.01739523 -0.2265694 0.46625611
0.01343597 -0.2249337 0.44893679
0.046898991 -0.2284413 0.44457471
0.01047423 -0.226474 0.44597101
-0.0043786168 -0.223684 0.40699989
-0.0092885494 -0.2232573 0.39546341
0.024942821 -0.2251277 0.4771179
0.044031441 -0.1793496 0.51049107
0.026929669 -0.2199571 0.36120141
0.01543733 -0.2194659 0.3494828
0.03113449 -0.21934029 0.34159061
0.048041049 -0.2238438 0.39376271
0.037101701 -0.22292949 0.35602409
0.062759399 -0.2159126 0.50035888
0.017812951 -0.2390887 0.4671126
0.07317619 -0.2380511 0.45119879
0.055443279 -0.2425503 0.46791369
-0.033175841 -0.24052051 0.56214583
-0.02975616 -0.2302569 0.53006691
0.076165743 -0.2199228 0.5224995
0.01329336 -0.22760721 0.37361819
0.031813659 -0.22802299 0.3653852
0.020904651 -0.2192945 0.3791869
0.017807269 -0.2240815 0.46098551
-0.051470231 -0.23695891 0.32392481
0.022409931 -0.2346877 0.4786652
0.069512948 -0.2288662 0.35243911
0.091806747 -0.2277858 0.34139141
0.056475628 -0.2330265 0.38529259
0.089955837 -0.227882 0.3476603
0.1239612 -0.2280128 0.33367321
0.15641131 -0.22328199 0.31186751
0.04605034 -0.2297091 0.34999281
0.093193531 -0.23168869 0.4180375
0.2006987 -0.2211125 0.29624751
0.2123161 -0.22208451 0.3099874
0.18266509 -0.2209063 0.3044869
0.32966661 -0.02341231 0.62850142
0.087213427 -0.2241879 0.43200609
0.095304847 -0.22428469 0.41749921
0.089868277 -0.22507609 0.41667011
0.43325409 -0.2178217 0.26808789
0.49889809 -0.1962028 0.34976619
0.46590999 -0.2006294 0.3303521
0.46361959 -0.1989184 0.3812294
0.50357318 -0.19606151 0.3711983
0.4235588 -0.2017476 0.3639552
0.4669539 -0.195279 0.41239139
0.57122302 -0.201442 0.25657591
0.54111302 -0.2015489 0.24898019
0.67256832 -0.21499939 0.47811699
0.56745118 -0.2058941 0.45466229
0.6776585 -0.1026924 0.2690489
0.56592208 -0.20397229 0.2284739
0.57115638 -0.202537 0.3006278
0.73006457 -0.2223518 0.36490601
0.54360199 -0.20441709 0.29461449
0.51225042 -0.20294359 0.27456999
0.5156247 -0.2045833 0.28858
0.50122923 -0.203713 0.28490549
0.45947349 -0.2220452 0.25820151
0.40878811 -0.22197451 0.225788
0.479983 -0.2013355 0.29251119
0.49222049 -0.200112 0.31009069
0.4053053 -0.22139201 0.2240798
0.56815171 -0.2210775 0.2189341
0.54298508 -0.20217399 0.25045589
0.57086682 -0.2042383 0.2562668
0.54377931 -0.2083118 0.206071
0.55710989 -0.2004059 0.2394999
0.73446608 -0.2235571 0.36657029
0.56047982 -0.2031551 0.25773889
0.57364279 -0.20932069 0.2271339
0.58452451 -0.2075524 0.2797699
0.55052298 -0.2049707 0.26784879
0.56736892 -0.1994205 0.2826215
0.53144842 -0.20702951 0.2624329
0.55002087 -0.19796491 0.29157311
0.51334518 -0.2061346 0.2868953
0.56785071 -0.20148741 0.332461
0.42086959 -0.22335871 0.2271622
0.53300983 -0.207219 0.32034799
0.74297518 -0.18753821 0.49387959
0.5839808 -0.2058401 0.2498617
0.72511798 -0.23914421 0.52851528
0.50913471 -0.21065331 0.29000509
0.57684559 -0.1975449 0.34904909
0.41270611 -0.2273466 0.2295915
0.72211641 -0.1983203 0.54930627
0.48508739 -0.1993541 0.332614
0.57812482 -0.2083814 0.26052809
0.2380124 -0.2187296 0.33100641
0.57743049 -0.20835359 0.26067111
0.2547664 -0.218073 0.32271019
0.57218039 -0.1078118 0.41714221
0.243504 -0.2172471 0.2335701
0.25677231 -0.21255951 0.2561956
0.2489164 -0.2146183 0.24861971
0.2636604 -0.21194661 0.2733992
0.2325464 -0.21542031 0.23646989
0.27198279 -0.2134781 0.29181081
0.27758071 -0.212458 0.30494311
0.2245992 -0.2154471 0.2387559
0.27970091 -0.21703359 0.3207621
0.30846369 -0.21331529 0.36425671
0.25367281 -0.22113021 0.29444611
0.2153243 -0.21677379 0.24433769
0.251468 -0.21767031 0.25670809
0.25065759 -0.2194373 0.29929289
0.23499151 -0.21554179 0.2467808
0.2321386 -0.2186705 0.28125831
0.40589139 -0.2039873 0.3720662
0.40029001 -0.20458131 0.39543661
0.45612469 -0.21420451 0.3432093
0.42233121 -0.2086743 0.379522
0.57162982 -0.2322787 0.59048468
0.39112309 -0.2060377 0.35935491
0.43209159 -0.1253951 0.51712698
0.57898152 -0.2087836 0.26138201
0.1361661 -0.99671489 0.99075949
0.1324224 -0.99755698 0.99351293
0.1371467 -0.99482912 0.96687019
0.061701939 -0.99338388 0.74014872
0.1009826 -0.65506178 0.40115401
-0.27480069 -0.53369188 0.72404629
-0.269907 -0.52721047 0.73909831
-0.1381861 -0.55526948 0.74734008
-0.15295871 -0.56416881 0.73114032
-0.2098985 -0.53906518 0.69105291
