# .PCD v0.7 - Point Cloud Data file format
VERSION 0.7
FIELDS x y z normal_x normal_y normal_z curvature
SIZE 4 4 4 4 4 4 4
TYPE F F F F F F F
COUNT 1 1 1 1 1 1 1
WIDTH 640
HEIGHT 1
VIEWPOINT 0 0 0 1 0 0 0
POINTS 640
DATA ascii
0.44560391 0 0.42518219 -0.0035986879 0.99997073 -0.0067546675 8.0858605e-05
0.52336693 0 0.42630741 -0.044263873 0.99759132 0.053407125 0.056638386
0.002358289 0 0.4320944 -0 1 -0 0
0.03639416 0 0.4341951 -0 1 -0 0
0.053580105 0 0.43532217 -0 1 -0 0
0.085745722 0 0.43131444 -0 1 -0 0
0.095371582 0 0.43857241 -0 1 -0 0
0.1349671 0 0.4301292 -0 1 -0 0
0.1845143 0 0.43905729 -0 1 -0 0
0.19178705 0 0.43614459 -0 1 -0 0
0.4444204 0 0.43411219 -0.003538718 0.99995458 -0.0088501163 0.00010344907
0.46222281 0 0.43179181 -0.0073256129 0.99994785 -0.007119745 8.2590144e-05
0.57902431 -0.0014064339 0.437408 0.57414901 -0.031047022 0.81816196 0.20919566
0.60711348 0 0.43607461 0.6852048 -0.65732688 -0.31371284 0.21658432
0.0076935114 0 0.44469142 -0 1 -0 0
0.0119551 0 0.44745392 -0 1 -0 0
0.037296329 0 0.44417939 -0 1 -0 0
0.046898991 0 0.44457471 -0 1 -0 0
0.055336788 0 0.44630834 -0 1 -0 0
0.075931437 0 0.44282469 -0 1 -0 0
0.14800049 0 0.4486497 -0 1 -0 0
0.19525054 0 0.4452568 -0 1 -0 0
0.30502319 0 0.4487868 -0.0053523858 0.99997264 0.0051121293 0.0012721987
0.58491391 -0.00030997154 0.44617906 0.50525981 0.034790169 0.86226571 0.2428837
0.59976351 0 0.44794351 0.45254737 -0.71980613 -0.52638394 0.15710929
0.015403165 0 0.45186776 -0 1 -0 0
0.023015041 0 0.4526684 -0 1 -0 0
0.05344953 0 0.45474076 -0 1 -0 0
0.07317619 0 0.45119879 -0 1 -0 0
0.1330795 0 0.45596349 -0 1 -0 0
0.19611619 0 0.45025551 -0 1 -0 0
0.20295981 0 0.4547593 -0 1 -0 0
0.2359883 0 0.452198 -0 1 -0 0
0.34730831 0.0012763537 0.45842892 -0.098680951 0.98473364 0.14339353 0.092946388
0.41472441 0 0.45716649 -0.013880087 0.99983263 -0.011925302 0.00085465523
0.47303361 0.0026373097 0.45690995 -0.0023259665 0.99999374 -0.0026557471 0.0021419681
0.52596742 9.9193412e-06 0.45612854 0.016094396 0.98824376 0.15203732 0.14262009
0.5591895 -0.0033745195 0.46265054 0.49996075 -0.011894856 0.86596638 0.18517916
0.5680415 -0.00020676381 0.4529222 0.50891924 -0.015881505 0.86066771 0.1825114
0.57559645 0.0012381338 0.45898458 0.29856429 0.26708603 0.91625571 0.23935294
0.59229177 0.00091310823 0.45773041 0.4154397 -0.64355475 -0.64284301 0.22224943
0.0092714624 0 0.4620139 -0 1 -0 0
0.017671816 0 0.46478474 -0 1 -0 0
0.055443279 0 0.46791369 -0 1 -0 0
0.077117532 0 0.46964481 -0 1 -0 0
0.31319359 0 0.46298301 -0.0067773685 0.99992001 0.010675315 0.0018229194
0.35804141 0.0021979113 0.46669018 -0.081914417 0.99396193 0.073004544 0.062235966
0.41771191 0 0.46633771 -0.013872451 0.99983257 -0.011929612 0.00072945893
0.42099151 0 0.46986139 -0.014849288 0.9998188 -0.011911933 0.00070945447
0.46528482 0 0.46258491 -0.001964055 0.99998158 -0.0057522417 0.0019148538
0.52735806 0.0029245387 0.46987975 0.10333625 0.96282047 0.24959628 0.17818555
0.55104959 -0.00076880597 0.4732877 0.38008043 0.15944976 0.91110629 0.2082276
0.55578923 0.0022583257 0.46554661 0.46782687 0.09135548 0.87908608 0.1987652
0.56801778 0.0031964162 0.46656787 0.2825478 0.31771031 0.90511149 0.24073039
0.59767503 0 0.46870199 -0.33590832 0.64196301 0.68923801 0.18620403
0.0059683551 0 0.47554731 -0 1 -0 0
0.017712381 0 0.47262099 -0 1 -0 0
0.025508352 0 0.47629881 -0 1 -0 0
0.031598292 0 0.47734904 -0 1 -0 0
0.054102261 0 0.47593337 -0 1 -0 0
0.151564 0 0.47723219 -0 1 -0 0
0.25138929 0 0.47987789 -0 1 -0 0
0.35029235 0.0010544192 0.47543627 -0.28423986 0.81670743 0.50219184 0.13972202
0.36829919 0.0023852384 0.47956851 -0.068856411 0.99709475 0.032571916 0.058564633
0.39319935 0.0021096582 0.47437909 -0.013745802 0.99985147 -0.010399153 0.0010031039
0.4125455 0 0.47639579 -0.013177446 0.99978518 -0.015997484 0.0010310106
0.42180389 0.00054781209 0.47957039 -0.012649419 0.99978906 -0.016179573 0.00094263605
0.43399131 0 0.47396839 0.0029219631 0.99985361 -0.016863041 0.0001905417
0.44924 0 0.4762378 0.0099787842 0.99984658 -0.014397558 0.00048764981
0.50407016 0.0014228246 0.47574118 0.054406084 0.99851656 0.0021273675 0.11948765
0.53710091 0.0047020102 0.47540778 0.39546406 0.17708816 0.90124798 0.17974666
0.54690808 0.00011389039 0.47881663 0.31453118 0.25803161 0.91350418 0.22442384
0.55227584 0.00053066789 0.47539654 0.3932789 0.15477847 0.90629762 0.21992511
0.56315875 0.002241299 0.4731293 0.30476603 0.27805388 0.91093558 0.23185164
0.582129 0.0028518299 0.47156858 -0.17338289 0.80582768 0.56619799 0.20361105
0.61155349 0 0.47466481 0.40422803 -0.71882033 -0.56559443 0.14131738
0.02525018 0 0.48083279 -0 1 -0 0
0.03985079 0 0.4860729 -0 1 -0 0
0.047060579 0 0.48983929 -0 1 -0 0
0.063358493 0 0.48394871 -0 1 -0 0
0.091182783 0 0.48102179 -0 1 -0 0
0.2027072 0 0.48386174 -0 1 -0 0
0.25257313 0 0.48786727 -0 1 -0 0
0.36790431 0.0018966561 0.4827494 -0.074203767 0.99640727 0.040821172 0.073458165
0.50821114 0.0007397781 0.4866983 0.1319814 0.97830981 0.15965828 0.11685276
0.52221346 0.0013733162 0.48769996 0.13515499 0.92913073 0.34416449 0.15069145
0.53573704 0.0019048566 0.48236725 0.31488541 0.39192268 0.86443263 0.22724661
0.54824871 -0.002559551 0.48225087 0.31448659 0.25805089 0.91351402 0.22441563
0.55192167 -0.0031691901 0.47969067 0.30476603 0.27805388 0.91093558 0.23185164
0.048491679 0 0.49488741 -0 1 -0 0
0.056535173 0 0.49270949 -0 1 -0 0
0.063583538 0 0.49390072 -0 1 -0 0
0.2254478 0 0.49765715 -0 1 -0 0
0.35026571 -0.0048193275 0.49028036 -0.399414 0.28074545 0.87272578 0.19469264
0.41618288 0.00085221499 0.49102402 -0.035061188 0.99905032 0.025868148 0.016868094
0.42673215 0.00077511248 0.49792099 -0.047141459 0.99865884 0.021406781 0.038354013
0.49996051 0.0021778839 0.49237218 0.054602258 0.99836659 0.016817627 0.08335536
0.51477474 0.00027515145 0.49519634 0.2832399 0.87257904 0.39797112 0.11944288
0.52605617 -0.00035197969 0.49472848 0.07019341 0.97412288 0.21484311 0.14760029
0.53079468 -0.00018600827 0.49322277 0.13334727 0.95115066 0.27844399 0.20857349
0.54630756 -0.0050738906 0.48924747 0.32425469 0.095512941 0.94113559 0.25538474
0.55215275 -0.0053428276 0.48531285 0.30203947 0.30372348 0.90361738 0.24620406
0.57513928 -0.00018710809 0.49863029 -0.14539561 0.97210073 0.18406586 0.17715666
0.58217436 -0.0011844549 0.4971548 -0.17626834 0.94647491 0.27039754 0.18108337
-0.051821709 0 0.50594568 -0 1 -0 0
0.064208433 0 0.50289631 -0 1 -0 0
0.070119657 0 0.50280869 -0 1 -0 0
0.22566479 0 0.50251877 -0 1 -0 0
0.24011099 0 0.50383413 -0 1 -0 0
0.42480204 0.00090538536 0.50132948 -0.047012586 0.99877751 0.015278388 0.036152355
0.49144033 0.0025826483 0.50703436 0.026273813 0.99759185 -0.064187616 0.067641817
0.50779974 7.4008189e-05 0.50764465 0.14810312 0.97526109 0.16410747 0.091457993
0.51793361 -0.00089863309 0.50580156 0.12864378 0.98441589 0.11989998 0.10551645
0.52351707 -0.00025349364 0.50018871 0.060798105 0.99373746 0.093751557 0.12161865
0.61195761 0 0.50981921 0.41981423 -0.87569988 -0.23854916 0.10598581
-0.032453511 0 0.51328307 -0 1 -0 0
0.03900538 0 0.51724851 -0 1 -0 0
0.044031441 0 0.51049107 -0 1 -0 0
0.068816721 0 0.51314592 -0 1 -0 0
0.075889669 0 0.51540297 -0 1 -0 0
0.08350227 0 0.51873428 -0 1 -0 0
0.41942227 0.0022188101 0.51923585 -0.11168513 0.99371594 0.0074193748 0.1331947
0.42989141 0.0010616648 0.51158303 -0.032190435 0.99902898 -0.030083602 0.090040311
0.43194002 0.0014035966 0.51716721 -0.049624238 0.99876678 -0.0015445241 0.099486016
0.50377256 -0.00024158311 0.51573855 0.11554433 0.99248272 0.040342249 0.082849242
0.51940989 0.0028472627 0.5137229 0.13102953 0.9865492 0.097734332 0.10273624
0.60694218 0 0.51102161 -0.24663508 0.95184892 0.18208459 0.10030369
0.62915999 0 0.51971912 -0.062188875 0.99704641 0.045066781 0.052491471
0.069930144 0 0.52598971 -0 1 -0 0
0.073992223 0 0.52596241 -0 1 -0 0
0.080646798 0 0.52780622 -0 1 -0 0
0.42870769 0.0023218817 0.52167314 -0.057242759 0.9983564 0.0027769762 0.12898785
0.43611896 0.0022629763 0.5256139 -0.032896202 0.99945784 -0.001343135 0.1290323
0.44569924 0.0025354857 0.52780956 -0.0056397417 0.99975455 0.02142374 0.079875775
0.45360535 0.0036074365 0.526214 -0.019540017 0.99850172 -0.051112738 0.072090112
0.60297829 0 0.52402431 -0.21343417 0.97028285 0.11400437 0.079249807
0.61808842 0 0.52254742 -0.11273523 0.98951894 0.09023881 0.065804228
0.62938452 0 0.5220055 -0.11984945 0.99279183 -0.00069018116 0.021493547
-0.043316644 0 0.53244519 -0 1 -0 0
-0.037811354 0 0.5374161 -0 1 -0 0
-0.02975616 0 0.53006691 -0 1 -0 0
0.075552732 0 0.53794372 -0 1 -0 0
0.085169911 0 0.53603518 -0 1 -0 0
0.44645953 0.0018285386 0.53562063 -0.01391034 0.99947369 0.029306434 0.09642639
0.45378026 0.0024285819 0.53621519 -0.025842341 0.99954307 0.015678771 0.093445733
0.46420875 0.0010399705 0.53065151 -0.018166207 0.99959105 -0.022085626 0.065408431
0.51249552 0.0022961244 0.53374755 0.12857093 0.99089676 0.039913196 0.076618373
0.60623312 0 0.53187817 -0.18400966 0.98008806 0.074617997 0.070085257
0.61978447 0 0.53468281 -0.061058253 0.99741536 -0.037875578 0.018777153
0.64883071 0 0.53445709 -0.0049764328 0.99998438 -0.0025309641 3.9363622e-05
-0.03609721 0 0.54337019 -0 1 -0 0
0.076091006 0 0.5403803 -0 1 -0 0
0.42304167 0.0015034025 0.54583204 -0.10968215 0.99392289 0.0093353894 0.15667771
0.43613738 0.0021361108 0.54371005 -0.073604055 0.99644536 0.040976264 0.14166586
0.45808637 0.0012260576 0.54387224 0.016103711 0.99571317 0.091082186 0.10013672
0.5810582 0 0.54626697 0.00047892897 0.99927932 -0.037954144 0.033346847
0.36424848 -0.00046969159 0.55788755 0.11891229 0.99077559 0.064989142 0.16812256
0.41257212 -0.00015987494 0.56255174 0.62297696 0.42043361 0.65964794 0.17682143
0.41487947 0.0011443624 0.55337679 0.39776298 0.80656451 0.43730804 0.19404937
0.44702324 0.00065836561 0.55686182 0.35902929 0.78027886 0.51211613 0.16761881
0.46267903 0.00034369953 0.55577511 0.097025983 0.96890461 0.22761768 0.10538696
0.59758312 0 0.55880368 -0.055144668 0.99648792 -0.063014366 0.014199818
0.61352569 0 0.55819732 -0.0025865952 0.99999219 -0.0030130108 1.7311397e-05
-0.033175841 0 0.56214583 -0 1 -0 0
0.39861339 0.00032614975 0.57009768 0.519862 0.64253503 0.56293172 0.15239689
0.40230131 6.9091257e-05 0.56811148 0.47566921 0.73204774 0.48769358 0.15779217
0.42112038 -0.0029563829 0.56292778 0.62297696 0.42043361 0.65964794 0.17682143
0.44678402 -0.0020890541 0.5661121 0.49986115 0.57064581 0.65153831 0.15411653
0.4674429 -0.0042344336 0.56708235 0.023856835 0.97269702 0.23084918 0.090295762
0.53172243 0 0.56291401 0.0071205753 0.99994379 -0.0078545334 0.0030136837
0.56146801 0 0.56848472 -0.0027459709 0.99986792 -0.016020555 0.0026335598
0.59198898 0 0.56532341 -0.055144668 0.99648792 -0.063014366 0.014199818
0.093124159 0 0.57656461 -0 1 -0 0
0.38254899 0.0019585737 0.57493758 0.58056456 0.4831202 0.65539277 0.10389144
0.39416289 -1.8211114e-05 0.57297814 0.53931302 0.58297151 0.60768884 0.15260619
0.40431458 -0.0034188589 0.57653546 0.52985454 0.58902907 0.61016297 0.14864112
0.41617683 -0.0044214339 0.57687438 0.5199061 0.64247662 0.56295782 0.15239151
0.55060172 0 0.5728125 -0.0004485659 0.99994296 -0.010673539 0.00074769941
0.58365393 0 0.57235122 -0.0016008823 0.9999963 -0.0021807682 1.4882905e-05
0.59993792 0 0.57713509 -0 1 -0 0
0.61145449 0 0.57939929 -0 1 -0 0
0.36567935 -0.0037985004 0.58375716 0.52770549 0.36900821 0.76508814 0.12756439
0.41526175 -0.0043154261 0.58476436 0.53408557 0.53618652 0.65364867 0.14283098
0.56953567 0 0.58544338 0.0073048002 0.99996549 0.0039748959 6.6849461e-05
0.57538182 0 0.58364075 -0 1 -0 0
0.62167227 0 0.58772922 -0 1 -0 0
0.1083443 0 0.59642851 -0 1 -0 0
0.37020603 -0.0044117365 0.59286475 0.52770549 0.36900821 0.76508814 0.12756439
0.38086906 -0.0018918028 0.5908227 0.49408612 0.38538021 0.77933377 0.11613119
0.55189937 0 0.59557343 0.0080423402 0.99995458 0.0051152366 9.8802237e-05
0.57465142 0 0.59343529 -0 1 -0 0
0.58551699 0 0.59742248 -0 1 -0 0
0.64184737 0 0.59369081 -0 1 -0 0
0.54838288 0 0.60351872 0.0080423402 0.99995458 0.0051152366 9.8802237e-05
0.56799811 0 0.60782307 -0 1 -0 0
0.40830976 -0.010353286 0.60914952 0.21584982 0.77230048 0.59746194 0.14174655
0.56602198 0 0.61603689 -0 1 -0 0
0.32545257 2.3441523e-22 0.62523746 0.13496771 0.96324849 0.23224144 0.038874999
0.42508864 0.00052520278 0.62087411 0.26758072 0.71879727 0.64166272 0.14147975
0.58541298 0 0.62438262 -0 1 -0 0
0.58863741 0 0.63617599 -0 1 -0 0
0.60889482 0 0.64353782 -0 1 -0 0
0.23375539 0 0.68649107 0.9399122 0.00039779069 0.34141606 0.010457794
0.2284871 0 0.6903404 0.9399122 0.00039779069 0.34141606 0.010457794
0.2335801 0 0.69461769 0.9399122 0.00039779069 0.34141606 0.010457794
0.2221971 0 0.70039809 0.93985969 0.0002721076 0.34156063 0.0073559671
0.2184073 0 0.71308148 0.93985969 0.0002721076 0.34156063 0.0073559671
0.22516111 0 0.72048318 0.93985969 0.0002721076 0.34156063 0.0073559671
0.069421299 -0.2010092 0.28879723 -0.17051725 -0.91080827 -0.3759684 0.00057560834
0.057364188 -0.21236502 0.32466668 -0.14298314 -0.92620575 -0.34885335 0.0028394475
0.057329796 -0.22109193 0.3457818 -0.12092412 -0.94819748 -0.29376686 0.0076085664
0.07782907 -0.20404859 0.29067484 -0.17682193 -0.90851182 -0.37860292 0.00054324581
0.60917425 -0.23737754 0.51003277 0.70534444 0.69907898 -0.11737911 0.072016895
0.56008387 0.040033549 0.45239735 0.60571915 -0.43034387 0.66925961 0.15981415
0.53212416 0.0024888036 0.47552812 0.46797696 0.22182354 0.85544842 0.18361241
0.56105274 -0.068490043 0.46861744 0.45779067 -0.080819443 0.88537902 0.06287723
0.54748762 -0.03122811 0.4907515 0.24373695 -0.2399575 0.93968755 0.1774087
0.55754364 -0.075873844 0.46690622 0.70260817 -0.098977245 0.7046597 0.040975958
0.5475117 -0.11813057 0.47696674 0.56744409 -0.21415509 0.79507536 0.09368477
0.62150931 -0.24640942 0.58949667 0.80515993 -0.28826106 0.51828849 0.098742411
0.53189939 -0.11011077 0.46480268 0.56607431 -0.21244974 0.79650795 0.079066344
0.54707092 -0.016053604 0.49239558 0.21745738 -0.42636335 0.87802422 0.24768931
0.53678626 0.0051636291 0.47890493 0.35371029 0.32154307 0.87835026 0.18373516
0.51694167 -0.00065872737 0.50307196 0.12863721 0.98588222 0.10718562 0.11456425
0.52239716 -0.0029024181 0.5089497 0.10254591 0.99180293 0.076232761 0.091607295
0.5560205 0.017850129 0.47595069 -0.060058054 0.91712648 0.39404595 0.17384493
0.54985952 0.003776235 0.49036026 0.01346237 0.91783321 0.39673802 0.23140281
0.51958317 0.0029383574 0.51396441 0.13102953 0.9865492 0.097734332 0.10273624
0.5037201 0.06016821 0.51568383 0.59828728 0.046952534 0.79990488 0.065244794
0.44725236 -0.1442865 0.55458099 0.84513623 -0.27260175 -0.45981839 0.087881207
0.43789893 -0.094212472 0.52157825 0.93168151 0.24115922 -0.27168322 0.11378661
0.44483492 -0.14533141 0.563977 0.87096298 -0.26556277 -0.41340032 0.10261133
0.44909701 0.0013942546 0.53902888 -0.0066119041 0.99945343 0.032390703 0.09360911
0.42442876 -0.14391465 0.56872606 0.869636 -0.27024668 -0.41315857 0.11607259
0.45546976 -0.10066888 0.55454761 0.83017778 -0.24153262 -0.50246078 0.080108002
0.41403311 -0.036117483 0.58553708 0.37402952 0.74778378 0.548563 0.12185749
0.35131994 -0.076278485 0.47441274 -0.48418018 -0.14036149 0.86363661 0.028794507
0.55459851 -0.20083344 0.59632486 0.6865074 0.38299543 0.61807936 0.19023165
0.56965607 -0.20995961 0.61394465 0.4392978 0.59367114 0.67421967 0.17516379
0.28201681 -0.23965548 0.35588744 0.21106304 -0.97619283 0.049999088 0.049929615
0.26419032 -0.24311213 0.36266339 0.2115901 -0.97661811 0.038034488 0.040525425
0.40496942 -0.039985005 0.57902616 0.61852753 0.35997051 0.69845897 0.1503751
0.24522693 -0.24399142 0.37176046 0.15664758 -0.98761368 -0.0089833327 0.02480096
0.22474618 -0.23504668 0.29087788 0.081899911 -0.9654792 -0.24726968 0.0067342441
0.28861117 -0.19854629 0.42191735 0.20758185 -0.78291798 0.58647192 0.060948759
0.25332353 -0.11355107 0.48714083 0.056174863 0.98320627 0.17363659 5.4772431e-07
0.24003032 -0.11569635 0.50358474 0.056174863 0.98320627 0.17363659 5.4772431e-07
0.17847747 -0.24598129 0.39581829 0.0064282613 -0.98465902 0.17437135 0.039929841
0.18975192 -0.23520358 0.29186931 0.044011988 -0.96836102 -0.24564178 0.010107093
0.21251839 -0.23658171 0.29416555 0.073704109 -0.96908569 -0.2354582 0.0079244161
0.21733795 -0.24321251 0.35071245 0.021512436 -0.99454212 -0.10209365 0.0076778433
0.19363494 -0.23950085 0.30955881 0.030037954 -0.9824422 -0.18413316 0.01059773
0.19870578 -0.23997572 0.31915593 0.016235085 -0.98857558 -0.14984922 0.0090107312
0.38127849 -0.0019563015 0.5931235 0.49408612 0.38538021 0.77933377 0.11613119
0.21785527 -0.24110742 0.32744741 0.045871388 -0.98649585 -0.15723146 0.0060818051
0.16739194 -0.23603699 0.29619375 -0.060020436 -0.97477627 -0.21496224 0.017175259
0.19549903 -0.24577805 0.38608846 -0.047366906 -0.99732029 0.055756062 0.022788942
0.19165558 -0.244757 0.3772859 -0.063986033 -0.99760473 0.02628118 0.018110106
0.19155127 -0.24815008 0.39949653 0.0088471361 -0.98185539 0.18942505 0.040840432
0.22569261 -0.11470377 0.50260478 0.056174863 0.98320627 0.17363659 5.4772431e-07
0.1932103 -0.22995242 0.44813517 0.051456898 -0.85495108 0.51615012 0.065584294
0.17087746 -0.24546801 0.40446964 0.037951298 -0.97003788 0.23997159 0.03984705
0.22652914 -0.11414661 0.49918035 0.056174863 0.98320627 0.17363659 5.4772431e-07
0.19218372 -0.22932719 0.44374982 0.080447972 -0.86045837 0.50312978 0.059738219
0.22200017 -0.087322764 0.7143864 0.93993634 -0.0031174091 0.34133568 2.8779705e-05
0.23048066 -0.084356554 0.69106448 0.93993634 -0.0031174091 0.34133568 2.8779705e-05
0.23234262 -0.079992548 0.68597794 0.93993634 -0.0031174091 0.34133568 2.8779705e-05
0.25043094 -0.11364729 0.48862129 0.056174863 0.98320627 0.17363659 5.4772431e-07
0.14941278 -0.24303201 0.40902048 -0.0083959168 -0.98142129 0.19168144 0.057164438
0.15797576 -0.24328481 0.4013156 -0.028468966 -0.99614859 0.08293093 0.028751438
0.20697467 -0.24646196 0.38397494 -0.032729011 -0.99797165 0.05460256 0.020834474
0.093659915 -0.24741593 0.43712062 -0.048068725 -0.98303455 0.17700998 0.042875838
0.086250953 -0.23782496 0.43340147 -0.040769409 -0.99200583 0.11942477 0.040231466
0.10430026 -0.23786758 0.42600438 -0.03354473 -0.98104692 0.19084506 0.060097396
0.21001099 -0.24854633 0.39241153 -0.0068845279 -0.99196821 0.12630026 0.029009851
0.17413709 -0.24292959 0.392425 -0.049432449 -0.99593425 0.075309113 0.030804202
0.047181383 -0.22399755 0.48977554 0.42510095 -0.88331306 0.19760402 0.15570985
0.04955706 -0.22500892 0.49433395 0.47862056 -0.85538024 0.19810861 0.15139593
0.051897276 -0.22102292 0.49245867 -0.49989423 0.84336931 -0.19706289 0.15330805
0.017871628 -0.23784901 0.45872197 0.022079295 -0.99650872 0.080516651 0.0725362
0.018254908 -0.22686532 0.36978313 -0.12544629 -0.97848535 -0.16379762 0.021515381
0.051194832 -0.23317546 0.45301303 0.061763447 -0.9794032 0.19223604 0.088225223
0.015188023 -0.23743249 0.44557345 -0.013779114 -0.99891889 0.044397175 0.055647962
0.037237346 -0.2315034 0.44426423 -0.030088462 -0.99759239 0.062482882 0.051800106
0.056727402 -0.23240617 0.43827665 -0.022620825 -0.99432462 0.10395585 0.055559069
0.036234204 -0.23100308 0.43414095 -0.049888223 -0.9978559 0.04236393 0.040866345
0.015281931 -0.23554868 0.44653043 -0.011004935 -0.99883091 0.047070563 0.056906536
0.044793535 -0.23289788 0.42402911 -0.05438301 -0.99794787 0.033799175 0.037602473
-0.013739524 -0.22922048 0.40439844 -0.1031533 -0.99085265 -0.087008208 0.024028318
-0.043322138 -0.23572382 0.5329513 -0.57317787 0.7892375 0.22038902 0.0010933501
-0.043469746 -0.23528196 0.53109884 -0.57317787 0.7892375 0.22038902 0.0010933501
-0.058166791 -0.23378611 0.29424259 -0.48703158 0.81039363 0.32567218 0.002291189
-0.038577694 -0.23276474 0.53494579 -0.57317787 0.7892375 0.22038902 0.0010933501
-0.024665682 -0.24057069 0.40954959 -0.11183237 -0.99158853 -0.065159597 0.027794452
-0.052152634 -0.23582526 0.50603682 -0.04129155 -0.99908942 -0.010742745 0.014309145
0.0036321057 -0.2264311 0.36270621 -0.078693837 -0.97704655 -0.19795784 0.021253418
-0.016881825 -0.22829366 0.40463451 -0.095801026 -0.99147248 -0.088342816 0.025630087
0.038621429 -0.22943445 0.48652458 0.30249768 -0.93267226 0.19651364 0.14218253
0.031435277 -0.22908981 0.4775559 0.26917735 -0.94933361 0.16220139 0.13467321
0.00036165462 -0.22693495 0.36241016 -0.082123801 -0.97707438 -0.19642158 0.021669922
0.0194711 -0.22363199 0.35995996 -0.13559231 -0.96638012 -0.21845862 0.0167148
-0.010270931 -0.23061723 0.40679887 -0.10723956 -0.99093926 -0.080864131 0.021438012
0.0092209829 -0.22701436 0.37931457 -0.11417823 -0.98283136 -0.14493367 0.021281732
0.049736634 -0.23275666 0.42394412 -0.047618706 -0.99829757 0.033683527 0.035990082
0.05582229 -0.22725339 0.45689526 0.091623694 -0.96894157 0.22968958 0.10032729
0.01048787 -0.22672904 0.37800583 -0.11417823 -0.98283136 -0.14493367 0.021281732
0.029671771 -0.22923227 0.42688248 -0.043821674 -0.99864882 0.027932055 0.039973374
0.015442185 -0.22983323 0.3951444 -0.076966263 -0.99311715 -0.088286884 0.027483342
0.017774997 -0.23227294 0.47233212 0.15836118 -0.98380852 0.083919175 0.071527064
0.04741564 -0.23463781 0.40127078 -0.089635275 -0.99287909 -0.078464292 0.025280593
0.015176079 -0.22644514 0.37024951 -0.12853187 -0.97773516 -0.16587216 0.021733098
0.015065826 -0.24377768 0.47031474 0.16129474 -0.98634142 0.033385236 0.067411587
0.023023181 -0.22912885 0.41209593 -0.053810634 -0.99765593 -0.042274263 0.036533158
0.017567577 -0.23011568 0.3966237 -0.064451143 -0.99494278 -0.077038877 0.032901287
0.00035541499 -0.22448951 0.36864009 -0.080515131 -0.98508757 -0.15205164 0.030166943
-0.0045827292 -0.23170185 0.42033011 -0.051231638 -0.99804962 -0.03566825 0.031575657
0.076565847 -0.14124916 0.53864378 -0.9879629 0.10266723 0.11571001 0.013293636
0.074911848 -0.1475846 0.52799505 -0.97211993 0.098125309 0.21296573 0.013116188
0.074368291 -0.15041384 0.52736402 -0.97211993 0.098125309 0.21296573 0.013116188
0.22044581 -0.075898707 0.71877056 0.95982033 0.023665901 0.27961561 0.0038132321
0.22973308 -0.073688857 0.69322044 0.93987 -6.9005109e-05 0.34153262 0.0041706013
0.18875402 -0.22793002 0.43689713 -0.046317317 -0.91788077 0.39414409 0.081095487
0.19148491 -0.22384816 0.43621936 -0.10983934 -0.91638589 0.38493147 0.082592443
0.16404013 -0.24386406 0.40789634 0.04267206 -0.97074485 0.23629114 0.038220465
0.10530943 -0.23085947 0.34835956 -0.090499781 -0.97056723 -0.22317967 0.012901314
0.22438669 -0.11349703 0.49619651 0.056174863 0.98320627 0.17363659 5.4772431e-07
0.19149923 -0.22379874 0.43622822 -0.10983934 -0.91638589 0.38493147 0.082592443
0.11421806 -0.23887913 0.4216432 0.0025324603 -0.99614763 0.087654993 0.046550009
0.13250601 -0.24254161 0.41275042 -0.0010544626 -0.99597275 0.089650266 0.04517756
0.17010355 -0.24453168 0.39808488 -0.0059744129 -0.98935145 0.14542384 0.031577155
0.19067241 -0.24680334 0.39233702 -0.012718007 -0.98978591 0.1419929 0.034143608
0.1794714 -0.23863676 0.37980562 -0.074691378 -0.99654102 0.036428981 0.021495331
0.17033891 -0.23685588 0.30903149 -0.076418325 -0.98887128 -0.12764727 0.014893801
0.23031805 -0.2460309 0.37644145 0.071962938 -0.99720448 0.020116294 0.018959915
0.21753019 -0.24488224 0.3659634 0.0017948629 -0.99893868 -0.046026055 0.011897826
0.22632731 -0.24378973 0.36075881 0.048279248 -0.99315834 -0.10632776 0.005206754
0.23476614 -0.24271044 0.35849652 0.076597258 -0.99142677 -0.10585744 0.0073470897
0.29101965 -0.19439375 0.41660666 0.053603325 -0.78209603 0.62084818 0.074265145
0.251351 -0.11213432 0.47975951 0.056174863 0.98320627 0.17363659 5.4772431e-07
0.25403583 -0.11375397 0.48805889 0.056174863 0.98320627 0.17363659 5.4772431e-07
0.099058554 -0.24100412 0.40608037 -0.084618948 -0.99454486 -0.060992427 0.020961095
0.19145265 -0.23835965 0.36941558 -0.072791137 -0.99732566 -0.0065482329 0.014480102
0.19240798 -0.23802322 0.29920292 0.027333254 -0.97793639 -0.20710701 0.0114479
0.21339102 -0.23913565 0.31011099 0.05381991 -0.97738868 -0.20448649 0.0089037996
0.22743836 -0.24280164 0.35398853 0.052989483 -0.9914785 -0.11900621 0.0052779978
0.26636377 -0.24238411 0.35988945 0.20752873 -0.97765827 0.033406869 0.041192565
0.18241407 -0.23412918 0.29026708 0.012049885 -0.97366256 -0.22767526 0.015606306
0.20176367 -0.23339438 0.28420329 0.072404057 -0.95862758 -0.27530167 0.0088217836
0.20792621 -0.23688361 0.29879439 0.073231161 -0.96907717 -0.23564081 0.008042044
0.27573282 -0.24188349 0.35671255 0.22169584 -0.97438681 0.037700098 0.04268254
0.16982351 -0.2323052 0.29263896 -0.043010075 -0.97141194 -0.23347162 0.018444518
0.19017687 -0.23208293 0.28622568 0.058625616 -0.9563731 -0.28620511 0.008488358
0.18224898 -0.23531517 0.29397458 0.012005524 -0.9760251 -0.2173264 0.014998596
0.17032856 -0.23156349 0.2913824 -0.041280523 -0.96743077 -0.24974708 0.017925868
0.22479992 -0.2395227 0.3201744 0.057269767 -0.98100805 -0.18531954 0.0071024424
0.19731614 -0.24432579 0.37071159 -0.061237019 -0.9981184 -0.0031093317 0.01532215
0.22572285 -0.24505219 0.36809736 0.041293398 -0.99774563 -0.052900575 0.01029106
0.17888728 -0.23776047 0.3100701 -0.044680361 -0.98808402 -0.14728741 0.016469669
0.19794577 -0.23961784 0.31066972 0.035420667 -0.98212332 -0.18487625 0.0097955531
0.2053823 -0.23864083 0.30380961 0.060101934 -0.97429931 -0.21709116 0.010118653
0.20104176 -0.24116112 0.32903391 -0.0005946529 -0.99131858 -0.13148086 0.010055326
0.46917871 -0.0049099345 0.56829315 0.043201309 0.96372002 0.26339558 0.086839274
0.23824733 -0.2284205 0.27153075 0.092942543 -0.95340943 -0.28700572 0.0069622505
0.34036997 -0.2175978 0.38528994 -0.08901976 -0.91064286 0.40349123 0.035398699
0.27191788 -0.24011539 0.31776902 0.18946472 -0.96431464 -0.18493356 0.013796702
0.24081706 -0.22956587 0.27732891 0.095155552 -0.95841503 -0.26904646 0.0064299172
0.33902749 -0.20884739 0.37984383 -0.083310403 -0.90952075 0.40722394 0.037590578
0.32838303 -0.24616218 0.37043011 -0.007624527 -0.91502351 0.40332845 0.045744024
0.28892803 -0.23528855 0.33148336 0.23224124 -0.96002054 -0.15628348 0.017240921
0.22623709 -0.22866879 0.27019048 0.090891555 -0.95302463 -0.28893423 0.0074237455
0.29091024 -0.23431176 0.34741178 0.20344353 -0.9790659 0.0063747209 0.048491675
0.26390237 -0.23348375 0.31826198 0.17836931 -0.96462107 -0.19414094 0.010467068
0.32014391 -0.22841139 0.37183785 0.00096157007 -0.92697114 0.37513134 0.060133349
0.35932994 -0.080614723 0.46556577 -0.46909529 -0.31910074 0.82348299 0.0082644103
0.27021775 -0.23568456 0.32832354 0.18234806 -0.96871704 -0.16833478 0.014167943
0.22492822 -0.23389064 0.28552842 0.081458025 -0.96355844 -0.25479347 0.0071008108
0.22876877 -0.23373336 0.28662583 0.087063394 -0.96293706 -0.25528875 0.0067918734
0.28479615 -0.23683321 0.35148287 0.2164613 -0.97628707 0.0028272416 0.047178246
0.23346779 -0.23519138 0.2955789 0.089704603 -0.96604747 -0.24229187 0.0059028803
0.27278623 -0.23909211 0.3438862 0.19751915 -0.97651368 -0.086064734 0.030835591
0.24051332 -0.23561525 0.30982029 0.094039291 -0.96964902 -0.22569329 0.00599185
0.26431662 -0.23805819 0.33771619 0.16461521 -0.97655404 -0.13872327 0.014090438
0.2307892 -0.23520166 0.30113259 0.078017339 -0.97048491 -0.22819379 0.0062998766
0.29024458 -0.23335399 0.36920443 0.17305033 -0.97606677 0.1317085 0.060066532
0.22374175 -0.23574039 0.29543528 0.08091291 -0.96716511 -0.24092476 0.0064881369
0.2148992 -0.2374537 0.30224547 0.072655559 -0.97109646 -0.22736053 0.0068974416
0.24482468 -0.24058832 0.34368426 0.12082972 -0.98394728 -0.13133132 0.0086934892
0.28864127 -0.23664865 0.36283225 0.18457042 -0.97966105 0.078728363 0.055311777
0.25053915 -0.2420288 0.35599297 0.16678314 -0.98461711 -0.052082885 0.026854789
0.25667048 -0.24290396 0.36287051 0.18352371 -0.9829368 -0.012420802 0.033154991
0.24347027 -0.24210353 0.35223329 0.11937783 -0.986045 -0.11603573 0.0084577641
0.19427788 -0.2357486 0.29399514 0.063011214 -0.96768641 -0.24415678 0.008268835
0.21242709 -0.23471868 0.28637749 0.079615951 -0.96337652 -0.25606054 0.0078306692
0.20669895 -0.24046515 0.31756303 0.045438226 -0.98369235 -0.17402504 0.0074812523
0.25950474 -0.24007361 0.34830317 0.17332408 -0.98223275 -0.07195621 0.026782911
0.18854849 -0.23781349 0.2989243 0.022809204 -0.9784745 -0.20510343 0.011820192
0.20146899 -0.2346057 0.28771856 0.075138405 -0.9620918 -0.26217091 0.0083982432
0.29021421 -0.19432789 0.41618228 0.076790459 -0.77786148 0.62372655 0.070908457
0.21710341 -0.23927073 0.31849259 0.052653432 -0.98212206 -0.18073158 0.0071064467
0.24072905 -0.24258159 0.35546288 0.10403492 -0.98778564 -0.1160011 0.0061777094
0.20836967 -0.24427554 0.35894948 -0.0040367814 -0.99576974 -0.091794945 0.0083350427
0.20325647 -0.24473658 0.37012026 -0.048492108 -0.99874163 -0.012795102 0.015120573
0.19803336 -0.23375686 0.28742546 0.066176698 -0.95925808 -0.27467182 0.0075006508
0.17817874 -0.23478153 0.295959 -0.020570919 -0.97622824 -0.21576679 0.016246034
0.21251488 -0.19902146 0.45012763 -0.26453045 -0.7659899 0.58590364 0.060825001
0.15233251 -0.23367693 0.31515402 -0.13568525 -0.98325926 -0.12161748 0.0098652691
0.11466322 -0.23940465 0.3712855 -0.068793587 -0.97920525 -0.19085179 0.0088395141
0.26914558 -0.22919732 0.29879844 0.17288175 -0.95779729 -0.22964367 0.0099132685
0.43009177 -0.22462788 0.40584844 0.081922114 -0.99510151 0.055333167 0.022158099
0.41128549 -0.22397971 0.3903065 0.05532847 -0.99289495 0.10534894 0.036062736
0.41028136 -0.22370343 0.41174325 0.045287516 -0.99660891 0.068700179 0.0254946
0.57333291 -0.24179851 0.59185529 0.81819767 0.36375725 0.44523394 0.13231502
0.58308172 -0.21622844 0.62642312 0.45323855 0.56368047 0.69053543 0.19879551
0.63085413 -0.24601802 0.51937693 0.69313073 0.71724504 -0.071618482 0.073738419
0.5275619 -0.0065108542 0.49677479 0.22759561 0.96397918 0.1376393 0.2161258
0.52355063 -0.00023259339 0.50007808 0.060798105 0.99373746 0.093751557 0.12161865
0.52382147 -0.0042799427 0.50228465 0.12170032 0.98922753 0.081351109 0.13954698
0.4363496 -0.2217823 0.38399637 0.17917247 -0.98033738 0.08267878 0.03673071
0.50839037 -0.0014944043 0.5051986 0.14808492 0.97538549 0.16338319 0.09306474
0.59180784 -0.19952577 0.56454033 0.72784394 0.61144829 0.31044173 0.10078403
0.46727923 -0.2186915 0.46227452 0.070394568 -0.99551749 0.06316299 0.020434624
0.40569326 -0.23725203 0.36409491 0.072374098 -0.98847938 0.13293037 0.038498916
0.59100389 -0.21827073 0.63286966 0.45234975 0.61912608 0.64192104 0.21978748
0.46720788 -0.230666 0.34234765 0.18438861 -0.98110646 0.058573477 0.023437597
0.46017945 -0.22528824 0.35142449 0.19189578 -0.97923261 0.065417416 0.026895138
0.54641098 -0.11474106 0.47498295 0.62583464 -0.28946778 0.72425091 0.085519001
0.53838044 0.0019245571 0.47483394 0.43291166 0.079919323 0.89788663 0.1653024
0.55180568 0.0054222248 0.48210573 0.17618971 0.59580994 0.78356081 0.22932236
0.45179465 -0.22516212 0.35627875 0.18938203 -0.98149973 0.028155107 0.028466778
0.55057204 -0.035270296 0.48364282 0.38220432 -0.13917483 0.9135372 0.15164673
0.60534084 -0.23365377 0.5222497 0.7430191 0.59978843 0.29694533 0.10192091
0.54006761 -0.053340152 0.47499877 0.49524444 -0.057642676 0.86683923 0.076776966
0.52991307 -0.003093462 0.49324176 0.28254893 0.75356567 0.59355265 0.22826406
0.44693318 -0.13508564 0.54172331 0.83017778 -0.24153262 -0.50246078 0.080108002
0.52690053 -0.21789934 0.31273341 0.033951189 -0.99904984 -0.02732541 0.018460076
0.42723241 -0.25260761 0.2454952 0.092165962 -0.51011842 -0.85515177 1.3110559e-05
0.59836644 0.071983591 0.43757239 0.72925329 -0.15689726 0.66601264 0.11805079
0.60484487 0.081440568 0.44707343 0.60011113 -0.67473423 -0.42965144 0.0096756248
0.5828703 0.042871121 0.4722468 -0.21073543 0.81076694 0.54612041 0.13604841
0.58407402 0.058347698 0.44685197 0.49488518 -0.021641614 0.86868888 0.13820696
0.58080357 -0.077751137 0.4386791 0.85166967 -0.20774066 0.48114717 0.061175864
0.57509422 -0.076778635 0.45729592 0.80161566 -0.16344941 0.57506227 0.04901905
0.5672648 -0.071330398 0.46715659 0.60033482 -0.11815031 0.79097319 0.05776738
0.5575186 -0.0051740976 0.46879181 0.49805468 -0.02768404 0.86670357 0.20201981
0.40711042 -0.25574115 0.33986697 0.14286262 -0.97327918 0.17977187 0.043272469
0.55479187 0.021406332 0.47423914 0.28914464 0.55180693 0.78224325 0.1937387
0.55797821 -0.083060466 0.46714956 0.66649109 -0.19708863 0.71898931 0.068534039
0.53755742 0.013067327 0.46677282 0.49039158 0.16116941 0.85646975 0.18689609
0.37200359 -0.25181684 0.35801589 -0.025733864 -0.98877347 0.1471896 0.036526676
0.5197404 -0.0023951617 0.50023884 0.10366601 0.98808044 0.11379976 0.10554913
0.36175734 -0.23164457 0.38540712 -0.070656367 -0.96974301 0.23367974 0.040823422
0.40270349 -0.22527672 0.41564709 0.059417494 -0.99706781 0.048222024 0.022062313
0.52957207 0.0016242483 0.49209875 0.061990645 0.97551352 0.21102256 0.15956578
0.46224281 -0.21743487 0.41929793 0.12878619 -0.99136853 0.024547391 0.016212944
0.50685018 0.0016745869 0.47405154 0.02753073 0.99861127 0.04491866 0.10894924
0.44437084 -0.22404417 0.43404332 0.073164627 -0.99692613 0.028022157 0.012048232
0.41193876 -0.22411799 0.41256067 0.068682194 -0.99542928 0.06635648 0.024446499
0.41857359 -0.21488021 0.47047681 -0.013664302 -0.99475735 0.1013469 0.0035313391
0.42496887 -0.21511559 0.49836791 -0.045428056 -0.98645145 0.15763801 0.0032843319
0.55120981 -0.22165728 0.35137805 0.022796717 -0.99543065 0.092726126 0.018713288
0.48797998 -0.22481009 0.33081758 0.051441785 -0.99609429 -0.071762003 0.021239342
0.46765909 -0.22805342 0.34281477 0.18438861 -0.98110646 0.058573477 0.023437597
0.61093372 -0.24366458 0.51155162 0.74319351 0.66724342 -0.049493842 0.064457916
0.61783063 -0.23866656 0.52283782 0.74152112 0.66360259 0.09888351 0.10396539
0.4461742 -0.2196729 0.35368091 0.20643027 -0.97677654 0.057395998 0.029058339
0.56869918 0.030923083 0.4675864 0.016692458 0.74912387 0.6622197 0.15597734
0.61218828 -0.23439737 0.52926373 0.7430191 0.59978843 0.29694533 0.10192091
0.55155087 -0.073619775 0.47503489 0.57368642 -0.072297268 0.81587809 0.039403606
0.59200442 0.058163997 0.45630437 0.52076858 -0.029731816 0.85318005 0.13934977
0.53723621 -0.11230955 0.46696511 0.60519892 -0.26525819 0.75058138 0.076011747
0.45522323 -0.21810585 0.39822146 0.12598515 -0.99203068 -0.0017088095 0.021978145
0.54116344 -0.003739903 0.48125488 0.28710639 0.21458794 0.9335534 0.22821645
0.42580155 -0.22197019 0.36533833 0.16215256 -0.98417163 0.071503028 0.031940427
0.56830335 -0.079347953 0.45025253 0.83270693 -0.1530914 0.53212988 0.060377304
0.53451496 0.0011459448 0.47243217 0.45830283 0.075323217 0.8855986 0.16249146
0.60097218 -0.23563983 0.57921124 0.79760474 0.43874848 0.41391593 0.097021088
0.4370085 -0.22223507 0.3868376 0.15435451 -0.98766923 0.026156416 0.033209033
0.43119037 -0.22288743 0.39123449 0.13391829 -0.99037057 0.035100657 0.030727068
0.5212186 0.00097974564 0.49061126 0.1395064 0.93407637 0.32869336 0.14220694
0.52690357 0.0017376369 0.49118447 0.062823042 0.97358066 0.21953121 0.15649129
0.47404656 -0.22215085 0.45751584 0.096556589 -0.99478263 0.032930233 0.023226514
0.4720006 -0.22156826 0.45764673 0.096556589 -0.99478263 0.032930233 0.023226514
0.41882417 -0.22264306 0.39124429 0.10390367 -0.99077392 0.087011568 0.032134991
0.51717055 0.0002332903 0.49322584 0.28989154 0.86168253 0.41649264 0.13840376
0.57234067 -0.23281954 0.59130782 0.81819767 0.36375725 0.44523394 0.13231502
0.50736195 0.0014860193 0.48480564 0.16000134 0.95802462 0.2378833 0.11905768
0.41552287 -0.22328427 0.40066937 0.075029656 -0.9930774 0.09037552 0.02620103
0.53985131 0.010987376 0.47150415 0.22139986 0.65727252 0.7203992 0.17646804
0.40402406 -0.22156642 0.40312257 0.061487708 -0.99427843 0.087348387 0.030955728
0.40884635 -0.22411247 0.41122553 0.045287516 -0.99660891 0.068700179 0.0254946
0.4027659 -0.23373447 0.35939825 0.075880684 -0.98720515 0.14024334 0.03966406
0.52722979 -0.0014544225 0.492062 0.26771513 0.78018177 0.56537157 0.20545064
0.39957368 -0.22308634 0.411948 0.064028934 -0.99433219 0.084874891 0.031854775
0.53252727 0.0023187364 0.49131367 0.13334727 0.95115066 0.27844399 0.20857349
0.39314511 -0.22316112 0.40410289 0.065431118 -0.99439126 0.083095588 0.031110454
0.43393895 -0.21482146 0.47449929 0.060570747 -0.99638689 0.059535444 0.017518524
0.3906303 -0.22120599 0.41827548 0.0061718668 -0.99730122 0.073159158 0.022708109
0.50982571 0.00072887132 0.4894484 0.1319814 0.97830981 0.15965828 0.11685276
0.41624242 -0.2153395 0.46671173 0.047451746 -0.99745399 0.053234529 0.015221112
0.35369676 -0.23028025 0.3834278 -0.062056586 -0.93449396 0.35052806 0.034326222
0.45207047 -0.12601741 0.53462881 0.83017778 -0.24153262 -0.50246078 0.080108002
0.41509888 -0.2164913 0.47574592 -0.013710869 -0.99435866 0.10518017 0.0035978302
0.54836428 -0.24770243 0.60315055 0.5542869 0.6973992 0.45431295 0.1963158
0.45147181 -0.13245121 0.53635228 0.83017778 -0.24153262 -0.50246078 0.080108002
0.44355002 -0.11572007 0.53016591 0.83017778 -0.24153262 -0.50246078 0.080108002
0.3048906 -0.22669664 0.34894371 0.073856913 -0.98644793 0.14651173 0.06085455
0.26350415 -0.22302641 0.27876356 0.12071273 -0.95248061 -0.27965873 0.0067113386
0.27145818 -0.22639295 0.28609908 0.15411782 -0.953224 -0.26002243 0.0059157093
0.45229506 -0.078935482 0.52901798 0.87483895 0.36302882 -0.32072872 0.08505746
0.30835053 -0.2252699 0.35501099 0.065622725 -0.98317939 0.17044663 0.066229768
0.25345081 -0.22374532 0.26905701 0.11162664 -0.95003152 -0.29151246 0.0072340779
0.49091601 0.073937729 0.50679559 0.65954745 0.1322877 0.73993045 0.056714721
0.4412778 -0.093924567 0.52601886 0.93168151 0.24115922 -0.27168322 0.11378661
0.27342159 -0.22694485 0.29477966 0.18271202 -0.95306385 -0.24142417 0.010488373
0.25881952 -0.22523563 0.27804384 0.11736076 -0.95351499 -0.27755284 0.006464093
0.43181449 -0.12973921 0.51770639 0.83021349 -0.24152333 -0.5024063 0.08014863
0.45688665 0.0024893165 0.53777677 -0.013575575 0.99945641 0.030045712 0.090553358
0.26555461 -0.22829698 0.28964049 0.13526531 -0.9586919 -0.25022614 0.0055641364
0.28081325 -0.2284248 0.31257132 0.21846731 -0.95510268 -0.20012704 0.015397605
0.26577181 -0.22638421 0.29073703 0.13725704 -0.95842522 -0.25016317 0.005365707
0.28944921 -0.2319348 0.32604617 0.24198619 -0.95470393 -0.1731561 0.017177043
0.27387485 -0.23004609 0.30809557 0.19888085 -0.95775849 -0.20771416 0.011487558
0.42037931 -0.1340908 0.51763576 0.83021349 -0.24152333 -0.5024063 0.08014863
0.45817789 0.061588719 0.54377067 0.50972575 -0.028492348 0.85986501 0.097088315
0.45401391 0.0558259 0.53635317 0.44771418 -0.068675272 0.89153558 0.1252923
0.44052845 0.0017190151 0.53333122 -0.026312072 0.99962908 0.0070360121 0.14471817
0.35869563 -0.23081312 0.38452515 -0.055999041 -0.96723044 0.24764764 0.038635507
0.28570271 -0.2343228 0.3286964 0.23079769 -0.95901138 -0.16440675 0.017651116
0.31178609 -0.22204217 0.36571282 0.015991598 -0.9574489 0.28815964 0.069808125
0.28813586 -0.23399103 0.33841106 0.2273681 -0.96626443 -0.12098288 0.026695875
0.23285112 -0.22267982 0.26066485 0.090232849 -0.95114696 -0.29525831 0.0077658999
0.25930548 -0.23200725 0.30680966 0.15254048 -0.96342278 -0.22033598 0.0091597578
0.27942169 -0.23754241 0.34090889 0.2198303 -0.96842074 -0.11762615 0.024192557
0.28534225 -0.23714046 0.3616679 0.20557322 -0.97577441 0.074859731 0.053712655
0.25753194 -0.23304985 0.31506562 0.15187977 -0.96868652 -0.19641528 0.008949779
0.25498199 -0.22503631 0.27423468 0.11214019 -0.95251077 -0.28310379 0.0067913495
0.26522547 -0.23529124 0.33149484 0.1730333 -0.9716379 -0.16118102 0.013493218
0.42670748 0.065581352 0.55274063 0.60886544 -0.011149757 0.79319513 0.075554058
0.2432766 -0.23215385 0.29264608 0.096046969 -0.96433234 -0.24665385 0.0055210153
0.2455817 -0.23174503 0.29794234 0.10129091 -0.96521896 -0.24102378 0.0055191261
0.22244228 -0.22413586 0.26229993 0.084336117 -0.95002556 -0.30056435 0.0078986259
0.34774444 -0.078878917 0.46022248 0.68901789 0.27457181 -0.6707195 0.0070229876
0.27253816 -0.23078103 0.30709642 0.19340363 -0.95903862 -0.20697846 0.011557111
0.41154632 0.007890135 0.55216169 0.13139604 0.96179372 0.24018289 0.20025076
0.41468126 -0.031604372 0.55941439 0.78279114 0.14648913 0.60479665 0.16043144
0.27752078 -0.23837124 0.36058739 0.23020312 -0.9714734 0.056973632 0.04757978
0.24428073 -0.23383121 0.30580831 0.10060392 -0.96703941 -0.23390949 0.0056084488
0.31263107 -0.21998456 0.36702681 0.012924129 -0.94996798 0.31207982 0.07030943
0.28776845 -0.23709325 0.34544173 0.22825815 -0.9707033 -0.075055204 0.039270435
0.22749126 -0.23216228 0.28355849 0.085840397 -0.96271855 -0.25652358 0.0069960458
0.22556476 -0.23107311 0.27972686 0.086453959 -0.95967907 -0.26747319 0.0075295605
0.23525125 -0.23376027 0.29962084 0.088403612 -0.96765035 -0.23629983 0.0058380053
0.26122001 -0.23965922 0.34816721 0.17403543 -0.98224026 -0.070112839 0.026972149
0.22751987 -0.23470747 0.29607302 0.081918672 -0.96730208 -0.24003355 0.0062173363
0.40014529 0.016589336 0.56559771 0.68380558 0.27999178 0.67380607 0.16723534
0.4360804 0.098295197 0.54362279 0.51353389 0.012994291 0.85797089 0.0080987485
0.4004209 0.045535702 0.56594253 0.66255105 0.04218661 0.74782783 0.10598774
0.2197592 -0.23029771 0.28014842 0.079857387 -0.96015769 -0.26780608 0.0080377525
0.40053982 0.060586877 0.56579894 0.56590253 -0.012016869 0.82438463 0.059192982
0.28439462 -0.19440645 0.40241945 0.19036086 -0.81268889 0.55072635 0.053529609
0.22266075 -0.23511796 0.29376107 0.080612645 -0.9666003 -0.24328066 0.0066500641
0.24956615 -0.23227008 0.2998639 0.10597627 -0.96452755 -0.2417759 0.0055506057
0.39310315 0.011133863 0.56870955 0.65267467 0.42688408 0.62592793 0.15371569
0.39393753 0.065722153 0.57081527 0.46549794 0.042058315 0.88404906 0.033161204
0.34575817 -0.078500383 0.45801631 0.92384136 0.12362273 -0.36226308 0.025329256
0.22946861 -0.23164199 0.28158018 0.087300286 -0.96111637 -0.26198104 0.0070387027
0.20789765 -0.23250578 0.28485569 0.077975631 -0.96247095 -0.25994113 0.008144238
0.21149448 -0.23507106 0.29292929 0.073230311 -0.969073 -0.23565821 0.008039197
0.41971022 0.099004939 0.55907345 0.45075247 -0.0023674481 0.8926459 0.0067308689
0.40274739 -0.037634 0.55889082 0.78302443 0.14399768 0.60509306 0.16447921
0.25163043 -0.23770186 0.33491811 0.15263274 -0.97818184 -0.14093761 0.011673672
0.38247368 0.088380918 0.57475382 0.49613366 -0.031452328 0.86767632 0.0019005958
0.20110309 -0.23492908 0.2920534 0.071236491 -0.96829391 -0.23944163 0.0086877095
0.23287112 -0.22987777 0.29242396 0.087669708 -0.96517074 -0.24649435 0.006155238
0.20507914 -0.23745817 0.30027866 0.071519472 -0.97025514 -0.23127866 0.0081560425
0.36317027 -0.0030625514 0.58476806 0.52770549 0.36900821 0.76508814 0.12756439
0.37451032 -0.0020810708 0.59228194 0.50768125 0.38234872 0.77205521 0.12029942
0.40406409 0.098425053 0.56814551 0.45075247 -0.0023674481 0.8926459 0.0067308689
0.28224573 -0.1891032 0.40506575 0.20353161 -0.80841368 0.55230623 0.044529144
0.23574369 -0.23849539 0.32443237 0.078475147 -0.9799937 -0.18290462 0.005427524
0.18676938 -0.22629094 0.27755618 0.041079938 -0.94505352 -0.3243244 0.0082505587
0.39121529 0.013368558 0.56875002 0.66887796 0.35056418 0.65552038 0.14060028
0.18924595 -0.23374076 0.28952435 0.042998031 -0.95910448 -0.2797676 0.0096642673
0.19346339 -0.23721543 0.29941016 0.034116108 -0.97698873 -0.21054471 0.011191312
0.18983757 -0.23426607 0.29217431 0.044011988 -0.96836102 -0.24564178 0.010107093
0.40973261 -0.22153813 0.38573134 0.055303007 -0.99244833 0.1094894 0.038330451
0.46427032 -0.21891494 0.46040767 0.10668555 -0.99363762 0.036089294 0.021470314
0.56107765 -0.19379173 0.5668425 0.90912104 0.18953417 0.3709119 0.12428777
0.18487583 -0.20501843 0.42977098 -0.17784573 -0.86635774 0.46668535 0.099851876
0.080087669 -0.21062404 0.30588204 -0.17864057 -0.90690565 -0.38158831 0.0013560235
0.075332507 -0.22311072 0.33918834 -0.10034205 -0.94654882 -0.30655655 0.0083179558
0.06593962 -0.23237062 0.36798608 -0.081999764 -0.97832298 -0.19015788 0.010773908
0.057131562 -0.21039046 0.31863117 -0.14894767 -0.9184255 -0.36648241 0.0024097427
0.16953538 -0.234723 0.29917344 -0.067297034 -0.98106372 -0.18161789 0.017969804
0.083176002 -0.12550266 0.51471806 -0.97181797 0.23564193 0.0065361736 0.0054398053
0.050383069 -0.18590547 0.44179669 0.13251811 -0.9454059 0.29773602 0.1047708
0.19633739 -0.21929651 0.45019612 0.017448355 -0.82921869 0.55865175 0.060383834
0.060127251 -0.18631816 0.44794384 0.23344511 -0.90503973 0.35553676 0.098725326
0.13494813 -0.23688491 0.43002787 0.055567391 -0.90593648 0.41975155 0.066926979
0.002287558 -0.20573595 0.32570362 0.051268097 -0.97956216 -0.19449848 0.02753525
0.048646607 -0.23509467 0.39329481 -0.087119281 -0.9922846 -0.088212103 0.02704064
0.065603822 -0.21666496 0.32835233 -0.14204657 -0.92821604 -0.34385717 0.0030482169
0.047314484 -0.21871476 0.34019923 -0.16077402 -0.93194914 -0.32499623 0.0074314782
0.01650412 -0.20210671 0.31543508 -0.0031256874 -0.95991009 -0.28029078 0.017009083
0.052068833 -0.20374443 0.30563447 -0.14984797 -0.91092789 -0.38439029 0.0013554024
0.033285215 -0.20053214 0.30935007 -0.14803192 -0.91261494 -0.38107798 0.0019095216
0.072868735 -0.20489839 0.29668278 -0.16622011 -0.90889084 -0.3824766 0.00069170119
0.1473687 -0.2160603 0.37676659 -0.092147738 -0.99559242 -0.01745382 0.022894723
0.17515025 -0.2380788 0.31140462 -0.069895022 -0.98874247 -0.13229898 0.012887384
0.019012233 -0.22235171 0.36420879 -0.12968433 -0.97240508 -0.19393386 0.020008765
0.16246092 -0.22120199 0.36631292 -0.086134002 -0.99615479 -0.016018696 0.015343172
0.075829677 -0.20859288 0.3036609 -0.16924071 -0.9052729 -0.38966447 0.00086602027
0.047418784 -0.23236208 0.37636873 -0.10415135 -0.98259294 -0.1538302 0.015084821
0.050783321 -0.23611934 0.38719541 -0.085693821 -0.99212998 -0.091293663 0.027654069
0.013052935 -0.23058154 0.44958875 0.02903183 -0.99847388 0.046978835 0.058611125
0.037656531 -0.21490924 0.33893415 -0.16096435 -0.93172097 -0.32555556 0.0080197006
0.075128123 -0.13753374 0.51956707 -0.97022933 0.23823506 0.043577757 0.0053852061
0.070732258 -0.16510844 0.49724844 -0.93894958 0.34333536 -0.022240149 0.069784373
0.059249699 -0.19789279 0.47225279 0.27660412 -0.84099758 0.4649874 0.13335955
0.06707114 -0.17146288 0.49119917 -0.90088588 0.43236476 -0.038279671 0.079371877
0.034290142 -0.22692047 0.42626953 -0.043821674 -0.99864882 0.027932055 0.039973374
0.019563247 -0.20748009 0.33205098 -0.09286993 -0.94980443 -0.29874191 0.016851204
0.029041762 -0.21496655 0.34399873 -0.16459855 -0.93330657 -0.31913349 0.0070466944
0.019818664 -0.22766873 0.39262521 -0.066289 -0.99421811 -0.084475324 0.031204412
0.027476022 -0.21085835 0.33647525 -0.16305697 -0.93183869 -0.32417426 0.0082060844
0.00032184701 -0.21722162 0.34309024 0.017772485 -0.98253018 -0.18525253 0.024189986
0.017273821 -0.20683378 0.43977448 0.12525742 -0.98940021 0.073469244 0.073087446
0.03071606 -0.21590297 0.34588104 -0.16459855 -0.93330657 -0.31913349 0.0070466944
0.082332425 -0.21911252 0.32913715 -0.14128891 -0.9308235 -0.33705336 0.0052919076
0.151564 -0.1898126 0.47723219 -0.079516068 -0.40124279 0.91251379 0.069237143
0.072592624 -0.16284136 0.4688555 -0.75166941 0.55906808 -0.34990853 0.085729174
0.14800049 -0.1753647 0.4486497 -0.09238673 -0.52718598 0.84471279 0.033894219
0.055564091 -0.19886242 0.4785586 0.38593858 -0.83406961 0.39418194 0.13811806
-0.0051843659 -0.20267546 0.39604121 -0.078413747 -0.99254447 -0.093310468 0.039417189
0.0077512502 -0.20389584 0.44363737 0.11422744 -0.99320006 0.022489103 0.055178013
-0.0014905942 -0.21028501 0.4329541 0.10376932 -0.99458402 0.0058802185 0.051477119
0.1330795 -0.16216891 0.45596349 0.089383565 -0.63799053 0.76483899 0.056137037
0.55593061 -0.21559113 0.58523446 0.74678582 0.4351674 0.50293165 0.16812962
0.44913772 -0.21315329 0.4791607 0.066810712 -0.99548519 0.067419149 0.023129534
0.26105091 -0.22822887 0.30079982 0.14474127 -0.96193498 -0.23179941 0.0081003597
