# .PCD v0.7 - Point Cloud Data file format
VERSION 0.7
FIELDS x y z normal_x normal_y normal_z curvature
SIZE 4 4 4 4 4 4 4
TYPE F F F F F F F
COUNT 1 1 1 1 1 1 1
WIDTH 341
HEIGHT 1
VIEWPOINT 0 0 0 1 0 0 0
POINTS 341
DATA ascii
-0.2113824 0 0.20052341 -0 1 -0 0
-0.19777609 0 0.2068775 -0 1 -0 0
-0.1868245 0 0.2080003 -0 1 -0 0
-0.093775518 0 0.20801684 -0 1 -0 0
-0.082693286 0 0.20510089 -0 1 -0 0
-0.072125234 0 0.20490719 -0 1 -0 0
-0.1804219 0 0.21303581 -0 1 -0 0
-0.17311203 0 0.21614826 -0 1 -0 0
-0.16698159 0 0.2146536 -0 1 -0 0
-0.15609939 0 0.2195368 -0 1 -0 0
-0.1040304 0 0.2169358 -0 1 -0 0
-0.099410214 0 0.21992961 -0 1 -0 0
-0.088844702 0 0.2189106 -0 1 -0 0
-0.075041026 0 0.213265 -0 1 -0 0
-0.043249238 0 0.21412261 -0 1 -0 0
-0.02798162 0 0.213662 -0 1 -0 0
-0.22401939 0 0.22473539 -0 1 -0 0
-0.1806107 0 0.22085419 -0 1 -0 0
-0.17545672 0 0.22717135 -0 1 -0 0
-0.16203654 0 0.22522679 -0 1 -0 0
-0.14601985 0 0.22279039 -0 1 -0 0
-0.1325396 0 0.229871 -0 1 -0 0
-0.1273604 0 0.2268793 -0 1 -0 0
-0.1042129 0 0.22462356 -0 1 -0 0
-0.094211422 0 0.22135687 -0 1 -0 0
-0.050933868 0 0.2247185 -0 1 -0 0
-0.045656744 0 0.22377944 -0 1 -0 0
-0.2313851 0 0.2315715 -0 1 -0 0
-0.1806743 0 0.23167039 -0 1 -0 0
-0.1322415 0 0.2302427 -0 1 -0 0
-0.1161598 0 0.23539449 -0 1 -0 0
-0.042229451 0 0.23742899 -0 1 -0 0
-0.0334194 0 0.236066 -0 1 -0 0
-0.19370246 0 0.24925789 -0 1 -0 0
-0.15379725 0 0.24579784 -0 1 -0 0
-0.10753645 0 0.2408129 -0 1 -0 0
-0.091368333 0 0.2472059 -0 1 -0 0
-0.084840871 0 0.24557059 -0 1 -0 0
-0.070302032 0 0.24733789 -0 1 -0 0
-0.068439767 0 0.24838459 -0 1 -0 0
-0.057269219 0 0.244974 -0 1 -0 0
-0.2311773 0 0.25603819 -0 1 -0 0
-0.20661379 0 0.25606751 -0 1 -0 0
-0.1980269 0 0.25599971 -0 1 -0 0
-0.16481385 0 0.25537032 -0 1 -0 0
-0.093682572 0 0.25367248 -0 1 -0 0
-0.062851474 0 0.25316969 -0 1 -0 0
-0.18523559 0 0.26396507 -0 1 -0 0
-0.1698987 0 0.26813751 -0 1 -0 0
-0.12260716 0 0.26654458 -0 1 -0 0
-0.091606006 0 0.26633763 -0 1 -0 0
-0.088772357 0 0.2622253 -0 1 -0 0
-0.2090206 0 0.27396229 -0 1 -0 0
-0.19595052 0 0.27392304 -0 1 -0 0
-0.16152 0 0.27958551 -0 1 -0 0
-0.1591884 0 0.27917439 -0 1 -0 0
-0.14937989 0 0.27312079 -0 1 -0 0
-0.13078929 0 0.27353671 -0 1 -0 0
-0.12452205 0 0.27134001 -0 1 -0 0
-0.1025962 0 0.2794137 -0 1 -0 0
-0.20013531 0 0.28898159 -0 1 -0 0
-0.19294649 0 0.28539574 -0 1 -0 0
-0.1882956 0 0.2868633 -0 1 -0 0
-0.15126809 0 0.28847569 -0 1 -0 0
-0.1360888 0 0.28561759 -0 1 -0 0
-0.1903172 0 0.29114071 -0 1 -0 0
-0.1868439 0 0.29605851 -0 1 -0 0
-0.15976229 0 0.293818 -0 1 -0 0
-0.1111658 0 0.2990216 -0 1 -0 0
-0.1034475 0 0.29462421 -0 1 -0 0
-0.21187709 0 0.30825549 -0 1 -0 0
-0.1999543 0 0.304398 -0 1 -0 0
-0.1720843 0 0.30618319 -0 1 -0 0
-0.1466347 0 0.30607668 -0 1 -0 0
-0.11280255 0 0.30654728 -0 1 -0 0
-0.1033549 0 0.302398 -0 1 -0 0
-0.1714889 0 0.3112011 -0 1 -0 0
-0.11375713 0 0.31253341 -0 1 -0 0
-0.12362505 0 0.3252489 -0 1 -0 0
-0.1249405 0 0.3358745 -0 1 -0 0
0.03933857 0 0.42370421 -0 1 -0 0
0.02571407 0 0.43649361 -0 1 -0 0
0.041599952 0 0.43522954 -0 1 -0 0
0.065341249 0 0.43400359 -0 1 -0 0
0.1046859 0 0.43987381 -0 1 -0 0
0.01662112 0 0.44144085 -0 1 -0 0
0.027216019 0 0.44296199 -0 1 -0 0
0.1000535 0 0.44741741 -0 1 -0 0
-0.00068035722 0 0.45723051 -0 1 -0 0
0.055349868 0 0.45798421 -0 1 -0 0
0.0931786 0 0.45733705 -0 1 -0 0
0.064977452 0 0.46450406 -0 1 -0 0
0.072147347 0 0.4635748 -0 1 -0 0
0.083690092 0 0.46618089 -0 1 -0 0
0.095328867 0 0.46673506 -0 1 -0 0
0.1025186 0 0.46696299 -0 1 -0 0
0.1128935 0 0.46670961 -0 1 -0 0
-0.02482841 0 0.47374743 -0 1 -0 0
0.0066998531 0 0.4781765 -0 1 -0 0
0.03157172 0 0.47176829 -0 1 -0 0
0.05074342 0 0.4788323 -0 1 -0 0
0.066914707 0 0.47397071 -0 1 -0 0
0.070958257 0 0.4727501 -0 1 -0 0
0.01364698 0 0.48340791 -0 1 -0 0
0.0615629 0 0.48657379 -0 1 -0 0
0.077511117 0 0.48333794 -0 1 -0 0
0.083330519 0 0.48725471 -0 1 -0 0
0.091204062 0 0.48850629 -0 1 -0 0
-0.03226814 0 0.49666819 -0 1 -0 0
-0.0040998161 0 0.49917167 -0 1 -0 0
0.05803239 0 0.49799481 -0 1 -0 0
0.097355783 0 0.4990083 -0 1 -0 0
0.1115993 0 0.49393606 -0 1 -0 0
-0.033911821 0 0.50967419 -0 1 -0 0
-0.01657025 0 0.50324303 -0 1 -0 0
0.068110421 0 0.50083512 -0 1 -0 0
0.073674664 0 0.50432277 -0 1 -0 0
0.087113611 0 0.50655639 -0 1 -0 0
0.093777388 0 0.50204712 -0 1 -0 0
0.1003106 0 0.50335121 -0 1 -0 0
0.11582566 0 0.5069434 -0 1 -0 0
0.074145414 0 0.51214164 -0 1 -0 0
0.087330669 0 0.51282173 -0 1 -0 0
0.095948651 0 0.51517975 -0 1 -0 0
0.1113759 0 0.51672411 -0 1 -0 0
-0.042797219 0 0.52136862 -0 1 -0 0
0.062060349 0 0.52214295 -0 1 -0 0
0.076969907 0 0.52425599 -0 1 -0 0
0.045536179 0 0.53636861 -0 1 -0 0
0.075522467 0 0.5364567 -0 1 -0 0
0.097260833 0 0.53493345 -0 1 -0 0
-0.03007729 0 0.54423523 -0 1 -0 0
-0.03571203 0 0.55171722 -0 1 -0 0
-0.084277719 -0.28431553 0.24799052 -0.12750058 -0.81886947 0.55963951 0.013250589
-0.069282115 -0.2878848 0.24285597 -0.10799159 -0.84978014 0.51595682 0.016903874
-0.070870608 -0.30055156 0.20241359 -0.069443077 -0.90306735 0.42384785 0.011104079
-0.052261289 -0.29433751 0.22694226 -0.059670791 -0.89900321 0.43385789 0.011804608
-0.10907346 -0.28336787 0.24037339 -0.1530731 -0.81086767 0.56485593 0.01006567
-0.091251664 -0.28379914 0.24693634 -0.13766122 -0.81446475 0.56364578 0.012924612
-0.19042389 -0.18713555 0.29146713 -0.27422249 -0.61913168 0.73585182 0.0045284629
-0.11625743 -0.28327861 0.235605 -0.15935399 -0.80671638 0.56904751 0.010565538
-0.09220089 -0.26826024 0.26439321 -0.17439356 -0.79415363 0.58215714 0.016495418
-0.17256168 -0.27462021 0.22277716 -0.25854668 -0.65873468 0.70655674 0.0091658458
-0.10782377 -0.23221259 0.29807436 -0.30382261 -0.62192303 0.72173649 0.006048976
-0.18057339 -0.27193472 0.22075152 -0.30833122 -0.63607621 0.70734644 0.0086929901
-0.14780733 -0.18191046 0.30866432 -0.31468812 -0.5946461 0.73984289 0.005467061
-0.11354683 -0.20490244 0.310792 -0.37838164 -0.56974018 0.72953647 0.0050253063
-0.089579679 -0.27000076 0.26393068 -0.1550047 -0.81697381 0.55545235 0.014264696
-0.2118551 -0.16661695 0.30826265 -0.20113425 -0.6558603 0.72759348 0.0018528349
-0.12386526 -0.17968209 0.32521465 -0.3470366 -0.57527816 0.74068934 0.0088784192
-0.18910956 -0.18949272 0.28935367 -0.29719311 -0.61961091 0.72646999 0.0084275678
-0.1743333 -0.27140766 0.22593996 -0.27826455 -0.64723086 0.70969087 0.0091452785
-0.14822176 -0.18204623 0.30644915 -0.31468812 -0.5946461 0.73984289 0.005467061
-0.10453099 -0.23062377 0.30331621 -0.33964464 -0.61319262 0.7131874 0.0043702731
-0.18925843 -0.2760435 0.21303828 -0.33805442 -0.62378114 0.70471001 0.01037046
-0.15051472 -0.21840253 0.27705106 -0.31376359 -0.59781897 0.73767531 0.0029784823
-0.17196515 -0.17948747 0.30313993 -0.27120355 -0.62202525 0.73452914 0.002924371
-0.12283555 -0.25258225 0.26612595 -0.25052977 -0.6836859 0.6854257 0.0069112689
-0.16263315 -0.25008839 0.24986762 -0.31811613 -0.6271655 0.71096104 0.0049625295
-0.18508455 -0.18910761 0.29194471 -0.27069244 -0.61563814 0.74007791 0.0028072975
-0.16053556 -0.21626893 0.27587375 -0.30723682 -0.60741389 0.73256665 0.0033306498
-0.12146313 -0.17729516 0.333276 -0.38892251 -0.55515659 0.73521453 0.0087706624
-0.15773004 -0.21908742 0.27445972 -0.3139722 -0.60293454 0.73341084 0.0030930464
-0.12572201 -0.24459678 0.27196625 -0.25899526 -0.6547032 0.71013039 0.0064477045
-0.16506144 -0.242184 0.25601429 -0.33670411 -0.62260842 0.70639151 0.0046178298
-0.17118883 -0.17705791 0.30663872 -0.27126554 -0.62868357 0.7288155 0.0028113397
-0.15713292 -0.25670993 0.24639073 -0.2759712 -0.65902531 0.69966114 0.0050092135
-0.19516337 -0.20303667 0.27496082 -0.30780086 -0.61535406 0.72567081 0.010577329
-0.19817244 -0.18167505 0.29366881 -0.25537452 -0.62173587 0.74042445 0.006941766
-0.11563089 -0.19598448 0.3127571 -0.36002168 -0.57740259 0.73279643 0.0059367367
-0.18537043 -0.2176674 0.26744917 -0.3178626 -0.6144082 0.72212601 0.0063689793
-0.19302131 -0.22891985 0.25726247 -0.32713756 -0.61362696 0.71863967 0.0048201191
-0.20156462 -0.18231548 0.29158792 -0.2947956 -0.62811631 0.72011483 0.014251343
-0.11629842 -0.18878578 0.31684008 -0.36214003 -0.57628685 0.73263091 0.006688213
-0.22554317 -0.21727526 0.25427887 -0.370864 -0.62758547 0.68454105 0.010310244
-0.19878557 -0.23763853 0.2533336 -0.33198234 -0.61563748 0.71468741 0.0048854449
-0.19743438 -0.23014085 0.25669572 -0.32713756 -0.61362696 0.71863967 0.0048201191
-0.16875516 -0.23203596 0.26290059 -0.33311814 -0.6150375 0.71467555 0.0047431504
-0.16046423 -0.18736058 0.29678288 -0.31021082 -0.59214532 0.74372923 0.0045198868
-0.19070651 -0.19568409 0.28299633 -0.30252713 -0.61723655 0.72628939 0.011146509
-0.1688503 -0.22834405 0.26545531 -0.33390287 -0.61257076 0.71642578 0.0046697352
-0.13209438 -0.28309426 0.2296579 -0.19260095 -0.77495927 0.60194927 0.011130265
-0.19728434 -0.28439581 0.20600598 -0.34923604 -0.61927569 0.70322955 0.012544275
-0.098606057 -0.29412356 0.21819635 -0.13347423 -0.84414732 0.51923007 0.010206753
-0.13221118 -0.28428799 0.22856553 -0.19260095 -0.77495927 0.60194927 0.011130265
-0.2111574 -0.28516379 0.19993661 -0.39594841 -0.59199888 0.70197022 0.015889151
-0.14842623 -0.2833235 0.22377281 -0.2145699 -0.74549413 0.63102955 0.009272025
-0.16213506 -0.28803453 0.21986063 -0.22433272 -0.69546926 0.68264002 0.0048972536
-0.091237597 -0.29483935 0.22139914 -0.11620944 -0.84637725 0.51975077 0.013752474
-0.17766604 -0.28442967 0.21494155 -0.21284308 -0.65833002 0.72201055 0.0041076322
-0.077384673 -0.29688901 0.21298352 -0.083908252 -0.90104061 0.42554113 0.0095996633
-0.09425696 -0.29348657 0.22181086 -0.12898442 -0.84396946 0.52065217 0.011415247
-0.082931459 -0.29960066 0.20742266 -0.094928943 -0.90232921 0.42046452 0.008361578
-0.17043319 -0.27462062 0.22359815 -0.25196582 -0.66164798 0.70621186 0.0091831991
-0.1973988 -0.23526421 0.25473738 -0.32520926 -0.61321467 0.71986568 0.0048283604
-0.1332361 -0.23287334 0.27791163 -0.30073109 -0.62100488 0.72381878 0.0025086701
-0.23136435 -0.21915682 0.23149908 -0.41454053 -0.60266531 0.68187284 0.0084375488
-0.17958342 -0.26566443 0.22949739 -0.31609976 -0.62345123 0.71511501 0.0063093281
-0.15126857 -0.25763103 0.24705483 -0.27492002 -0.67322385 0.68643165 0.0061245146
-0.17323023 -0.28189808 0.21808508 -0.21457642 -0.67210424 0.70868391 0.0046449006
-0.18654755 -0.225724 0.26151505 -0.31408727 -0.61475205 0.72348404 0.0048014047
-0.19079009 -0.21544287 0.26733324 -0.31724453 -0.61350977 0.72316086 0.0066545233
-0.17873542 -0.22991128 0.26123318 -0.33032247 -0.61342043 0.71735799 0.0046962467
-0.19996078 -0.20033352 0.27424121 -0.30759799 -0.61668849 0.7246232 0.011268532
-0.20502901 -0.22137648 0.25370932 -0.33457333 -0.61739743 0.71195579 0.0061018579
-0.19606493 -0.19569182 0.28101346 -0.30600983 -0.61855358 0.72370535 0.012535952
-0.20833321 -0.20972481 0.26872873 -0.30780086 -0.61535406 0.72567081 0.010577329
-0.09189757 -0.30543545 0.21523614 -0.096812621 -0.88853747 0.44847348 0.009527673
-0.14646158 -0.18165293 0.30994499 -0.31468812 -0.5946461 0.73984289 0.005467061
-0.12456871 -0.24304229 0.27218848 -0.2587266 -0.65460736 0.7103166 0.006543546
-0.12264071 -0.25077733 0.26747131 -0.25169533 -0.66616571 0.70204896 0.006692633
-0.096738443 -0.29357177 0.2204771 -0.13191552 -0.84450352 0.51904935 0.011003156
-0.12850501 -0.28112414 0.23195662 -0.1848814 -0.78060997 0.59704852 0.01037622
-0.1568494 -0.28186929 0.22182366 -0.22833169 -0.7166481 0.65899932 0.0070549781
-0.14501399 -0.28083292 0.22663274 -0.21022941 -0.7435497 0.63477355 0.010209464
-0.04245979 -0.29350695 0.23692338 -0.049878657 -0.89856064 0.43600559 0.012119398
-0.050393254 -0.2954495 0.22243935 -0.059670791 -0.89900321 0.43385789 0.011804608
-0.042532023 -0.30097839 0.2292871 -0.049878657 -0.89856064 0.43600559 0.012119398
-0.04314024 -0.29287776 0.21012032 -0.049284194 -0.90224248 0.42840353 0.012682653
-0.047937397 -0.2953546 0.22135271 -0.049878657 -0.89856064 0.43600559 0.012119398
-0.0674005 -0.27382344 0.24513093 -0.097564869 -0.83168292 0.54661202 0.015929658
-0.083152719 -0.28298935 0.24812049 -0.12792927 -0.818977 0.55938423 0.013774097
-0.070829816 -0.29759267 0.20524271 -0.078827389 -0.90048307 0.42768747 0.010244018
-0.088510163 -0.26980487 0.26452118 -0.1550047 -0.81697381 0.55545235 0.014264696
-0.072982512 -0.2960892 0.21168378 -0.083908252 -0.90104061 0.42554113 0.0095996633
-0.080357872 -0.29921889 0.20713779 -0.0906379 -0.90179068 0.42256168 0.0089733703
-0.067216478 -0.2876457 0.24418069 -0.10503142 -0.84916508 0.51757807 0.017774398
-0.12373187 -0.17960855 0.32554248 -0.3470366 -0.57527816 0.74068934 0.0088784192
-0.11731963 -0.20057897 0.30630058 -0.35425255 -0.57626534 0.736494 0.0049928329
-0.090270884 -0.26847923 0.26463372 -0.17906038 -0.79565156 0.57868481 0.016853638
-0.088834263 -0.30073425 0.21296346 -0.096812621 -0.88853747 0.44847348 0.009527673
-0.075391829 -0.29715261 0.21416777 -0.083908252 -0.90104061 0.42554113 0.0095996633
-0.089948885 -0.28353614 0.2479433 -0.12169298 -0.81726873 0.56326073 0.012878019
-0.088984571 -0.29480097 0.22165956 -0.11180657 -0.87098664 0.4784157 0.011787993
-0.10609757 -0.28307086 0.24166399 -0.1530731 -0.81086767 0.56485593 0.01006567
-0.13960581 -0.19880709 0.2948465 -0.31738973 -0.59025651 0.74220008 0.0038092595
0.025562715 -0.30249757 0.43643212 0.11624938 -0.99098915 -0.066532657 0.021035129
0.013197607 -0.30604357 0.44010106 0.074637577 -0.99589926 -0.051126618 0.028216304
0.0064311572 -0.30241302 0.47784325 0.061929651 -0.9923991 0.10634236 0.030230941
-0.027672863 -0.2907213 0.47443327 -0.2772052 -0.95905143 -0.058118314 0.046192557
0.099457249 -0.28946143 0.46816671 0.069865905 -0.99685144 0.037497483 0.06576632
0.078519687 -0.24730152 0.48725533 0.05675498 -0.99792624 0.030366551 0.079428725
0.084653974 -0.29313502 0.46908322 0.11269477 -0.99299383 0.035540942 0.04994899
0.090132758 -0.29577234 0.51691788 0.036328033 -0.99666226 0.073106274 0.095237911
0.072288543 -0.27480632 0.51454252 0.042856023 -0.99643081 0.072724998 0.087823182
0.069059245 -0.29589516 0.47519484 0.11685217 -0.99259728 0.033110883 0.045003697
0.064958401 -0.29616797 0.46413073 0.11685217 -0.99259728 0.033110883 0.045003697
0.064263172 -0.29613394 0.46546507 0.11685217 -0.99259728 0.033110883 0.045003697
0.060473833 -0.29607219 0.45855099 0.11650083 -0.9926216 0.033616066 0.046518795
0.078602202 -0.27511093 0.51047033 0.053338349 -0.99824572 0.025701717 0.07851924
0.063750654 -0.28468779 0.52273756 0.085300304 -0.99394524 0.069257669 0.072910003
0.040459406 -0.29654673 0.43482521 0.093263365 -0.99551475 0.015889024 0.01184251
0.10426819 -0.29174414 0.50796062 0.035505582 -0.99819756 0.04838283 0.095937707
0.10284849 -0.29138932 0.4981277 0.047117796 -0.99854684 0.026156429 0.084055826
0.1003607 -0.29016981 0.46755055 0.053089909 -0.99790239 0.037043046 0.069195338
0.109001 -0.29230899 0.50134909 0.032219436 -0.99856329 0.042818107 0.090694502
0.092373192 -0.29233748 0.52331948 0.036328033 -0.99666226 0.073106274 0.095237911
0.10513006 -0.28940716 0.49472234 0.047117796 -0.99854684 0.026156429 0.084055826
0.070511684 -0.29637516 0.47274029 0.11685217 -0.99259728 0.033110883 0.045003697
0.075916298 -0.28911015 0.5071246 0.081835411 -0.99625379 0.027950559 0.069834881
0.073449321 -0.29045194 0.49806514 0.10457732 -0.9937855 0.038131405 0.054540932
0.094254442 -0.3007493 0.51515412 0.059647214 -0.99691194 0.051077392 0.09163782
0.075244784 -0.28996837 0.50058812 0.09162391 -0.99524689 0.032995313 0.060082488
0.047786739 -0.29282141 0.53949153 0.16898346 -0.98452884 0.046341017 0.083789892
0.040632173 -0.29310894 0.42300978 0.14542954 -0.98805648 -0.050938506 0.0091475593
-0.035177376 -0.28154817 0.54499096 -0.73668605 -0.660586 -0.14463694 0.076987229
-0.02227968 -0.29236704 0.47295627 -0.067997046 -0.99500662 0.073063433 0.041202292
0.013921648 -0.29513574 0.48349237 0.075218938 -0.98689681 0.14274745 0.032793511
0.092450686 -0.29084727 0.45870629 0.094408229 -0.99479514 0.038337678 0.059228811
0.050731227 -0.29936129 0.45996484 0.14447576 -0.98944491 0.011205921 0.045946609
0.088411897 -0.28330064 0.49528942 0.063306689 -0.9974702 0.032331817 0.070477679
-0.00062425068 -0.30035976 0.45674235 0.028253198 -0.99885798 0.038528256 0.036128841
0.084551901 -0.28944379 0.49034575 0.07635735 -0.99641311 0.036475345 0.063369714
-0.039298054 -0.27609104 0.52118713 -0.68897909 -0.70463115 -0.1697138 0.065756902
-0.0058480664 -0.30262777 0.49005109 0.022271879 -0.99090838 0.13268137 0.025059905
0.095090419 -0.29834819 0.51520461 0.059647214 -0.99691194 0.051077392 0.09163782
0.08579132 -0.26436421 0.49725953 0.060065519 -0.99774605 0.029915497 0.07456594
0.059043176 -0.29010299 0.49651116 0.17024499 -0.98539978 0.0019569802 0.044588864
0.031982008 -0.29941094 0.47245675 0.096614823 -0.99336946 0.062311564 0.044018362
0.11339234 -0.28921267 0.49291119 0.0029744839 -0.99942917 0.033651106 0.092777729
0.08775524 -0.29268238 0.50745559 0.053352252 -0.998245 0.025699422 0.07851699
-0.029029021 -0.28789127 0.50896549 -0.44787645 -0.89089495 -0.075583078 0.080285177
0.06294322 -0.28213617 0.4324044 0.15396237 -0.98282301 0.10175713 0.047973283
0.067692995 -0.29009929 0.4352555 0.14043108 -0.98857427 0.054771148 0.050017014
0.10508357 -0.28200972 0.43947533 0.097027034 -0.99526584 0.0056213858 0.076824747
0.099649251 -0.30343142 0.50388521 0.057148244 -0.99737257 0.044520319 0.087022617
0.091631755 -0.29091987 0.465424 0.089732252 -0.99514514 0.040426105 0.05686358
0.097053759 -0.28819504 0.45040277 0.11821441 -0.9928838 0.014395754 0.057583313
0.11419808 -0.28226262 0.46708888 0.020870229 -0.99903983 0.038521294 0.087235399
-0.0091717849 -0.32931674 0.49757791 -0.020993862 -0.988639 0.14883624 0.03810003
0.01894887 -0.30282593 0.44221169 0.090277761 -0.99519628 -0.037871536 0.023722693
-0.11669299 -0.189 0.31596589 -0.36214003 -0.57628685 0.73263091 0.006688213
-0.10284592 -0.29286125 0.22066793 -0.1431677 -0.83426481 0.53245211 0.010104466
-0.056342885 -0.2899698 0.24186952 -0.069341607 -0.89973366 0.43089563 0.010721896
-0.092889562 -0.28162757 0.24978563 -0.13766122 -0.81446475 0.56364578 0.012924612
-0.10399348 -0.29442868 0.21678957 -0.1388358 -0.84457666 0.51712191 0.0092940005
-0.16296676 -0.25024906 0.25066507 -0.31811613 -0.6271655 0.71096104 0.0049625295
-0.14885502 -0.21789491 0.27810496 -0.31502017 -0.59421444 0.74004829 0.0032005578
-0.1588589 -0.28292903 0.2203235 -0.22155669 -0.70282263 0.67598295 0.0058476385
-0.17800266 -0.27133805 0.2246201 -0.28857034 -0.64387751 0.70862466 0.0088355867
-0.19788246 -0.17546666 0.30187815 -0.24029805 -0.62432349 0.74328804 0.0031599714
-0.18089525 -0.28305617 0.21438585 -0.22264625 -0.65559971 0.72153836 0.0037489349
-0.19825812 -0.22686072 0.25253734 -0.32718614 -0.61056679 0.72121936 0.0049823597
-0.17173095 -0.27416444 0.22412969 -0.25056118 -0.65924734 0.70895135 0.0090235053
-0.17204861 -0.28581524 0.21715128 -0.21001719 -0.67795622 0.70446295 0.0043081669
-0.22400938 -0.21602786 0.22470041 -0.40781575 -0.60870695 0.68056023 0.0084880861
-0.10689084 -0.23768027 0.29520977 -0.30563581 -0.62442136 0.71880782 0.005796067
-0.096223786 -0.26546046 0.27131924 -0.1944923 -0.75560689 0.62548459 0.01451924
-0.10190461 -0.29324219 0.22001331 -0.13559683 -0.84409791 0.5187602 0.0094958823
0.064276196 -0.27100834 0.52219665 0.062193263 -0.99479586 0.080704071 0.08303456
0.052534699 -0.29706261 0.47931689 0.15045016 -0.98859131 0.0072086868 0.043547876
0.071087107 -0.29568404 0.46400139 0.11203424 -0.99306458 0.035652608 0.047350924
0.040737201 -0.29560676 0.43195447 0.11258513 -0.99358952 -0.010218352 0.010003713
-0.01720429 -0.30886972 0.50207692 -0.043728385 -0.9887588 0.14298241 0.042678829
-0.044200826 -0.29516491 0.22737248 -0.049878657 -0.89856064 0.43600559 0.012119398
-0.050375629 -0.29472652 0.22634026 -0.059670791 -0.89900321 0.43385789 0.011804608
-0.027538151 -0.30133483 0.21381968 -0.036082737 -0.9312613 0.36256108 0.01474966
-0.031793028 -0.28762159 0.496714 -0.44456267 -0.89156288 -0.086485423 0.058384962
-0.03571203 -0.28882521 0.55171722 -0.8492415 -0.51815748 -0.10149677 0.017470354
-0.043793257 -0.29374903 0.21470472 -0.049284194 -0.90224248 0.42840353 0.012682653
-0.075939856 -0.2980887 0.20548004 -0.083908252 -0.90104061 0.42554113 0.0095996633
-0.042175088 -0.29394212 0.21706042 -0.049284194 -0.90224248 0.42840353 0.012682653
-0.091230147 -0.28288814 0.24852836 -0.13766122 -0.81446475 0.56364578 0.012924612
0.10965271 -0.29571602 0.50889271 0.035505582 -0.99819756 0.04838283 0.095937707
0.070945054 -0.29571974 0.53216499 0.034334756 -0.99627441 0.079109915 0.093935214
0.064769663 -0.29625443 0.47287533 0.11685217 -0.99259728 0.033110883 0.045003697
0.081169054 -0.29459256 0.52354407 0.042883556 -0.99643272 0.072682463 0.087822601
0.066670932 -0.29617733 0.47508124 0.11685217 -0.99259728 0.033110883 0.045003697
0.086547792 -0.29169741 0.51071179 0.059859674 -0.99721789 0.044420574 0.080892332
0.075217582 -0.26749447 0.50343388 0.060043622 -0.99774653 0.029944638 0.074582405
0.025270432 -0.30188262 0.44217148 0.12264682 -0.99116111 -0.050569851 0.019167325
0.092275105 -0.29421821 0.5267539 0.0024705876 -0.99779749 0.066288725 0.10410739
0.065557159 -0.29683346 0.47161463 0.11685217 -0.99259728 0.033110883 0.045003697
0.092491686 -0.29066965 0.45789334 0.094408229 -0.99479514 0.038337678 0.059228811
0.079506412 -0.2949433 0.48166859 0.11269183 -0.99299341 0.035560906 0.049935006
0.089712918 -0.29479653 0.48903134 0.07635735 -0.99641311 0.036475345 0.063369714
0.058214925 -0.2961489 0.45223135 0.11175788 -0.99249548 0.049626533 0.04798891
0.061564043 -0.29412094 0.48675126 0.16725911 -0.98590541 0.0038503148 0.047359318
0.08123982 -0.29365307 0.46372861 0.11171862 -0.99306369 0.036653783 0.0518612
0.040634017 -0.29759771 0.4406518 0.12667646 -0.98154008 0.1432901 0.04241997
0.098471627 -0.29577321 0.50621253 0.057148244 -0.99737257 0.044520319 0.087022617
