# .PCD v0.7 - Point Cloud Data file format
VERSION 0.7
FIELDS x y z
SIZE 4 4 4
TYPE F F F
COUNT 1 1 1
WIDTH 226
HEIGHT 1
VIEWPOINT 0 0 0 1 0 0 0
POINTS 226
DATA ascii
-0.083928503 -0.2823149 0.2468785
-0.070302032 -0.29886621 0.24733789
-0.070894741 -0.29987791 0.2021565
-0.052347708 -0.29522559 0.2271667
-0.1092674 -0.28495929 0.2411868
-0.091368333 -0.2842533 0.2472059
-0.1903172 -0.1867834 0.29114071
-0.1161598 -0.2828739 0.23539449
-0.092526726 -0.2697393 0.26566121
-0.17044459 -0.2699447 0.21729089
-0.1034475 -0.2300486 0.29462421
-0.1806107 -0.27200079 0.22085419
-0.146826 -0.1760873 0.30646211
-0.1171377 -0.2064485 0.3120693
-0.090685293 -0.27325961 0.26701409
-0.21187709 -0.1666344 0.30825549
-0.12488 -0.1812218 0.32597291
-0.1882956 -0.18680599 0.2868633
-0.1745411 -0.27196389 0.22648831
-0.1479021 -0.17367169 0.30470791
-0.1033549 -0.2301556 0.302398
-0.1868245 -0.27449009 0.2080003
-0.14937989 -0.2162462 0.27312079
-0.1720843 -0.1850394 0.30618319
-0.1237668 -0.25407121 0.26749289
-0.1629349 -0.25083369 0.25064161
-0.1868439 -0.19328751 0.29605851
-0.16152 -0.2187465 0.27958551
-0.1249405 -0.1825715 0.3358745
-0.1591884 -0.2216136 0.27917439
-0.1258384 -0.2447613 0.27213821
-0.1652898 -0.2426118 0.25649711
-0.1714889 -0.1843106 0.3112011
-0.15609691 -0.2542628 0.24394681
-0.1935567 -0.2006101 0.27188599
-0.19555449 -0.1743457 0.28858119
-0.1114141 -0.19201779 0.30935651
-0.1840001 -0.21464629 0.26345861
-0.1913688 -0.22439539 0.2497074
-0.20013531 -0.1796055 0.28898159
-0.1135177 -0.18458711 0.31455621
-0.2311773 -0.2287592 0.25603819
-0.1986936 -0.23736019 0.25276199
-0.1978135 -0.23163991 0.25940409
-0.1666919 -0.2279415 0.25760239
-0.15976229 -0.18550269 0.293818
-0.19033851 -0.1949876 0.28221029
-0.1698987 -0.23032039 0.26813751
-0.1322415 -0.28361499 0.2302427
-0.19777609 -0.284592 0.2068775
-0.099410214 -0.29906839 0.21992961
-0.1325396 -0.28545049 0.229871
-0.2113824 -0.28541911 0.20052341
-0.1484929 -0.2834959 0.2240025
-0.1632714 -0.28906009 0.22420619
-0.091065213 -0.29322559 0.22086979
-0.1771591 -0.2838228 0.2134957
-0.077049002 -0.30110979 0.21316651
-0.094094701 -0.2927551 0.22158469
-0.083602741 -0.29499111 0.2059869
-0.16698159 -0.2669979 0.2146536
-0.1975736 -0.23579291 0.25583309
-0.13078929 -0.22969981 0.27353671
-0.2313851 -0.2189507 0.2315715
-0.177986 -0.26151809 0.2253222
-0.1514976 -0.25822341 0.24764889
-0.1723071 -0.28089529 0.2150466
-0.1872416 -0.22688469 0.26327541
-0.18950561 -0.2131027 0.26428401
-0.180195 -0.2326694 0.2648423
-0.1993428 -0.1993686 0.27307901
-0.20661379 -0.22298101 0.25606751
-0.1949521 -0.1920778 0.27680409
-0.2090206 -0.2135659 0.27396229
-0.2493891 -0.2023938 0.26937479
-0.095364973 -0.30442041 0.209114
-0.14517599 -0.1740244 0.30706
-0.1232057 -0.2411083 0.27054179
-0.1214475 -0.24894661 0.2655963
-0.097474329 -0.29721871 0.2216161
-0.1273604 -0.27655661 0.2268793
-0.15609939 -0.28005421 0.2195368
-0.1435468 -0.27703899 0.2215783
-0.042229451 -0.29991731 0.23742899
-0.050319761 -0.28663301 0.2213088
-0.0334194 -0.29278949 0.236066
-0.04372146 -0.2897661 0.2106289
-0.04838964 -0.28651819 0.22035509
-0.062851474 -0.27517599 0.25316969
-0.081741937 -0.27622151 0.24442381
-0.070508972 -0.30067849 0.2057014
-0.088413253 -0.26951921 0.2642509
-0.072722957 -0.2986362 0.2114684
-0.081783831 -0.28950951 0.2042149
-0.068439767 -0.29853851 0.24838459
-0.1223701 -0.1775423 0.32452491
-0.114191 -0.19777679 0.30373809
-0.089131467 -0.26330709 0.2601997
-0.092186064 -0.29642609 0.2069197
-0.075351112 -0.30115691 0.2151601
-0.088852197 -0.27926701 0.2454094
-0.088844702 -0.28682891 0.2189106
-0.1058055 -0.28067419 0.240439
-0.1360888 -0.1937985 0.28561759
0.02571407 -0.30299959 0.43649361
0.01351206 -0.3069914 0.44029111
0.0066998531 -0.29988229 0.4781765
-0.024094669 -0.28013939 0.47570789
0.099520199 -0.28962719 0.4681733
0.075531073 -0.2493232 0.48501059
0.084712759 -0.29352611 0.46906239
0.088390142 -0.3012251 0.51510239
0.072002158 -0.27481329 0.51440781
0.068891287 -0.2941646 0.47521561
0.065579683 -0.3029536 0.46359679
0.064375229 -0.29735759 0.46541131
0.059171692 -0.28871471 0.45940939
0.071048208 -0.27399799 0.51117092
0.06022482 -0.29117879 0.52249682
0.041053049 -0.2980963 0.43457061
0.1354876 -0.29009989 0.54903758
0.1260744 -0.27516371 0.54810512
0.1235983 -0.28845689 0.53391761
0.1197202 -0.30241129 0.50706458
0.1117393 -0.28290391 0.50405699
0.1025186 -0.29682329 0.46696299
0.121586 -0.27648529 0.55161059
0.122965 -0.2899313 0.53793609
0.1160175 -0.28673121 0.5097087
0.09594778 -0.3041881 0.53343678
0.1101394 -0.29766259 0.49292651
0.070958257 -0.29992899 0.4727501
0.072114043 -0.29229859 0.50828999
0.068110421 -0.29527739 0.50083512
0.096211948 -0.29754439 0.51883072
0.075235277 -0.28912431 0.50035548
0.045536179 -0.2944029 0.53636861
0.03933857 -0.2904596 0.42370421
-0.03007729 -0.27951041 0.54423523
-0.02556215 -0.3020744 0.47178701
0.01364698 -0.29438901 0.48340791
0.093196683 -0.29566681 0.45769101
0.051096659 -0.30069271 0.45968401
0.097355783 -0.27139261 0.4990083
-0.00068035722 -0.30175611 0.45723051
0.083330519 -0.278166 0.48725471
-0.042797219 -0.27757001 0.52136862
-0.00075763458 -0.29385161 0.49941331
0.095685348 -0.30711219 0.51152879
0.088048242 -0.25890571 0.50517547
0.05803239 -0.29511809 0.49799481
0.02581493 -0.29412729 0.66947812
0.03157172 -0.29228279 0.47176829
0.128602 -0.26231641 0.51173812
0.1130592 -0.27911189 0.49494559
0.086178981 -0.29877061 0.50793731
-0.033911821 -0.29545331 0.50967419
0.05875947 -0.32994261 0.5604701
0.063504033 -0.2830486 0.4319151
0.067178458 -0.28666469 0.43609211
0.1046859 -0.28073531 0.43987381
0.093777388 -0.32480681 0.50204712
0.091137543 -0.2886785 0.4652968
0.1000535 -0.29865581 0.44741741
0.1128935 -0.2795507 0.46670961
-0.007441998 -0.32952479 0.49893001
0.019730181 -0.30698979 0.44259059
-0.046948399 -0.31200331 0.34463269
-0.110616 -0.1798242 0.31097469
-0.1045694 -0.3040233 0.2246848
-0.057269219 -0.30301771 0.244974
-0.094131328 -0.28972179 0.2545335
-0.1040304 -0.29478651 0.2169358
-0.1643388 -0.25510761 0.25674021
-0.15126809 -0.2236301 0.28847569
-0.16080169 -0.2876308 0.2262474
-0.1806743 -0.27848971 0.23167039
-0.1999543 -0.179067 0.304398
-0.1804219 -0.28248951 0.21303581
-0.1960361 -0.2233479 0.2488084
-0.1738431 -0.27981839 0.2297035
-0.1725373 -0.28634611 0.2187598
-0.22401939 -0.2159283 0.22473539
-0.1111658 -0.2407555 0.2990216
-0.1025962 -0.27657151 0.2794137
-0.1038564 -0.3058829 0.2245623
0.13146649 -0.30552179 0.56348783
0.063895881 -0.2710053 0.52178907
0.05074342 -0.31561479 0.4788323
0.072147347 -0.30346411 0.4635748
0.038679529 -0.3162334 0.69576138
0.03408663 -0.31130081 0.64844769
0.04127511 -0.2966677 0.43174109
0.030533239 -0.31388861 0.60152131
-0.01657025 -0.3077766 0.50324303
-0.042923849 -0.3020466 0.2272038
-0.050134141 -0.29182079 0.22567999
-0.02798162 -0.30210429 0.213662
-0.03226814 -0.28831819 0.49666819
-0.03571203 -0.28882521 0.55171722
-0.043658379 -0.29447111 0.2145867
-0.074972004 -0.30739731 0.2068637
-0.042367879 -0.29311311 0.21715219
-0.093233816 -0.2897456 0.25281149
0.1113759 -0.28886899 0.51672411
0.075522467 -0.28923401 0.5364567
0.1288854 -0.28494459 0.56331187
0.1408018 -0.295378 0.55559713
0.12540241 -0.29222339 0.57652259
0.065275647 -0.3012059 0.47287449
0.076969907 -0.3024134 0.52425599
0.066481799 -0.29413149 0.4751285
0.086271197 -0.29253879 0.51054108
0.079385899 -0.2630879 0.5108462
0.027216019 -0.30833581 0.44296199
0.098573893 -0.30604869 0.53643012
0.043079529 -0.28671899 0.59743428
0.06701009 -0.30942801 0.47266421
0.093160518 -0.29499069 0.45698309
0.079491168 -0.29484031 0.48166531
0.091204062 -0.30107239 0.48850629
0.055781249 -0.28508639 0.45485929
0.0615629 -0.29309869 0.48657379
0.082667433 -0.29951891 0.46329939
0.042471699 -0.30307761 0.43937701
0.1003106 -0.3064568 0.50335121
