# .PCD v0.7 - Point Cloud Data file format
VERSION 0.7
FIELDS x y z
SIZE 4 4 4
TYPE F F F
COUNT 1 1 1
WIDTH 681
HEIGHT 1
VIEWPOINT 0 0 0 1 0 0 0
POINTS 681
DATA ascii
0.0068406458 -0.24058869 0.5792042
0.01430136 -0.2488652 0.57912052
0.0032252071 -0.1640708 0.59951448
-0.034353081 -0.2415043 0.58155781
-0.054029461 -0.2063472 0.5888471
-0.02388379 -0.1503499 0.59291369
-0.037152529 -0.2489834 0.57226402
-0.045557141 -0.2384814 0.56990689
-0.03096026 -0.2428166 0.56916922
-0.064511843 -0.196536 0.58634013
-0.033032481 -0.1494197 0.59161448
-0.091806829 -0.2187333 0.59801638
-0.0442307 -0.248869 0.57107252
-0.05687255 -0.4546499 0.53771639
-0.01905391 -0.45473301 0.49245179
-0.01210696 -0.36834449 0.52998573
-0.06321162 -0.35294431 0.57866192
-0.05987674 -0.44968519 0.56457388
-0.061390549 -0.39305511 0.56270128
-0.071085751 -0.45431459 0.58489102
-0.04789963 -0.3965947 0.54975468
-0.05762184 -0.45637071 0.55180317
-0.038181249 -0.39897451 0.53286541
-0.034095969 -0.3812952 0.53846818
-0.0090227127 -0.40557459 0.5140065
-0.04313466 -0.40870249 0.54153037
-0.048993379 -0.43486771 0.54738349
-0.055251539 -0.4432601 0.54657853
-0.053187098 -0.38174191 0.56530958
-0.043321729 -0.43151051 0.53973252
-0.068758607 -0.4526687 0.57646841
-0.06393227 -0.44763291 0.59357882
-0.057117101 -0.44980711 0.54763311
-0.063269913 -0.40413371 0.57367462
-0.074214369 -0.3389509 0.59491998
-0.064843707 -0.38725129 0.57905489
-0.062864423 -0.4204421 0.58544773
-0.046612918 -0.37381959 0.53705949
-0.059928209 -0.41849789 0.57338858
-0.03538838 -0.1801445 0.5893321
-0.07268098 -0.2936143 0.58025992
-0.067010857 -0.3787657 0.57823372
-0.050061081 -0.42904389 0.58687961
-0.059701979 -0.43025541 0.5675981
-0.044517789 -0.45400861 0.58922201
-0.03871784 -0.45450279 0.58694482
-0.02621034 -0.1652869 0.54912192
-0.097667657 -0.1838526 0.58712882
0.02698851 -0.1678075 0.57720453
-0.026517181 -0.1702292 0.58929181
-0.081682026 -0.18816561 0.59995067
-0.044559959 -0.42812189 0.59608889
-0.05624184 -0.41770729 0.56156081
-0.080554932 -0.1788415 0.58377111
-0.042169619 -0.1683642 0.55987549
0.0093578855 -0.1663436 0.57565719
0.00093756343 -0.1750851 0.59702659
-0.097588621 -0.18230011 0.58758873
-0.02325841 -0.1698212 0.58152229
-0.039662499 -0.1650532 0.5474394
-0.1025937 -0.1864946 0.59004527
-0.0085979914 -0.15873431 0.5497067
-0.025345249 -0.163839 0.55387932
-0.022019509 -0.1626602 0.55356407
-0.05709682 -0.4571192 0.55492932
-0.035390262 -0.1640542 0.55123538
0.0032976151 -0.1611262 0.5568949
0.001295583 -0.156165 0.55203933
-0.037868269 -0.15932781 0.53983277
0.01312804 -0.15729889 0.56596458
0.02147695 -0.1579061 0.57961267
0.02303651 -0.1535217 0.56779009
0.006033815 -0.1551269 0.55464798
0.005797707 -0.1671948 0.57362711
-0.01450713 -0.1642427 0.55811262
0.01378358 -0.1582682 0.56660211
0.024262089 -0.16527461 0.58217549
0.023466229 -0.15846831 0.57913423
0.01488701 -0.1589864 0.57816118
0.032114491 -0.1625842 0.57637018
-0.0167637 -0.17703269 0.59391117
-0.056894321 -0.1658459 0.54681039
-0.049410071 -0.1677202 0.55815971
-0.046970628 -0.1642016 0.54896539
-0.029238891 -0.1782179 0.59954941
0.1758043 -0.45140269 0.52915281
0.1485927 -0.42058039 0.4756327
0.02233135 -0.1535145 0.57456481
0.13987429 -0.4458884 0.58506662
-0.060037181 -0.42313239 0.59362799
-0.067862839 -0.42845711 0.55821562
0.020076331 -0.1579811 0.5870344
0.02164427 -0.16403461 0.58841228
0.0034329221 -0.1596866 0.56416768
-0.015889701 -0.1545216 0.54982299
0.01346382 -0.1582534 0.57232821
-0.02342513 -0.1756852 0.59765548
-0.057234731 -0.46015871 0.56054181
-0.044403199 -0.1669538 0.56606662
-0.01298301 -0.15643691 0.55540788
-0.001195758 -0.15536579 0.5586946
-0.044189449 -0.16718739 0.56638253
0.0060247332 -0.15538891 0.56697959
0.00064074987 -0.1527088 0.56274033
0.019871389 -0.15754379 0.58715272
-0.01659104 -0.1540581 0.5523777
-0.024711041 -0.17087109 0.58597469
0.01560181 -0.1473355 0.56862468
0.01089593 -0.1565681 0.57598311
0.01084239 -0.1563213 0.57675672
-0.08056812 -0.17372639 0.5644542
-0.03040858 -0.16286489 0.54494369
-0.081587903 -0.17861681 0.5878073
-0.063716263 -0.42547509 0.58782291
-0.068264537 -0.4074237 0.57720512
-0.06391108 -0.39551231 0.57032353
-0.066762447 -0.3846764 0.57807028
-0.063151583 -0.3776277 0.57760352
-0.07115078 -0.38687369 0.58260858
-0.06207088 -0.4187566 0.59864098
-0.062709242 -0.4019492 0.57619429
-0.064140707 -0.3752189 0.59264791
-0.061052319 -0.41838229 0.58953202
-0.074830167 -0.43475759 0.51690668
-0.062352449 -0.45469159 0.56786013
-0.063729547 -0.37964341 0.5799228
-0.051161651 -0.425917 0.53811502
-0.065932453 -0.41359109 0.5795849
-0.0545961 -0.37222531 0.56768161
-0.043947309 -0.45521411 0.50748789
-0.028952779 -0.1673128 0.5928781
-0.072213322 -0.46148059 0.55804408
-0.04389092 -0.17307439 0.59894389
-0.066853046 -0.41435769 0.59877938
-0.01998895 -0.1701975 0.57886249
-0.080455869 -0.45998779 0.57024151
0.1175715 -0.42913061 0.45238259
0.084612489 -0.45008239 0.45176631
0.076381147 -0.41255349 0.47697061
0.1246562 -0.4201293 0.46939549
0.077560373 -0.39798579 0.47567779
0.1018288 -0.43586889 0.45043841
0.1894085 -0.43999159 0.504798
0.1140925 -0.4490858 0.44842151
0.104062 -0.41108629 0.47146019
0.1025217 -0.36017159 0.52210468
0.1015593 -0.38834801 0.49387741
0.054436032 -0.39947391 0.47681609
-0.018406389 -0.25362611 0.52703023
0.0040592849 -0.2379538 0.52497989
-0.052313801 -0.36667281 0.54280752
0.022300269 -0.153828 0.57907951
-0.0064373021 -0.4182519 0.47992209
-0.06604889 -0.41165921 0.58846039
-0.05821285 -0.45223251 0.5427891
-0.039728612 -0.45604229 0.50862718
-0.064963073 -0.37569371 0.57739782
-0.05453017 -0.4393622 0.53568059
-0.049450189 -0.37623179 0.53628957
-0.01217479 -0.36818811 0.50688678
-0.01458123 -0.33673671 0.5159508
-0.084138542 -0.2096967 0.57338309
-0.07595548 -0.30801389 0.59599543
-0.076314062 -0.2508316 0.57267457
-0.073731661 -0.25469089 0.5715012
-0.01499581 -0.4036071 0.49547791
-0.032927569 -0.400911 0.51116961
-0.1020423 -0.17151821 0.5937835
-0.047184799 -0.46104571 0.52196842
-0.021791911 -0.37913561 0.50844288
-0.01137805 -0.1549107 0.55601871
-0.05818662 -0.36817199 0.5934872
-0.056155201 -0.45982701 0.56269878
-0.060978379 -0.3965843 0.57081038
0.01444522 -0.1571372 0.56897551
0.003834456 -0.1582088 0.54939198
-0.043172061 -0.39385009 0.53003192
-0.05495733 -0.4581767 0.54308981
-0.084714413 -0.27506909 0.5963698
-0.024397491 -0.1602816 0.57135528
-0.048369169 -0.35292551 0.54729003
-0.067912221 -0.40362579 0.57125568
-0.091548741 -0.2306799 0.59450477
-0.029914949 -0.1721182 0.59478903
-0.04334959 -0.43810681 0.51776981
0.02248162 -0.15324759 0.56369078
-0.055321071 -0.1986586 0.54393661
-0.071878403 -0.17473359 0.58903098
0.026627 -0.1660355 0.58651888
-0.060786221 -0.3816793 0.56810892
-0.05976361 -0.40194061 0.5776003
-0.1022773 -0.18999059 0.59456217
-0.061931971 -0.34927559 0.59459609
-0.046756919 -0.3733243 0.54396498
-0.091223873 -0.20980041 0.57734108
-0.091968298 -0.2317204 0.59516448
-0.082699001 -0.28102541 0.58906591
-0.042124569 -0.3905696 0.5194962
0.082262583 -0.41168901 0.463599
-0.064374536 -0.1739184 0.58510292
-0.05532727 -0.39222521 0.55824608
-0.03330848 -0.39028239 0.51988822
-0.031859431 -0.15751439 0.55744988
-0.083733387 -0.1724291 0.59932619
0.00050622219 -0.40627789 0.48558941
0.037814081 -0.4407711 0.4716703
0.0040134792 -0.3914791 0.499511
-0.034628838 -0.40596071 0.52281338
-0.064317293 -0.1659317 0.54944849
-0.085636377 -0.25621879 0.58781111
-0.054327369 -0.4179813 0.53860921
-0.094237506 -0.1760236 0.59321219
-0.050978359 -0.32933879 0.53892291
-0.069150753 -0.40171751 0.57130152
-0.086281873 -0.2076371 0.57417512
-0.070022762 -0.3381269 0.59399623
0.01163286 -0.15499569 0.57163692
-0.01145232 -0.1537777 0.55592781
0.02810216 -0.16623551 0.58802152
-0.064725943 -0.41503799 0.58913952
-0.064014673 -0.3785975 0.57745987
-0.05915219 -0.34155509 0.54603332
-0.058034118 -0.4590016 0.56413668
-0.057079021 -0.4577449 0.545066
-0.052940499 -0.4380635 0.54188669
0.02569473 -0.1532162 0.58068222
-0.053715531 -0.44089821 0.53603488
-0.048617899 -0.38679329 0.53095227
-0.059344411 -0.1932991 0.54525459
-0.076409981 -0.2491352 0.5727824
-0.033314232 -0.23636959 0.53215247
-0.052528922 -0.45686609 0.52393788
-0.05181646 -0.42719591 0.51814097
-0.051838819 -0.16305131 0.55557913
0.069476373 -0.4020094 0.47179139
0.087389231 -0.4165906 0.46606439
-0.072772801 -0.3098906 0.59921223
-0.046684321 -0.16134509 0.56474549
-0.047454178 -0.4527109 0.50490361
-0.0053750868 -0.1616049 0.57065201
0.01428723 -0.25585729 0.52239197
-0.043583039 -0.4515053 0.50993282
-0.05348837 -0.45892981 0.54905027
0.046928819 -0.37246859 0.48363239
0.1634634 -0.42557549 0.4883233
0.1502386 -0.41869479 0.4974691
-0.05215418 -0.3720794 0.53543478
0.16782659 -0.44365519 0.47899771
0.03903478 -0.36892661 0.4897427
-0.035786148 -0.3975786 0.52286988
-0.085834503 -0.1718546 0.59629643
0.0096603632 -0.40123409 0.482804
0.1060583 -0.41242 0.47043869
-0.01106423 -0.41483009 0.4809179
0.030465189 -0.3877508 0.4761737
-0.030489979 -0.2462558 0.53409111
-0.01038963 -0.42312181 0.4944149
-0.035964549 -0.40539411 0.51566428
-0.0108242 -0.4292044 0.48027891
0.025965329 -0.31403181 0.50799698
-0.01311576 -0.3690154 0.50831252
0.1126488 -0.4236798 0.45117679
0.064702392 -0.41492409 0.46132001
-0.03926152 -0.45051461 0.4911842
-0.065047979 -0.42784369 0.51009232
0.05973506 -0.3207292 0.51209313
-0.051954929 -0.35374781 0.54183298
0.1279244 -0.41554409 0.46951249
-0.072226167 -0.39130789 0.56712192
-0.077100158 -0.3795155 0.56667149
0.039492961 -0.34583041 0.4982093
0.028674539 -0.4387503 0.46188009
-0.026876749 -0.2449363 0.52374798
-0.079540104 -0.24823751 0.57319981
-0.1720683 -0.4396731 0.55302632
0.1021086 -0.41742539 0.4588142
-0.071013927 -0.28023919 0.56259722
-0.081622213 -0.30135819 0.59294009
-0.059877042 -0.28945681 0.57053912
-0.038406938 -0.38848639 0.51103008
-0.01452009 -0.4007715 0.49731019
-0.077955589 -0.27676669 0.58455682
-0.0046631992 -0.39548579 0.48302439
0.044090569 -0.4465082 0.45289379
-0.02134523 -0.2471461 0.52695948
0.02373001 -0.29143989 0.51114541
-0.072158962 -0.1656667 0.57179612
0.042744551 -0.45142871 0.45655289
0.0056875939 -0.34009171 0.50827843
-0.01383215 -0.1500143 0.54670608
0.117608 -0.43251351 0.44708371
-0.032091651 -0.33806941 0.53244209
0.04785642 -0.2629751 0.52839392
-0.001871556 -0.1618098 0.54336423
0.05796054 -0.28783539 0.52343422
-0.00029373169 -0.1496671 0.55830199
0.079759933 -0.35749331 0.49916539
0.05308735 -0.3757135 0.48421821
0.074355692 -0.31764311 0.5191713
-0.15456641 -0.45951921 0.4280839
0.04112396 -0.25506791 0.52979809
0.083259173 -0.30578291 0.53015321
0.0083047599 -0.15512089 0.55647337
-0.04849562 -0.455322 0.49184081
0.017287491 -0.26022989 0.52631009
0.03846034 -0.3098599 0.50910538
0.030003879 -0.43715289 0.46471041
0.061898138 -0.292274 0.52502888
-0.045935541 -0.45238289 0.50866008
-0.017885661 -0.4456203 0.47044879
0.050831851 -0.2521379 0.53804803
0.078938887 -0.43480349 0.44615939
0.160037 -0.41540831 0.4716526
0.1028042 -0.43700039 0.4490231
0.1039853 -0.43327609 0.451749
0.1178739 -0.4354347 0.4533219
0.089605063 -0.439004 0.4582282
0.063192427 -0.3218807 0.50862199
0.083721012 -0.42245969 0.4544431
0.1154459 -0.39277899 0.50422537
0.076735847 -0.42460939 0.4497098
0.03569001 -0.2999571 0.50831848
-0.0046022828 -0.38862169 0.4866586
-0.052423541 -0.44136521 0.50356042
0.15824559 -0.4268772 0.47093669
0.065524191 -0.3097727 0.51702052
-0.1587529 -0.45668599 0.34467641
0.1262365 -0.4061254 0.46366861
0.1244979 -0.40751129 0.46710709
0.091824219 -0.31659329 0.53094238
0.060179319 -0.3062796 0.5186128
0.0246267 -0.28993049 0.50964028
0.072557181 -0.29438779 0.53199631
0.1568139 -0.44555691 0.475521
0.1152465 -0.44506001 0.44565591
0.06084374 -0.43080941 0.45270899
0.14470311 -0.41331089 0.46539599
0.055004749 -0.44667491 0.4591926
0.1209078 -0.398884 0.49397951
0.1587179 -0.45168251 0.54946703
0.12814941 -0.39659441 0.51520473
0.1579093 -0.45561671 0.55131912
0.092799962 -0.30509481 0.53580528
0.082072787 -0.43947479 0.44318101
0.067382537 -0.29447931 0.51499379
0.083183527 -0.39044571 0.47000149
0.038579639 -0.2309636 0.54126018
0.063095599 -0.36185041 0.49118039
0.05923304 -0.33932891 0.50709248
0.1372223 -0.42300421 0.59148782
-0.1157817 -0.46064159 0.35931081
-0.1792841 -0.4569096 0.55431187
0.123107 -0.37106249 0.55505461
0.088676959 -0.31720611 0.51917672
-0.073578417 -0.45802429 0.41288811
0.021639319 -0.14965139 0.56730151
0.1097032 -0.4101378 0.4438363
0.016653899 -0.30296829 0.50617409
0.098524533 -0.42548269 0.4585546
0.024353061 -0.32174951 0.4932794
0.1739607 -0.43271211 0.49181741
-0.1523471 -0.46031979 0.309852
-0.023991261 -0.45675749 0.29025519
-0.0035663841 -0.44874811 0.38088921
-0.01578295 -0.4472813 0.33418021
-0.1720535 -0.44101641 0.2769106
-0.15661991 -0.44626361 0.3471429
0.130814 -0.411948 0.59161597
0.13260581 -0.4135502 0.53383863
0.123578 -0.36646879 0.5742538
0.14451189 -0.42502981 0.55088103
0.12673479 -0.3793129 0.56496799
0.1030544 -0.36338621 0.50434041
0.1296048 -0.3935723 0.51326001
0.1220411 -0.41457841 0.45343241
0.1332376 -0.41222981 0.50358927
0.1171629 -0.3667962 0.50873601
0.1450067 -0.42432231 0.51795661
0.1098014 -0.39118719 0.49939829
0.12661891 -0.41364869 0.58960718
0.1362253 -0.41565341 0.54558301
0.124965 -0.3857165 0.57820833
0.1619408 -0.4145835 0.48763049
0.1451669 -0.41220361 0.48337531
0.016444501 -0.1541824 0.56424612
0.064406566 -0.29224649 0.52458662
0.067515463 -0.2380095 0.53146762
0.1006903 -0.28270131 0.50459093
0.092054367 -0.21748351 0.57816893
-0.036660429 -0.1504344 0.57547587
0.078258403 -0.2804291 0.52212149
0.15394109 -0.40302449 0.48359331
0.05444121 -0.1884516 0.57391542
0.09083569 -0.2238708 0.5632273
0.1367247 -0.40021279 0.58876908
0.13109609 -0.35615149 0.57189113
0.1324254 -0.38697091 0.59707391
0.1338664 -0.38170731 0.52163053
0.1531499 -0.41448191 0.5277949
0.1448632 -0.4024888 0.54477632
0.19100329 -0.4328877 0.49514529
0.1200702 -0.36230931 0.50798309
0.12663861 -0.37341121 0.51294363
0.1384723 -0.42094269 0.58262068
0.16446 -0.41127431 0.5118894
0.142813 -0.44374761 0.5785926
0.1187926 -0.33058351 0.59745592
0.15729471 -0.43766469 0.54600209
0.1143995 -0.31819811 0.54650283
0.1046188 -0.33149531 0.52304047
0.1222427 -0.34188741 0.55078989
0.1061665 -0.3218013 0.52731228
0.1227587 -0.34488091 0.54814619
0.1375698 -0.39879891 0.56881338
0.068539858 -0.2757498 0.52099198
0.057486761 -0.2704643 0.51733172
0.046519618 -0.25561151 0.52436751
0.17345519 -0.4229342 0.51412499
0.1835338 -0.44470179 0.54614472
0.1099768 -0.29786611 0.58856922
0.1111385 -0.30765879 0.56741869
0.038702652 -0.15308741 0.59671342
0.12788381 -0.35333839 0.54113889
0.1144632 -0.35329229 0.50482649
0.093209587 -0.29736069 0.53043038
0.13362581 -0.36441779 0.56548518
0.01014122 -0.1438774 0.55806547
0.12539519 -0.37927169 0.50099683
0.15983529 -0.43052149 0.4656108
0.13943151 -0.44654569 0.45873311
0.1357449 -0.38851079 0.51447779
0.1416778 -0.4356291 0.4563866
0.08952935 -0.34607959 0.49862209
0.090782568 -0.42531571 0.45205379
0.03923142 -0.27568421 0.51412302
0.04663378 -0.288562 0.51160818
0.077865116 -0.3318117 0.51488471
0.082072601 -0.28562489 0.53060317
0.076535568 -0.3321268 0.50335968
0.1422752 -0.3953537 0.4783133
0.022489941 -0.34387529 0.5028429
0.113275 -0.3386966 0.51086152
0.028865371 -0.2914573 0.51614767
0.05450115 -0.3713924 0.48423079
0.05834524 -0.21067341 0.5568431
0.1507514 -0.40022111 0.4647432
0.1238995 -0.3782137 0.50128639
0.01819906 -0.4190222 0.47373441
0.087249279 -0.40120769 0.47840461
0.073836572 -0.35506061 0.4939346
0.03078966 -0.44264039 0.4579193
0.017414751 -0.43588331 0.45782009
-0.01448527 -0.43379399 0.4722186
0.1181557 -0.38008451 0.4944531
0.021507559 -0.346239 0.48849419
0.03041577 -0.1905546 0.53962898
0.1395791 -0.44379351 0.59514952
0.1922114 -0.44416121 0.54015923
0.191697 -0.4592025 0.52212459
0.1230178 -0.34515631 0.58749431
0.14628799 -0.40104511 0.50954378
0.056973789 -0.43137169 0.45362139
0.099575371 -0.30998781 0.53111982
0.12502959 -0.42773029 0.4503676
0.062338222 -0.36593941 0.48506451
0.1574616 -0.4081482 0.4676818
0.1797227 -0.42748651 0.49073359
0.13266841 -0.396088 0.4666504
0.1682222 -0.44726259 0.55924487
0.074319594 -0.32156149 0.50734669
0.15560959 -0.44705999 0.57086301
0.0096981823 -0.39010331 0.48193139
0.1017065 -0.27014261 0.56391257
0.1775898 -0.41752729 0.49178091
0.01608789 -0.38733399 0.48395309
0.107486 -0.29071161 0.59618789
0.098745748 -0.27071971 0.57267451
0.1224419 -0.39863431 0.46268341
0.057366058 -0.2034712 0.57882482
0.1311397 -0.3940652 0.48339981
0.12775069 -0.39739949 0.48075959
0.1210552 -0.3348498 0.55633712
0.061115671 -0.33087331 0.50133491
0.088468313 -0.38216051 0.47640261
0.072015323 -0.3978644 0.46804249
0.079082698 -0.37618011 0.48201591
0.032112461 -0.36847171 0.48545089
0.077982992 -0.35294911 0.49619809
0.089845963 -0.2372303 0.58231407
0.069905162 -0.34608921 0.49376231
0.087354451 -0.2261695 0.58604813
0.056035548 -0.3965891 0.4751853
-0.007788002 -0.39215049 0.48073399
-0.1145539 -0.4547551 0.51742792
-0.184559 -0.45010841 0.55074209
-0.1975991 -0.4565841 0.5217855
-0.01486814 -0.332537 0.50703359
-0.016969319 -0.36013439 0.50355911
-0.01586974 -0.39433989 0.49175009
-0.073125839 -0.4576453 0.49420911
0.03377926 -0.35720679 0.4839029
-0.03613412 -0.44876301 0.48824379
-0.052327629 -0.37967101 0.52991682
-0.2370906 -0.44854209 0.58740288
0.061210688 -0.43169919 0.45222339
-0.04842836 -0.4442111 0.50278819
-0.056272209 -0.43232799 0.53147668
-0.099765182 -0.168561 0.57808769
-0.065148003 -0.3693442 0.5733487
-0.068052217 -0.4056454 0.58463299
-0.054977361 -0.43571591 0.53054613
-0.1957078 -0.451166 0.56838733
-0.070340157 -0.45754001 0.4963347
-0.1292599 -0.45613611 0.5299781
-0.2189306 -0.45247239 0.54851168
-0.080036066 -0.2414259 0.56881237
-0.19981501 -0.4502371 0.55933732
-0.050362881 -0.36840281 0.53214902
-0.15996119 -0.45296991 0.54329199
-0.087629139 -0.2000169 0.56943142
-0.01068127 -0.40753701 0.47375321
-0.0020083189 -0.30209199 0.50431317
0.0027088521 -0.30791509 0.49635139
-0.07662493 -0.267088 0.57462448
-0.076687753 -0.2456989 0.56728762
-0.05188835 -0.3904334 0.53157228
-0.053656489 -0.35979599 0.53984737
-0.039577872 -0.38858321 0.5076741
-0.089821763 -0.45065871 0.51813507
-0.05291051 -0.32608941 0.53405309
-0.044074181 -0.44816279 0.50192273
0.1178681 -0.4215267 0.443308
-0.006400466 -0.382247 0.4844203
0.1044294 -0.3638595 0.48796499
0.0028004651 -0.38708591 0.47594011
-0.05844951 -0.15971801 0.5757733
-0.062946923 -0.4412981 0.54063511
-0.051408172 -0.45147929 0.50482571
0.029394809 -0.3809981 0.47101921
-0.1151055 -0.45615581 0.53123498
-0.050158259 -0.35055509 0.54171509
-0.061798599 -0.43448529 0.54913521
-0.21852151 -0.4581354 0.55846721
-0.14049929 -0.45145661 0.55630738
-0.1148839 -0.45413411 0.52163851
0.077471443 -0.4395932 0.4447664
0.006555378 -0.44940081 0.45657521
-0.062451061 -0.44446591 0.53886008
-0.056660891 -0.44706801 0.59914601
0.097931333 -0.45602101 0.43623111
-0.23721731 -0.45196 0.58369899
-0.098378599 -0.2321676 0.59897357
-0.03404367 -0.39768451 0.49883571
-0.0090553761 -0.35294989 0.49836421
-0.057227701 -0.451639 0.55888617
-0.0077416901 -0.37359539 0.49535969
-0.085117519 -0.2508598 0.58727127
-0.054903179 -0.41237569 0.53576529
-0.068676531 -0.1567761 0.55959958
-0.061560512 -0.185799 0.54075158
0.063624382 -0.39580071 0.45297989
-0.091131032 -0.45439899 0.50995117
-0.2174882 -0.45697579 0.57879043
-0.1330602 -0.4557353 0.52759367
0.114241 -0.38828191 0.46906751
-0.02684343 -0.44489491 0.47421041
0.04116166 -0.30323279 0.48887739
-0.05128834 -0.3810142 0.52674079
-0.1790743 -0.45531681 0.55348742
-0.1624029 -0.45219699 0.55547333
-0.1390184 -0.45512801 0.54850328
-0.1720112 -0.45644021 0.56146431
-0.15953299 -0.4527027 0.55943161
-0.12926809 -0.45500481 0.53944498
-0.02178484 -0.4285287 0.47955471
-0.017492151 -0.1447724 0.54966462
-0.01110628 -0.1524327 0.56072491
-0.01023817 -0.44366819 0.46470091
-0.065986477 -0.37528551 0.57864022
-0.068025947 -0.404762 0.57397759
-0.096920401 -0.1684639 0.58992308
-0.02317852 -0.43894961 0.47075459
-0.032931689 -0.36234349 0.50367188
-0.087834477 -0.26550871 0.59288257
0.001222551 -0.39731181 0.46770909
-0.041275982 -0.2186228 0.53222531
-0.064858697 -0.2803683 0.56225502
-0.065806329 -0.3525081 0.5893929
0.0044985712 -0.144214 0.56312048
0.0127489 -0.1402708 0.55747408
-0.0098985434 -0.149332 0.54101831
-0.02097768 -0.1388064 0.53951043
-0.009634316 -0.15098441 0.56561518
0.02242494 -0.44779259 0.45824769
0.04283613 -0.44343191 0.45874819
-0.056404889 -0.45787469 0.48679671
-0.2023368 -0.45397389 0.55984032
-0.089637339 -0.1629148 0.59291172
-0.00849998 -0.41888359 0.46653599
-0.036802288 -0.1615243 0.58934832
0.04463559 -0.34150651 0.4937982
-0.005562603 -0.1607924 0.59763873
-0.1005825 -0.16967981 0.58778751
-0.086158983 -0.45378491 0.58918083
-0.075325496 -0.45820421 0.56203568
-0.083990201 -0.45640299 0.59755379
-0.086471863 -0.1666901 0.5835706
-0.082897119 -0.16855741 0.59346062
-0.1062549 -0.1734582 0.59470409
-0.050002512 -0.1670485 0.59921408
-0.053192101 -0.1517123 0.5446189
-0.026677789 -0.1728216 0.58508623
-0.055757619 -0.15593059 0.55610198
-0.043780189 -0.1646581 0.58755362
-0.067188174 -0.4411402 0.54063338
0.01660306 -0.15061259 0.58245128
-0.01425679 -0.14565159 0.5451799
-0.033494439 -0.1482424 0.5535785
0.035005569 -0.15482239 0.58072799
-0.0585366 -0.45750839 0.5067426
-0.049480472 -0.1539685 0.56093979
-0.1069456 -0.173904 0.59365457
-0.06151849 -0.45286211 0.5593158
-0.03118992 -0.15284669 0.55168641
-0.068341851 -0.36702111 0.57420403
-0.066130877 -0.40829939 0.59460759
-0.0444091 -0.1452519 0.56162328
-0.083794333 -0.4522759 0.5639919
-0.02033329 -0.14176489 0.55380088
-0.068989217 -0.37501031 0.57911098
-0.0098442445 -0.16555449 0.59420401
-0.075685382 -0.45883599 0.56019771
-0.065417051 -0.40712881 0.58409607
-0.076369233 -0.1642421 0.58510011
-0.055421829 -0.4135378 0.53504992
-0.05778271 -0.43663391 0.53027701
-0.068590879 -0.39791659 0.56695658
-0.066214979 -0.43430331 0.55087417
-0.02184343 -0.1428768 0.55031168
-0.04186416 -0.4449116 0.4749037
0.089160264 -0.43282801 0.44638991
0.005701303 -0.1455522 0.5642662
0.01641947 -0.14258809 0.57289749
0.0064250831 -0.14617629 0.56472683
-0.045948509 -0.1570833 0.56014079
-0.062572241 -0.42514351 0.53248399
-0.067672491 -0.39427221 0.56637591
-0.068473458 -0.40554231 0.57246929
-0.055097159 -0.37825099 0.52696729
-0.097483218 -0.1968127 0.5706144
-0.01525944 -0.3969889 0.4927429
-0.093340367 -0.19822191 0.56975907
-0.02870959 -0.16463611 0.59947592
-0.081757188 -0.2434976 0.56710589
-0.03760707 -0.42711571 0.55075651
-0.099138893 -0.2325882 0.59913647
-0.06156164 -0.45475611 0.50817758
-0.069303989 -0.37520021 0.57817441
-0.061578959 -0.39094579 0.57641578
-0.01020575 -0.1359541 0.56548458
-0.097329877 -0.17094339 0.58875662
0.024087369 -0.1556481 0.59250659
-0.038395818 -0.45399839 0.47426659
-0.088420451 -0.35268879 0.53877842
-0.069741957 -0.3761968 0.5784359
-0.080187559 -0.4475666 0.50137538
-0.069099188 -0.37542659 0.57900709
-0.047168139 -0.4389396 0.48122111
-0.057899479 -0.4440845 0.51902211
-0.064988852 -0.40866399 0.58316618
-0.06287241 -0.45056441 0.56073368
-0.059980031 -0.36477831 0.51475912
0.062782407 -0.45520729 0.42943799
-0.1038817 -0.2156433 0.58465731
-0.067744084 -0.1542283 0.55153602
-0.1025643 -0.2358021 0.5913049
0.2067737 -0.4567005 0.1869718
-0.1061225 -0.253719 0.59341103
-0.0808267 -0.3319084 0.58459222
-0.057898041 -0.1483146 0.56417543
0.161231 -0.45749569 0.4287577
