# .PCD v0.7 - Point Cloud Data file format
VERSION 0.7
FIELDS x y z normal_x normal_y normal_z curvature
SIZE 4 4 4 4 4 4 4
TYPE F F F F F F F
COUNT 1 1 1 1 1 1 1
WIDTH 587
HEIGHT 1
VIEWPOINT 0 0 0 1 0 0 0
POINTS 587
DATA ascii
-0.05079776 -0.39816642 0.5485487 -0.92666632 0.077966861 -0.36771014 0.073521078
-0.059028048 -0.45680559 0.55154812 -0.25693151 -0.93093914 0.25949666 0.24295095
-0.043551415 -0.39952317 0.53019309 -0.88753957 0.14286916 -0.43802038 0.074387655
-0.035717823 -0.38280469 0.54127693 -0.86452299 0.12767971 -0.48610476 0.03506501
-0.0090227127 -0.40557459 0.5140065 -0.67484564 0.071142107 -0.73452175 0.11898872
-0.049596623 -0.40588015 0.53964239 -0.92211777 0.078959525 -0.3787666 0.088326477
-0.054003872 -0.4317112 0.54759955 -0.94609594 -0.013995048 -0.32358417 0.18513925
-0.057474088 -0.44323826 0.54610008 -0.92977136 0.03019035 -0.36689734 0.23970906
-0.057600979 -0.3809177 0.56257808 -0.93709111 0.046720009 -0.34594446 0.035528574
-0.051469617 -0.42868194 0.5442583 -0.94167697 -0.034136899 -0.334782 0.1696756
-0.066513717 -0.46215829 0.57525015 -0.25982693 -0.87229162 0.41424292 0.21438672
-0.062203411 -0.44789809 0.59246302 -0.95544297 -0.28229007 -0.086261772 0.20579413
-0.057634342 -0.44990614 0.54755211 -0.94849259 -0.049385797 -0.31292614 0.26106599
-0.06398721 -0.40432313 0.57350838 -0.94895554 0.002587155 -0.31539947 0.07345333
-0.072528906 -0.33775538 0.59386855 -0.92596692 -0.083463982 -0.36826488 0.0066973474
-0.065254673 -0.38727182 0.57905108 -0.95497137 0.059119571 -0.29074809 0.029427364
-0.059823111 -0.41868982 0.58580923 -0.94228953 -0.067306109 -0.32796383 0.11667656
-0.046583891 -0.37385121 0.5372079 -0.86932498 0.0997281 -0.48407486 0.039908286
-0.062665015 -0.41927865 0.5735597 -0.9784888 -0.030872203 -0.2039769 0.11942276
-0.031868149 -0.17094882 0.59512872 -0.18531114 0.80995822 0.5564419 0.076549493
-0.071384743 -0.29335356 0.58165812 -0.68189865 -0.042205736 -0.73022801 0.038227785
-0.064988539 -0.37895355 0.57875991 -0.95752686 -0.030782441 -0.28669658 0.021428408
-0.048921227 -0.42698219 0.58693302 -0.84787446 -0.18018366 -0.49864092 0.16605435
-0.061892942 -0.43027249 0.56755602 -0.98837894 -0.046880912 -0.1446002 0.20141391
-0.043736547 -0.4539836 0.59101993 -0.10949444 -0.30936414 0.94461882 0.23670818
-0.040693324 -0.46444225 0.58647883 -0.49867836 -0.85110933 0.16411239 0.213947
-0.028388711 -0.15905704 0.55583459 -0.207287 0.92830032 0.30869156 0.038778573
-0.096776322 -0.18233931 0.59333408 0.29944959 -0.077877417 0.95092857 0.12710866
0.025244048 -0.15808956 0.5814299 -0.13885549 0.92719132 0.34790164 0.023337593
-0.026185527 -0.16859755 0.59115171 -0.20164555 0.88374221 0.42230177 0.062918581
-0.080926172 -0.18818173 0.59981477 0.24669622 -0.0017922858 0.96909118 0.11713032
-0.044485867 -0.42797068 0.59605587 0.42785642 0.077863157 0.90048665 0.17895149
-0.063618951 -0.41865519 0.56412601 -0.97762954 -0.0030195715 -0.2103125 0.12925786
-0.08170101 -0.17253108 0.58637559 0.2987394 -0.025724135 0.95398796 0.12687229
-0.042116512 -0.15893762 0.55884004 -0.20480444 0.93030995 0.30426735 0.037047029
0.0078571662 -0.1631055 0.57752162 -0.16814055 0.92842001 0.33130813 0.031769849
0.00076159567 -0.17514043 0.59777862 -0.1747887 0.886154 0.42916209 0.05122491
-0.096740246 -0.18089296 0.59277183 0.31651413 -0.083459213 0.94490927 0.13271676
-0.022439338 -0.1659455 0.58321875 -0.19918045 0.88424057 0.42242846 0.066760644
-0.039883874 -0.16026399 0.54930007 -0.21923032 0.9443239 0.24533753 0.057724357
-0.10154209 -0.1864785 0.59234583 0.34235367 -0.084357232 0.93577659 0.12900054
-0.0096816365 -0.15344526 0.55329919 -0.19141315 0.9317075 0.30867824 0.037691712
-0.026995154 -0.15886867 0.55591649 -0.207287 0.92830032 0.30869156 0.038778573
-0.023738688 -0.15847306 0.55677992 -0.18528777 0.93687618 0.29653227 0.03248826
-0.058305055 -0.4593741 0.55386531 -0.23626079 -0.94080514 0.24303588 0.22905327
-0.03580682 -0.15932621 0.55149227 -0.226055 0.93942654 0.25763723 0.06067311
0.0003432798 -0.15352651 0.56049323 -0.19412962 0.92973775 0.31289211 0.04115491
0.0013078738 -0.15483215 0.55186892 -0.19412988 0.92973769 0.3128922 0.041154865
-0.040449124 -0.16309905 0.54683727 -0.22026807 0.94472677 0.24284405 0.058432851
0.010715818 -0.15485333 0.56833816 -0.14437486 0.92965424 0.33896729 0.019353893
0.021678587 -0.15820123 0.57935733 -0.14357483 0.92764962 0.34474966 0.022601275
0.021994118 -0.15023591 0.57075816 -0.14356855 0.92767411 0.34468654 0.022604696
0.0018904095 -0.15308891 0.56037611 -0.19412428 0.92975348 0.31284869 0.041153625
0.0043171411 -0.16352092 0.57512546 -0.19303252 0.93046302 0.31141129 0.039954819
-0.015336179 -0.1570746 0.55870354 -0.17715175 0.9399423 0.29176304 0.031940587
0.010977595 -0.15545513 0.56982547 -0.14439155 0.92960083 0.33910656 0.019360146
0.024083862 -0.16051221 0.58423156 -0.13885549 0.92719132 0.34790164 0.023337593
0.023190565 -0.15770808 0.57966697 -0.1405042 0.92722714 0.34714305 0.022887597
0.015659416 -0.15965576 0.57741755 -0.14587902 0.92866749 0.34102196 0.020471277
0.031706974 -0.15588211 0.58005863 -0.13471465 0.92641097 0.3515887 0.025720919
-0.017355429 -0.17029537 0.59554827 -0.18412973 0.89111257 0.41474652 0.068802588
-0.056460466 -0.1632057 0.54565811 -0.26895738 0.95346892 0.13623138 0.069075406
-0.048494607 -0.160329 0.55694735 -0.21041937 0.93268245 0.29296255 0.038714662
-0.047229629 -0.16079514 0.54964411 -0.22808841 0.94650465 0.22826426 0.05895406
-0.02974806 -0.17353937 0.59810901 -0.12549746 0.62236321 0.77260244 0.09415704
0.1758043 -0.45140269 0.52915281 0.96327138 -0.24654986 0.10640197 0.1530796
0.15334284 -0.41589919 0.47317293 0.65480143 0.29994813 -0.69373351 0.14205967
0.022380585 -0.15391278 0.5743531 -0.14357178 0.92766035 0.34472221 0.022601379
0.13987429 -0.4458884 0.58506662 0.76275742 -0.30259836 0.57152021 0.18644813
-0.057460338 -0.42086816 0.59376961 -0.91012251 -0.081871711 -0.40616989 0.12980449
-0.060529537 -0.43094993 0.55937445 -0.98610622 0.0069915084 -0.16596864 0.21019959
0.020572197 -0.16229799 0.58500719 -0.14357097 0.9276607 0.34472167 0.022601515
0.022944547 -0.16147435 0.58516449 -0.14050159 0.92723703 0.34711775 0.022889633
0.0022578225 -0.15770896 0.56581742 -0.19412962 0.92973775 0.31289211 0.04115491
-0.01625238 -0.15311579 0.55249351 -0.18008274 0.93814015 0.29574177 0.033826221
0.012897396 -0.15743119 0.5732013 -0.14587902 0.92866749 0.34102196 0.020471277
-0.024971258 -0.17230929 0.59765965 -0.18191338 0.83065391 0.52623343 0.078901008
-0.057437632 -0.46100387 0.56024486 -0.28498265 -0.9132207 0.29122648 0.21904512
-0.043269686 -0.15993804 0.56649578 -0.20480444 0.93030995 0.30426735 0.037047029
-0.013015483 -0.15549135 0.55597562 -0.18036883 0.93794024 0.29620129 0.034831423
-0.0017727121 -0.15387066 0.55934143 -0.19412962 0.92973775 0.31289211 0.04115491
-0.04301741 -0.15994997 0.56682754 -0.20480444 0.93030995 0.30426735 0.037047029
0.0063301316 -0.15588804 0.56659526 -0.1940982 0.92982161 0.31266218 0.041143384
0.0015483355 -0.15417837 0.56146216 -0.19412962 0.92973775 0.31289211 0.04115491
0.020399909 -0.16230629 0.5849126 -0.14357097 0.9276607 0.34472167 0.022601515
-0.016650014 -0.15359873 0.55293864 -0.18008153 0.93813592 0.2957561 0.03382121
-0.024110667 -0.16737901 0.58772647 -0.19838369 0.88534063 0.420495 0.065224722
0.016359044 -0.14816804 0.56782806 -0.14585544 0.92872697 0.3408699 0.02045599
0.012347139 -0.15852325 0.5738855 -0.14411372 0.92961264 0.33919254 0.019900778
0.012504518 -0.15861928 0.57406622 -0.14411372 0.92961264 0.33919254 0.019900778
-0.081079297 -0.17311919 0.56426501 -0.39127252 0.10009041 -0.9148156 0.11485051
-0.032520302 -0.15672004 0.55159527 -0.20339845 0.9307332 0.30391547 0.038982525
-0.081351198 -0.1777876 0.59110105 0.22947262 0.012657696 0.97323281 0.12839895
-0.057037119 -0.42100871 0.58837247 -0.92239112 -0.099533796 -0.37321249 0.13333282
-0.064035885 -0.40701151 0.57717258 -0.95233846 -0.0084596537 -0.30492577 0.079367906
-0.063181646 -0.39551577 0.57055461 -0.94211584 0.025684146 -0.33430243 0.053081006
-0.065213114 -0.38455084 0.57810378 -0.96184897 0.02050701 -0.2728112 0.025141159
-0.064017043 -0.37720844 0.57728839 -0.95385289 -0.028140724 -0.29895288 0.019372987
-0.064977527 -0.38595971 0.58075088 -0.94835502 0.046978142 -0.31371304 0.025722085
-0.062048655 -0.41864905 0.59865868 -0.88920677 -0.046574939 -0.45512873 0.1250871
-0.064494327 -0.4021832 0.57613218 -0.95083684 0.0085484581 -0.30957431 0.07298892
-0.061691348 -0.37556091 0.59176481 -0.95768619 -0.068464831 -0.27955282 0.018002694
-0.060624726 -0.41811201 0.58956462 -0.93677819 -0.070603281 -0.34272704 0.11829821
-0.074921891 -0.43378022 0.51588082 -0.78983718 0.36569801 -0.49236384 0.16362916
-0.061401941 -0.46166787 0.56719184 -0.23286273 -0.90225881 0.3629103 0.216084
-0.064496741 -0.37949958 0.5796777 -0.95446736 -0.017947933 -0.29777494 0.02327932
-0.053062178 -0.42535469 0.53942156 -0.92696649 0.035924859 -0.37342015 0.15014423
-0.063065805 -0.41295296 0.5798406 -0.94062936 -0.048465896 -0.33595753 0.10379477
-0.058344886 -0.3724544 0.56495994 -0.92698753 0.020683382 -0.37452161 0.029959902
-0.049014352 -0.45700976 0.5063535 -0.43331137 -0.75745648 -0.48836556 0.20008422
-0.029208466 -0.16742045 0.59149855 -0.20164555 0.88374221 0.42230177 0.062918581
-0.071411185 -0.46240431 0.55917627 -0.092279226 -0.93734938 0.33594757 0.2084078
-0.043769352 -0.17247067 0.59801614 -0.14056893 0.65055454 0.74633712 0.083695337
-0.064406991 -0.41359484 0.59877735 -0.94084698 -0.013514997 -0.33856228 0.098910026
-0.019710885 -0.1648857 0.58135259 -0.19837414 0.90780312 0.36951476 0.053108308
-0.079655401 -0.46327338 0.57021153 -0.11018617 -0.90850574 0.40308368 0.22336321
0.11738896 -0.42885503 0.45033067 0.26172128 0.093677372 -0.96058661 0.13799044
0.085794866 -0.45011413 0.45057502 0.053928174 -0.4697977 -0.88112527 0.1329041
0.079140477 -0.40728661 0.46854523 0.000254493 0.22236413 -0.97496367 0.1133894
0.12802131 -0.41966403 0.46819258 0.42808166 0.18203345 -0.88521749 0.15898895
0.078761563 -0.39791888 0.47241995 0.027062008 0.32386139 -0.94571745 0.079488523
0.10187192 -0.43595263 0.45087323 0.15658599 -0.1439795 -0.97711349 0.14496762
0.11417454 -0.44909823 0.44977075 0.2257878 -0.30298784 -0.92586076 0.15255244
0.10409189 -0.41101509 0.47136903 0.19093782 0.22320478 -0.95588833 0.14249578
0.1018317 -0.38851163 0.49333689 0.35490212 0.54677492 -0.75834149 0.075748518
0.054516066 -0.3993822 0.47698724 -0.13638407 0.2034228 -0.96954548 0.075183257
-0.017962735 -0.25305769 0.52731889 -0.37393534 0.22536066 -0.8996582 0.050306763
-0.04832628 -0.36572239 0.54066318 -0.88124418 0.10048114 -0.46185735 0.038516026
0.0229709 -0.15615502 0.57756633 -0.14357178 0.92766035 0.34472221 0.022601379
-0.0087771164 -0.41708797 0.48020613 -0.47016346 0.13052705 -0.87287402 0.08204437
-0.064174384 -0.41110975 0.58859563 -0.95124787 -0.016759375 -0.30797169 0.089529693
-0.056208711 -0.45182389 0.54328126 -0.9225961 -0.15013529 -0.355353 0.26240426
-0.043408111 -0.459391 0.50710201 -0.42601654 -0.78323185 -0.45283315 0.19101639
-0.063853048 -0.37594566 0.57759285 -0.9536882 -0.030836489 -0.2992124 0.019514605
-0.055993009 -0.43892014 0.53554785 -0.9010604 0.072778925 -0.42754334 0.19462779
-0.047999218 -0.37532291 0.53477281 -0.86315763 0.11658449 -0.49129117 0.035503585
-0.015775975 -0.36799696 0.50364083 -0.59704024 0.29348791 -0.74659747 0.041169532
-0.083941892 -0.2093652 0.57386577 -0.38355711 0.054157771 -0.92192775 0.09133783
-0.07595548 -0.30801389 0.59599543 -0.75089234 -0.063544489 -0.65736055 0.02162781
-0.078317091 -0.25149655 0.57159704 -0.66579288 -0.11326016 -0.73749024 0.039909407
-0.076321088 -0.25554222 0.57021749 -0.6433627 -0.15157263 -0.75040674 0.039760355
-0.012279362 -0.40013161 0.49646172 -0.57704484 0.18286981 -0.7959761 0.070683919
-0.03278457 -0.40076879 0.5117842 -0.80113834 0.19557755 -0.56562072 0.075110078
-0.099385984 -0.17344603 0.59098977 -0.38132194 0.13784343 -0.91410768 0.14607391
-0.047439989 -0.46250454 0.52165413 -0.29209813 -0.93438017 -0.2039911 0.18070573
-0.02331496 -0.37796229 0.50701743 -0.68796587 0.3234494 -0.64967948 0.039219026
-0.011271663 -0.15510124 0.55549622 -0.18796775 0.9337936 0.30446297 0.036676832
-0.061806992 -0.36865833 0.59475964 -0.95701748 -0.084782168 -0.27736166 0.016581191
-0.056718696 -0.46139959 0.56225759 -0.28472549 -0.91192472 0.29550749 0.21230927
-0.063053034 -0.39627862 0.5702247 -0.94666201 0.026242059 -0.32115787 0.059468728
0.012708405 -0.15550676 0.57123774 -0.14587902 0.92866749 0.34102196 0.020471277
0.0020823188 -0.15347923 0.55178446 -0.19412988 0.92973769 0.3128922 0.041154865
-0.042699855 -0.39358681 0.5301857 -0.87971663 0.16867673 -0.44457489 0.06444256
-0.055250932 -0.4581674 0.54314816 -0.13976757 -0.98396051 0.11084586 0.23403643
-0.085881405 -0.27537981 0.59569228 0.43203291 0.13857922 0.89114732 0.033852268
-0.024478927 -0.16300081 0.57018214 -0.19669557 0.91175491 0.36057428 0.052382391
-0.047994401 -0.35264999 0.54582047 -0.86789256 -0.0084232716 -0.49668056 0.020998081
-0.063402496 -0.40355867 0.5717063 -0.942909 0.0041789711 -0.33302447 0.074781112
-0.091533333 -0.23074202 0.59453666 0.50569773 0.023343064 0.86239487 0.050330825
-0.029886844 -0.1714408 0.59519368 -0.18531114 0.80995822 0.5564419 0.076549493
-0.053227399 -0.44095558 0.51583505 -0.84941489 0.12914041 -0.51168072 0.18532553
0.018962897 -0.1480298 0.56896943 -0.14176057 0.92796445 0.3446534 0.021077557
-0.055321071 -0.1986586 0.54393661 -0.39679533 0.14762022 -0.90595901 0.088029288
-0.073403478 -0.17563011 0.58776188 0.19866969 0.076539397 0.97707313 0.12194273
0.026259009 -0.16170394 0.5884884 -0.13385791 0.92656863 0.35150066 0.023981502
-0.061071638 -0.38174525 0.56814009 -0.95065218 0.024411714 -0.30929682 0.030549411
-0.064471781 -0.40244183 0.57734257 -0.94719595 0.00055032293 -0.32065478 0.070065863
-0.10316778 -0.18963932 0.59227782 -0.41104689 0.07271897 -0.90870917 0.11313263
-0.066194385 -0.35126051 0.59431815 -0.94947994 -0.10065766 -0.29724717 0.011920872
-0.044030044 -0.37120867 0.54099965 -0.87930804 0.08691185 -0.46825612 0.041216359
-0.09128052 -0.20989627 0.57720113 -0.38737279 0.035687223 -0.92123222 0.092743725
-0.092137538 -0.23148571 0.59464711 0.49143019 0.01673964 0.87075609 0.050734222
-0.081015609 -0.2805925 0.59003443 0.51008517 0.092319712 0.85515505 0.041039787
-0.041195042 -0.39005485 0.51988065 -0.83883506 0.25048074 -0.48333752 0.046176657
0.081856526 -0.4126094 0.46431896 0.0096326163 0.18614133 -0.98247576 0.12649018
-0.065367095 -0.17016351 0.58750856 -0.02695106 0.46548393 0.88464588 0.10241513
-0.055191007 -0.39254728 0.55847418 -0.93317187 0.031332761 -0.35806215 0.048744027
-0.038598694 -0.39183325 0.51686686 -0.83161509 0.23597296 -0.5027256 0.053917792
-0.031978246 -0.15730539 0.55721354 -0.20410648 0.93309504 0.29609817 0.036776949
-0.085755475 -0.17735986 0.59072232 0.27737951 -0.035182297 0.96011609 0.13019682
-0.0026226449 -0.40411445 0.48095515 -0.430637 0.18031962 -0.88432831 0.065643825
0.038731493 -0.43878987 0.47066623 -0.20109993 -0.27950895 -0.93884695 0.13779882
0.0031071012 -0.38948524 0.49950814 -0.46645734 0.26441008 -0.84410006 0.049547102
-0.035834558 -0.40627763 0.52237105 -0.88204706 0.066789366 -0.46640351 0.1036417
-0.061129224 -0.15968928 0.55503029 -0.25025684 0.92553622 0.28417283 0.05078141
-0.085616492 -0.25622302 0.58782518 -0.59866118 -0.09695565 -0.79511285 0.045076068
-0.053029433 -0.41796598 0.5368765 -0.92129797 0.057326172 -0.38460857 0.12087859
-0.094014257 -0.17666559 0.59094065 -0.34793121 0.11171479 -0.93084025 0.13733529
-0.063532785 -0.40129456 0.57199264 -0.93748033 0.0030089533 -0.34802517 0.075362958
-0.08641725 -0.2078653 0.57384288 -0.38355711 0.054157771 -0.92192775 0.09133783
-0.071330816 -0.33902404 0.59474063 -0.92693591 -0.085509203 -0.36534643 0.0066868202
0.012226284 -0.15562735 0.57105762 -0.14587902 0.92866749 0.34102196 0.020471277
-0.010897569 -0.15431304 0.5544039 -0.18796775 0.9337936 0.30446297 0.036676832
0.02541152 -0.16140459 0.58971006 -0.13385791 0.92656863 0.35150066 0.023981502
-0.062806919 -0.41417858 0.58938968 -0.93684053 -0.050270624 -0.34612533 0.10429235
-0.064629644 -0.37845722 0.57737482 -0.95752686 -0.030782441 -0.28669658 0.021428408
-0.059474707 -0.34173787 0.54516649 -0.89106894 -0.026054941 -0.4531194 0.015158591
-0.058462217 -0.46114799 0.56314349 -0.29561004 -0.90198678 0.31469777 0.2198841
-0.05542323 -0.45714495 0.54548723 -0.16786352 -0.9756248 0.14134385 0.24154253
-0.05592721 -0.43792191 0.54007083 -0.91024202 0.053392619 -0.41061985 0.20327616
0.023360446 -0.15772368 0.57979256 -0.1405042 0.92722714 0.34714305 0.022887597
-0.055733569 -0.44036698 0.53686297 -0.89855736 0.071684711 -0.432962 0.19993694
-0.045691237 -0.38398436 0.52837324 -0.85577637 0.20008862 -0.47708628 0.034064036
-0.059344411 -0.1932991 0.54525459 -0.40621331 0.16207051 -0.89929074 0.08936809
-0.07876917 -0.24992152 0.5715099 -0.66740823 -0.099174045 -0.73805875 0.037926666
-0.033429276 -0.23643999 0.53208888 -0.52310216 -0.073965088 -0.8490544 0.047408372
-0.053616177 -0.46014181 0.5227707 -0.033578213 -0.99876082 -0.036733463 0.20014448
-0.059069619 -0.43629766 0.51926374 -0.86019462 0.18019654 -0.47706863 0.17474522
-0.051020913 -0.16051535 0.55514121 -0.21569283 0.93447608 0.28325081 0.039866652
0.069467232 -0.40203962 0.47186351 -0.046295825 0.25980324 -0.96455115 0.087839268
0.087537386 -0.41449195 0.46398258 0.030818906 0.19545665 -0.98022801 0.12489789
-0.072772801 -0.3098906 0.59921223 -0.76930749 -0.05877756 -0.63616908 0.023207331
-0.046747074 -0.15927689 0.56257117 -0.20651335 0.93083155 0.30150428 0.037974119
-0.049120311 -0.45289931 0.50462043 -0.69820005 -0.27834159 -0.65957755 0.19686781
-0.0055513154 -0.16092587 0.5710417 -0.18796714 0.93380398 0.30443153 0.036682092
-0.049944598 -0.45464733 0.50771827 -0.50795084 -0.68353349 -0.52418309 0.20169868
-0.055622779 -0.45972928 0.54910845 -0.20335303 -0.96020782 0.19143812 0.23317607
0.047089696 -0.37251937 0.48384213 -0.038079374 0.39199898 -0.91917723 0.023762552
0.16500722 -0.4216007 0.48798645 0.89084643 0.22408049 -0.39519691 0.15213278
0.15021832 -0.41874614 0.49746144 0.86091322 0.28415301 -0.42200172 0.16170071
-0.05033176 -0.37150106 0.53450823 -0.86957937 0.11092611 -0.48117256 0.037089776
0.16562261 -0.44266251 0.48072565 0.8876248 -0.0039686686 -0.46055007 0.17214201
0.03884137 -0.36837813 0.48417428 -0.119182 0.3731429 -0.92008692 0.020924019
-0.037810028 -0.39876208 0.52203935 -0.87284315 0.1461747 -0.46559396 0.077989392
-0.086062521 -0.17407821 0.58900732 0.28904694 -0.055993486 0.95567596 0.13449989
0.0089549189 -0.39907941 0.47889963 -0.33781239 0.20874697 -0.91777313 0.056779832
0.10567105 -0.41078666 0.4690533 0.19903378 0.23127668 -0.95231122 0.13332732
-0.0084200213 -0.4160811 0.48098874 -0.46829194 0.14104339 -0.87224388 0.080414146
0.030465189 -0.3877508 0.4761737 -0.20637199 0.3458434 -0.91531575 0.018729305
-0.029074414 -0.24515601 0.53488672 -0.48820779 -0.082795449 -0.8687911 0.050756216
-0.0098381517 -0.42357838 0.49426824 -0.55047375 -0.015032833 -0.83471715 0.13619316
-0.033349127 -0.40445486 0.51622796 -0.84866184 0.13156523 -0.51231217 0.087239347
-0.013812813 -0.42711028 0.48015639 -0.50679421 0.064914517 -0.85961956 0.10395278
0.026764721 -0.31166136 0.50449926 0.098359235 0.33875361 -0.93571973 0.017438831
-0.016959121 -0.36881253 0.50484985 -0.63417476 0.26802468 -0.72524828 0.040240381
0.1126168 -0.42368999 0.4510735 0.24167797 0.085489251 -0.96658331 0.13715307
0.065120324 -0.41664687 0.46359769 -0.11818654 0.10334801 -0.98759872 0.11387324
-0.044273328 -0.45183209 0.4904801 -0.67626762 -0.0018144182 -0.73665386 0.15686059
-0.065565974 -0.43375793 0.51632452 -0.82574463 0.25360394 -0.50381619 0.16065001
0.060181495 -0.31976178 0.51018572 0.31087622 0.37157983 -0.87480533 0.021690371
-0.052809786 -0.35410607 0.54244459 -0.87411338 -0.0085264528 -0.48564705 0.021359667
0.12997851 -0.41548389 0.46372712 0.42947841 0.25535947 -0.86622155 0.1381932
-0.062937789 -0.3912622 0.56982058 -0.94845742 0.037110262 -0.31472433 0.04214165
-0.061774846 -0.3801879 0.56901753 -0.9547444 0.012607978 -0.29715997 0.029159181
0.038623575 -0.34331653 0.4957855 0.0096943947 0.34745812 -0.93764538 0.019882986
0.028270006 -0.440182 0.46289393 -0.22199938 -0.14096743 -0.96480274 0.10888329
-0.024930939 -0.24342132 0.5248487 -0.42742461 0.079558015 -0.90054363 0.062877595
-0.080008604 -0.24838382 0.57295769 -0.66939187 -0.091856807 -0.7372089 0.035796609
-0.17208734 -0.44144958 0.54795861 -0.43261498 -0.37244177 -0.82105505 0.03588463
0.10232757 -0.4180018 0.45919114 0.15338114 0.22860272 -0.96136105 0.12314747
-0.068294637 -0.2780638 0.56230927 -0.66964054 -0.078494161 -0.73852575 0.035564113
-0.081757925 -0.30177966 0.59254181 -0.74292165 -0.069182672 -0.66579366 0.024048751
-0.059823688 -0.28925642 0.57070369 -0.70925975 -0.021161048 -0.70462954 0.03492913
-0.033381302 -0.39021477 0.51252931 -0.78480786 0.2663154 -0.55960047 0.041795518
-0.013880643 -0.39852357 0.49850452 -0.59866619 0.19422553 -0.77709413 0.068799809
-0.078711368 -0.27695709 0.58415133 0.56080955 0.10936268 0.82069027 0.039467707
-0.0029855776 -0.39751697 0.48477679 -0.47200245 0.23507409 -0.84967864 0.048770014
0.045286294 -0.44678292 0.45888162 -0.18469755 -0.33356422 -0.92445755 0.11515177
-0.022320528 -0.24791116 0.52639544 -0.42754507 0.080049172 -0.90044296 0.059321363
0.023719441 -0.29155433 0.51124364 0.13960791 0.32841939 -0.93415755 0.012005645
-0.0721628 -0.16597001 0.57166213 -0.18574224 0.72533858 0.66286033 0.1063797
0.043106649 -0.45204774 0.45923924 -0.17083561 -0.50698054 -0.84485847 0.11378628
-0.014215164 -0.14804566 0.55052161 -0.19141747 0.93168765 0.30873522 0.037688188
0.11780482 -0.43283722 0.44986033 0.26366177 0.092027999 -0.96021521 0.13557336
0.049026988 -0.26065743 0.5268544 0.22257769 0.36443385 -0.90423846 0.0080087828
-0.0011664936 -0.15228023 0.54604357 -0.19412456 0.92975342 0.31284869 0.04115352
0.060345907 -0.28799537 0.52029985 0.2512922 0.35187265 -0.90168613 0.0082835518
-0.0013831125 -0.15061225 0.56001627 -0.19412428 0.92975348 0.31284869 0.041153625
0.080720566 -0.35690966 0.49556252 0.33059594 0.488116 -0.80774319 0.028160539
0.05277862 -0.37467954 0.48286995 -0.045441378 0.44244286 -0.89564466 0.023275005
0.075030819 -0.31654587 0.51746315 0.34948108 0.38196045 -0.85555196 0.017995017
0.042754948 -0.25386763 0.52842897 0.19699898 0.3891418 -0.89986664 0.0097143836
0.084711231 -0.30444995 0.52664936 0.39464563 0.37564936 -0.83853579 0.022854354
0.0043700542 -0.15251079 0.5613845 -0.19410017 0.92981261 0.3126877 0.041139457
-0.045028847 -0.45562312 0.49242973 -0.68325084 -0.20464185 -0.70092088 0.17689197
0.03846034 -0.3098599 0.50910538 0.16299364 0.33798304 -0.92693073 0.017072216
0.029602861 -0.43860301 0.46573138 -0.2183366 -0.180363 -0.95906115 0.11767963
0.065999985 -0.29201749 0.52089703 0.29676911 0.35823944 -0.88520771 0.016862337
-0.049852125 -0.45425349 0.50701016 -0.59295529 -0.54242271 -0.59513164 0.20542799
-0.018771969 -0.44478604 0.46883395 -0.44245476 -0.036296763 -0.896056 0.10825657
0.050487436 -0.25238806 0.53833634 0.19402613 0.36655274 -0.90994108 0.010679251
0.078946821 -0.43579346 0.45120859 -0.051753059 -0.12655126 -0.99060911 0.14210711
0.15454969 -0.41778478 0.47315818 0.6638782 0.28871664 -0.68986106 0.14574644
0.1029407 -0.43731627 0.45043418 0.15658599 -0.1439795 -0.97711349 0.14496762
0.10391903 -0.4331618 0.45125127 0.17776555 -0.021099743 -0.98384666 0.15008727
0.1175148 -0.4352777 0.44935349 0.24392007 0.059368648 -0.96797645 0.13319977
0.091321468 -0.4372023 0.45066407 0.079021901 -0.2107498 -0.97434086 0.141478
0.062957026 -0.32242125 0.50965637 0.32524469 0.37825796 -0.86668152 0.022038022
0.083449595 -0.42403254 0.45689285 -0.0058655841 0.087555036 -0.99614239 0.1311228
0.11813889 -0.39307997 0.50041801 0.6288718 0.46398887 -0.62388664 0.13198213
0.07729926 -0.42811227 0.45495489 -0.062458895 -0.03765266 -0.99733704 0.13451888
0.035514545 -0.30039006 0.51035047 0.17726418 0.35529748 -0.91779149 0.012211023
-0.003158557 -0.38897225 0.48880768 -0.49072063 0.29928952 -0.81830251 0.039836731
-0.052500442 -0.44589427 0.51134497 -0.81206059 0.11950172 -0.57120651 0.19881211
0.15581521 -0.4270319 0.47245404 0.70050097 0.20800191 -0.6826666 0.15921114
0.065412067 -0.30947697 0.51632237 0.33975664 0.36979568 -0.86476386 0.018873125
0.12485168 -0.40673447 0.46510649 0.37547931 0.32651171 -0.8674131 0.11905678
0.12416647 -0.40763095 0.46749395 0.37547931 0.32651171 -0.8674131 0.11905678
0.09337464 -0.3144798 0.52711588 0.56199867 0.4260543 -0.7089678 0.034653354
0.06126133 -0.30528608 0.51591063 0.34932044 0.35470834 -0.86726999 0.019327398
0.024367936 -0.29096773 0.51154995 0.16542801 0.35243025 -0.92110068 0.0092959367
0.075155996 -0.29510263 0.52483034 0.3771041 0.36375803 -0.8517468 0.023809636
0.15681084 -0.44539538 0.47604585 0.77345675 -0.17563273 -0.60903007 0.17177275
0.1156316 -0.44534999 0.45001855 0.24127883 -0.26958439 -0.93226004 0.1435187
0.062604897 -0.43185514 0.45657098 -0.15663579 -0.10305756 -0.98226494 0.11527771
0.14376482 -0.4119373 0.47061452 0.56249619 0.29352769 -0.77294219 0.13004391
0.054912288 -0.44708121 0.45645955 -0.15332878 -0.38117161 -0.9117009 0.11942859
0.11934981 -0.39849848 0.49246588 0.53148395 0.40061364 -0.74634683 0.13451852
0.15633391 -0.45169446 0.55060506 0.83754867 -0.47432959 0.27115238 0.1780611
0.13128673 -0.39233157 0.50888306 0.78226662 0.4414326 -0.43954092 0.12079924
0.15645823 -0.45530826 0.55312008 0.50641632 -0.84511292 0.17125055 0.13729876
0.093457498 -0.30468911 0.53110403 0.53402919 0.39669624 -0.74662226 0.034802955
0.079375468 -0.44011158 0.44887441 -0.029744435 -0.19794385 -0.97976196 0.13792856
0.06650503 -0.29510152 0.52084744 0.35104701 0.3553215 -0.86632133 0.022569498
0.081587523 -0.3913433 0.47485778 0.068231598 0.37967986 -0.92259836 0.056967601
0.063874006 -0.36200354 0.48999262 0.10644555 0.43064791 -0.89622086 0.022004966
0.059473615 -0.3355425 0.50159627 0.21581903 0.36943704 -0.90384644 0.022484601
0.13743971 -0.42278108 0.59152621 0.75612485 -0.037147008 0.65337229 0.11798848
-0.1790165 -0.45693243 0.55183923 -0.43261498 -0.37244177 -0.82105505 0.03588463
0.12651233 -0.37268516 0.55536795 0.91560346 0.37753886 -0.13832816 0.040461536
0.087651677 -0.31879529 0.52144039 0.45777041 0.38863304 -0.7996316 0.03135838
0.020874307 -0.14805667 0.56927681 -0.1421213 0.92783862 0.3448436 0.021578683
0.10928357 -0.41099557 0.44321224 0.19175667 0.3352381 -0.92241251 0.084007993
0.016887611 -0.30248269 0.50506115 0.059287656 0.3136251 -0.94769418 0.012740605
0.098265819 -0.42400324 0.45653248 0.10218519 0.15085259 -0.98326075 0.12758125
0.17547052 -0.43137583 0.48809308 0.92014265 0.21655022 -0.32625699 0.15275568
0.13086717 -0.4119488 0.59146875 0.91137487 0.0057164375 0.41153759 0.109914
0.13260581 -0.4135502 0.53383863 0.99142355 0.12229429 0.046081204 0.15895173
0.12857684 -0.36769772 0.57387173 0.956182 0.29013672 -0.039198738 0.019763742
0.14451189 -0.42502981 0.55088103 0.96033245 0.12682405 0.24834895 0.14650172
0.1254084 -0.37899709 0.56506914 0.96051198 0.25675723 -0.10720239 0.024651332
0.10304449 -0.36194414 0.50412428 0.4710255 0.57411796 -0.66971916 0.057303157
0.13202989 -0.39204359 0.50960076 0.77248424 0.4649424 -0.43254668 0.11425697
0.11790708 -0.41571504 0.45667273 0.3155089 0.25746998 -0.91332543 0.12566876
0.1332376 -0.41222981 0.50358927 0.84920579 0.28770325 -0.44280529 0.19407506
0.11795782 -0.3659066 0.50786692 0.55565733 0.60038996 -0.57513201 0.064775445
0.11050203 -0.39087784 0.49638104 0.47167513 0.4826875 -0.73792642 0.1055342
0.12847874 -0.41375601 0.59298438 0.87112355 -0.010411302 0.49095365 0.11268617
0.13921869 -0.41656965 0.54286724 0.97715282 0.14764364 0.15288457 0.12942371
0.124965 -0.3857165 0.57820833 0.96088749 0.27531424 -0.029955585 0.017944576
0.16138709 -0.41724592 0.48731759 0.83517683 0.26074359 -0.48424426 0.15369514
0.14925432 -0.41007459 0.48248535 0.68441963 0.32743111 -0.65142816 0.145358
0.012855998 -0.15157712 0.56753004 -0.14585544 0.92872697 0.3408699 0.02045599
0.066007696 -0.29206052 0.52089661 0.29676911 0.35823944 -0.88520771 0.016862337
-0.037173074 -0.16039713 0.57467473 -0.20297857 0.90956444 0.36261868 0.050345112
0.076129578 -0.27934134 0.52438754 0.35077819 0.36028427 -0.86437839 0.017575907
0.14805324 -0.40878472 0.48235866 0.67384225 0.33379695 -0.65917844 0.1450053
0.13699898 -0.40035737 0.58917779 0.90669864 0.10809485 0.40769246 0.067039937
0.13109609 -0.35615149 0.57189113 0.93636018 0.34862933 -0.041074324 0.022918561
0.13541336 -0.38153672 0.51981097 0.72819698 0.63560486 -0.25638947 0.070812255
0.1448632 -0.4024888 0.54477632 0.95099694 0.25819045 0.17012505 0.089488976
0.19086826 -0.43214348 0.49584374 0.96248573 0.24270707 -0.12130311 0.14125994
0.11944685 -0.36278072 0.50931937 0.56709337 0.59749264 -0.56692833 0.064618021
0.12650131 -0.37357512 0.51283348 0.55416441 0.6437642 -0.52770209 0.062399592
0.13848057 -0.42095554 0.58263612 0.94859976 0.058919482 0.31094539 0.11529902
0.14260498 -0.44564036 0.57866633 0.76247466 -0.34086117 0.54995102 0.20615859
0.15255663 -0.43966264 0.5509485 0.95527983 -0.096841089 0.27939627 0.17440589
0.1046188 -0.33149531 0.52304047 0.63151717 0.43023467 -0.64504594 0.046362601
0.1222376 -0.34182233 0.55070859 0.77451748 0.46734297 -0.42627838 0.047301345
0.10559703 -0.322487 0.52829385 0.6173206 0.43909276 -0.65277314 0.039625391
0.12276223 -0.34492588 0.5482024 0.77479023 0.46993497 -0.42291987 0.046213564
0.068036631 -0.27573559 0.52302545 0.27335393 0.35129961 -0.89546984 0.0067967027
0.056380101 -0.27198181 0.52253735 0.26163065 0.34695068 -0.90065229 0.0079545733
0.04528724 -0.2579532 0.52594388 0.20439382 0.37939629 -0.90237552 0.010052892
0.036392409 -0.15066573 0.59675097 -0.12350453 0.92351139 0.36314374 0.030179637
0.12788381 -0.35333839 0.54113889 0.84730875 0.46000826 -0.2654435 0.05530991
0.11361861 -0.35371244 0.50820583 0.56959784 0.54976416 -0.61099732 0.05932508
0.093242593 -0.2973029 0.53112537 0.4283869 0.39262259 -0.81383783 0.021370605
0.12937208 -0.36278421 0.56513757 0.93600762 0.33786154 -0.098687582 0.028147835
0.0056442693 -0.14460662 0.56451714 -0.14192194 0.92969131 0.33990043 0.01885747
0.12095512 -0.37981084 0.5062573 0.48849621 0.64951056 -0.58267272 0.060881495
0.16147168 -0.42955628 0.47352967 0.75567061 0.20820305 -0.62097782 0.16423482
0.13943151 -0.44654569 0.45873311 0.44653136 -0.19332246 -0.87363392 0.15142241
0.13518317 -0.3886331 0.51384658 0.75805277 0.54522449 -0.35789153 0.1025393
0.1416778 -0.4356291 0.4563866 0.45253471 0.083300382 -0.8878476 0.13994208
0.089319341 -0.3467657 0.50067264 0.37404957 0.47199899 -0.79831314 0.032598231
0.090251558 -0.42736629 0.45505223 0.026037613 0.051791593 -0.99831837 0.13684194
0.039387222 -0.27613863 0.51643521 0.19332555 0.37043741 -0.90851605 0.0089272233
0.045402415 -0.2892296 0.51550126 0.2391375 0.364667 -0.89990628 0.0083112875
0.079737239 -0.32866162 0.51061338 0.39501128 0.39535069 -0.82925504 0.023281861
0.08247263 -0.2870208 0.52731615 0.41185036 0.37516916 -0.83043802 0.023171879
0.076210782 -0.33364037 0.50586742 0.35013705 0.4005146 -0.84675384 0.016098211
0.13906372 -0.40213606 0.47725314 0.57588023 0.34010565 -0.74343133 0.13262327
0.022546981 -0.34333885 0.50272864 -0.12213004 0.31951147 -0.93967903 0.025247589
0.113275 -0.3386966 0.51086152 0.596389 0.48557284 -0.63917071 0.045785908
0.028810387 -0.29022062 0.51193631 0.17484806 0.35349047 -0.91895193 0.0097893542
0.054551873 -0.37160692 0.48453936 -0.03805694 0.43142325 -0.90134662 0.024418186
0.14462574 -0.40760911 0.4689087 0.57198942 0.33133838 -0.75036192 0.12794676
0.12032978 -0.37884331 0.50582737 0.48849621 0.64951056 -0.58267272 0.060881495
0.087292194 -0.39938465 0.47118685 0.097383298 0.33136681 -0.93846285 0.086810015
0.073685765 -0.35531685 0.49461511 0.23420376 0.45327619 -0.86005193 0.026469894
0.030398401 -0.44411618 0.45910951 -0.23973145 -0.19662695 -0.950719 0.11140408
0.016985498 -0.43700439 0.46208003 -0.23625608 -0.1096729 -0.96548164 0.10195271
-0.014797025 -0.43360236 0.47195894 -0.46072954 0.050217874 -0.88611877 0.094193026
0.11646062 -0.38260272 0.50217515 0.47564244 0.63614565 -0.60752201 0.059166618
0.021041976 -0.34923661 0.49142957 -0.1715572 0.32287687 -0.93076247 0.023267966
0.1395791 -0.44379351 0.59514952 0.71587276 -0.1312044 0.68579262 0.15299298
0.14617935 -0.40078026 0.50902492 0.88798976 0.38342687 -0.2538859 0.11881306
0.058561627 -0.43272194 0.45732012 -0.15461046 -0.11196596 -0.98161048 0.11479793
0.099541478 -0.31008413 0.53114885 0.5840345 0.42003822 -0.69460171 0.036753666
0.12366298 -0.42873454 0.45320344 0.3206977 0.086447552 -0.94322836 0.14104144
0.062345754 -0.367001 0.48699024 0.04696542 0.45719588 -0.88812512 0.023436777
0.14887649 -0.41089723 0.47063333 0.5930624 0.32547161 -0.7364409 0.12532412
0.17954484 -0.4273991 0.49172646 0.92872649 0.27636108 -0.24716726 0.14354764
0.13241135 -0.40353864 0.47126615 0.46112898 0.35440406 -0.81348491 0.11618892
0.1565952 -0.45028165 0.55879742 0.85668534 -0.38151127 0.34718788 0.16570832
0.072879158 -0.3245652 0.51156247 0.34983322 0.38969749 -0.85191113 0.01766069
0.15345237 -0.44705471 0.56860483 0.87913316 -0.30596232 0.36539289 0.20093289
0.0079021892 -0.39420846 0.48333824 -0.36329737 0.26202103 -0.89406931 0.043774791
0.17759241 -0.4176034 0.49160609 0.90213478 0.3375369 -0.26874086 0.13375071
0.015735278 -0.39054921 0.4780632 -0.2920112 0.30042353 -0.90800613 0.029925123
0.12120602 -0.39919439 0.46338627 0.32558051 0.39638606 -0.85841447 0.082127661
0.13164629 -0.39821273 0.48361996 0.54331189 0.41046527 -0.73234588 0.123661
0.12826557 -0.39921969 0.48118147 0.49205187 0.40137625 -0.77251667 0.12185874
0.1210552 -0.3348498 0.55633712 0.78655857 0.48176715 -0.38629794 0.044962239
0.062182158 -0.33247355 0.50446457 0.31180173 0.38838807 -0.86714154 0.018731615
0.088516384 -0.38239327 0.47698894 0.18533581 0.52042156 -0.83355385 0.033045415
0.071250245 -0.40151444 0.47199389 -0.052033305 0.25904864 -0.96446168 0.089216761
0.079148367 -0.37535545 0.4807308 0.12644228 0.52150303 -0.84382874 0.026536832
0.033447005 -0.36729521 0.4834252 -0.15812054 0.35019067 -0.92323583 0.021845667
0.077923365 -0.35301909 0.49645671 0.32914516 0.47047976 -0.81872594 0.027815783
0.069761589 -0.34760961 0.49777415 0.28538284 0.40808171 -0.86719429 0.022976549
0.055954877 -0.39668167 0.47501233 -0.12209499 0.25620714 -0.95887995 0.062948734
-0.0028534587 -0.39552557 0.48666918 -0.47945207 0.24338657 -0.84314215 0.048833758
-0.11429559 -0.45477983 0.51792991 0.079274587 -0.9964655 -0.027786281 0.057313167
-0.18374887 -0.45026147 0.55040175 -0.43261498 -0.37244177 -0.82105505 0.03588463
-0.015309417 -0.36040255 0.50402653 -0.55884486 0.32309029 -0.76374418 0.034770526
-0.014436522 -0.3945348 0.49342015 -0.57183003 0.25180575 -0.78077161 0.051972546
-0.072697766 -0.45949626 0.49570176 0.16143307 -0.98405379 0.07468275 0.15764007
0.031650282 -0.35856378 0.48721418 -0.12347015 0.32270682 -0.93841106 0.022882747
-0.040689718 -0.45166346 0.4852089 -0.67576635 -0.070070438 -0.73377788 0.14403187
-0.050202779 -0.37862915 0.52899867 -0.85934764 0.16878119 -0.48273647 0.036298912
0.063007213 -0.43276548 0.45616072 -0.14334476 -0.11499739 -0.98296893 0.11977642
-0.047000505 -0.44847044 0.50443161 -0.73177594 -0.066251621 -0.67831761 0.18449521
-0.055615421 -0.43265253 0.53201175 -0.87991852 0.11127125 -0.46191135 0.17976469
-0.092922889 -0.17083432 0.58894193 -0.46966356 0.8096717 0.3519204 0.14885502
-0.063151531 -0.3695825 0.57512838 -0.94415849 -0.049894791 -0.32569182 0.01918886
-0.064359695 -0.40518603 0.58485472 -0.95034599 -0.0029425938 -0.31118137 0.076212868
-0.055792555 -0.43573901 0.53065479 -0.88345879 0.10590533 -0.45638204 0.18297318
-0.070437752 -0.45873865 0.49692056 0.14057687 -0.98928642 0.039377689 0.17021558
-0.12791431 -0.45612228 0.5315181 0.070654213 -0.99192882 -0.10528639 0.040714767
-0.080601096 -0.24196501 0.56847787 -0.65629655 -0.073221721 -0.75094169 0.033122886
-0.051941942 -0.36876154 0.53275788 -0.86347425 0.11120128 -0.49198228 0.036005571
-0.15818289 -0.45262715 0.54584354 -0.050293844 -0.99521166 -0.083810225 0.020046558
-0.087747619 -0.20021661 0.56914061 -0.34785905 0.025458861 -0.93720108 0.098222472
-0.0051994994 -0.41028109 0.47664487 -0.44492364 0.15228713 -0.88252568 0.071309671
-0.0020083189 -0.30209199 0.50431317 -0.054907322 0.25875539 -0.96438098 0.025774196
0.0027088521 -0.30791509 0.49635139 0.018886477 0.27453324 -0.9613921 0.014122521
-0.076586366 -0.26709831 0.57463932 0.60742551 0.18107077 0.77346474 0.035997137
-0.077676564 -0.24631406 0.56678313 -0.66660136 -0.080124393 -0.74109572 0.037495665
-0.044578888 -0.38704461 0.53283954 -0.87208307 0.17413822 -0.45732597 0.040042236
-0.051873729 -0.359577 0.53945148 -0.87594485 0.068574607 -0.47751242 0.030988045
-0.032872554 -0.38886246 0.51202589 -0.7746222 0.26669866 -0.57343888 0.038261689
-0.089712195 -0.4506284 0.51823664 0.39613467 -0.88162374 0.25654802 0.19083703
-0.045621552 -0.44817737 0.50101906 -0.741189 -0.099789508 -0.66383791 0.17427446
0.11599103 -0.4210048 0.45010179 0.25432396 0.18738891 -0.94879121 0.12722363
-0.0031580566 -0.38495904 0.49059305 -0.46963254 0.3685776 -0.80224425 0.032729223
0.0025941138 -0.39447293 0.48373234 -0.39983225 0.25021073 -0.88177592 0.045039855
-0.058634762 -0.16527104 0.57253349 -0.17903189 0.75082147 0.63577878 0.088147037
-0.05636302 -0.44092187 0.54226649 -0.90690714 0.079232082 -0.41381362 0.2236893
-0.048764125 -0.4530125 0.50568295 -0.69226301 -0.31781656 -0.64789242 0.20157094
0.032495782 -0.38409373 0.47496703 -0.18406214 0.38384676 -0.90486616 0.014186564
-0.12139183 -0.45849001 0.52472734 0.06178702 -0.99648088 -0.056640662 0.043498352
-0.051098574 -0.3512612 0.54459029 -0.87905121 -0.026354643 -0.47599834 0.018529342
-0.058011733 -0.43491402 0.55003387 -0.94843471 0.040862456 -0.31432772 0.21436837
-0.1435927 -0.45207462 0.54978627 -0.013954357 -0.99622536 -0.085674681 0.016699897
-0.1165268 -0.45609146 0.52000362 0.081839576 -0.99606371 -0.034050174 0.057882186
0.077559426 -0.43942854 0.45033172 -0.050721534 -0.20311397 -0.97784048 0.14320324
0.0077024722 -0.44946438 0.4619011 -0.26730332 -0.22471203 -0.93704504 0.10069954
-0.05608736 -0.4435474 0.54058725 -0.90260857 0.073268332 -0.4241809 0.22396544
-0.05835674 -0.44745007 0.59387821 -0.88780409 -0.22908539 -0.39915386 0.20928347
0.097873852 -0.45896083 0.43411967 0.062816665 -0.38168395 -0.92215586 0.10432158
-0.099113055 -0.23128006 0.59667945 0.48228791 0.010907447 0.87594485 0.043121178
-0.027687134 -0.39470139 0.5059135 -0.74141443 0.23770137 -0.62753701 0.060207982
-0.0090698795 -0.35299245 0.49827388 -0.47119629 0.34058622 -0.81361854 0.034016162
-0.06022362 -0.45808697 0.55422539 -0.2039711 -0.94133765 0.26884788 0.23936591
-0.008948084 -0.37340346 0.49453223 -0.50128615 0.36357874 -0.78518957 0.035682123
-0.086167797 -0.25109446 0.5865643 -0.61945546 -0.087303698 -0.7801621 0.040971588
-0.054868743 -0.41233364 0.53667104 -0.925771 0.082960956 -0.36887053 0.1043911
-0.066755645 -0.16322842 0.56052226 -0.27425721 0.91502112 0.29583663 0.060979776
-0.061560512 -0.185799 0.54075158 -0.382936 0.16433695 -0.9090398 0.096858427
-0.087122135 -0.45379797 0.51275921 0.18559924 -0.98246872 0.017553017 0.15396146
-0.1274357 -0.46187383 0.53007752 0.055787724 -0.99222767 -0.11122984 0.034147412
-0.026516948 -0.44521779 0.47464332 -0.55019563 -0.013544502 -0.83492589 0.12979516
-0.049058586 -0.3796213 0.52602112 -0.85198349 0.2030219 -0.48260376 0.037211612
-0.17891508 -0.45532367 0.55189633 -0.43261498 -0.37244177 -0.82105505 0.03588463
-0.16486357 -0.453897 0.55031466 -0.089616373 -0.99437672 -0.05642518 0.024609407
-0.13798153 -0.45507956 0.54923779 -0.0013604384 -0.99575233 -0.09206225 0.01455197
-0.17074761 -0.45737782 0.55163556 -0.096620582 -0.99302709 -0.067540452 0.029503623
-0.16030727 -0.45443946 0.55144536 -0.06361305 -0.99536312 -0.072149761 0.023585984
-0.13137022 -0.45465997 0.53809005 0.066300109 -0.99267197 -0.1010275 0.03690587
-0.016444772 -0.43198428 0.48056141 -0.53464955 0.00019731498 -0.84507382 0.11711467
-0.018117443 -0.14587803 0.54876626 -0.18796529 0.93380976 0.30441496 0.036675848
-0.0095777726 -0.15513107 0.55726963 -0.18796775 0.9337936 0.30446297 0.036676832
-0.0094617326 -0.44422096 0.4665027 -0.38973054 -0.04080572 -0.92002445 0.098164745
-0.063993774 -0.37577701 0.5790444 -0.9536882 -0.030836489 -0.2992124 0.019514605
-0.064023092 -0.404661 0.57400274 -0.94895554 0.002587155 -0.31539947 0.07345333
-0.09695936 -0.16858639 0.58928442 -0.46086091 0.79954189 0.38514921 0.15035537
-0.021931604 -0.44101498 0.47371843 -0.53051496 0.014428167 -0.84755278 0.1210577
-0.086844705 -0.26531148 0.5935092 0.44570902 0.12263867 0.88673729 0.043285642
0.0012393161 -0.40164626 0.48040587 -0.4022052 0.18538959 -0.89658338 0.062762015
-0.064858697 -0.2803683 0.56225502 -0.6900515 -0.055290032 -0.72164536 0.035814021
-0.066140875 -0.35241351 0.58960909 -0.94761759 -0.10139715 -0.3028855 0.011706145
0.0046521854 -0.14569186 0.56242108 -0.14090075 0.93000394 0.33946949 0.018322105
0.0092386035 -0.14179355 0.56491929 -0.14607742 0.92870677 0.34083015 0.019881198
-0.0090551358 -0.14725277 0.54285645 -0.19557825 0.92928636 0.31333038 0.03980488
-0.019833481 -0.13814867 0.53990799 -0.1892501 0.93023336 0.31440467 0.039392721
-0.0058306963 -0.1520303 0.55660468 -0.19141699 0.93168777 0.30873516 0.037688296
0.022090748 -0.44790182 0.46066844 -0.21127456 -0.2723175 -0.93872583 0.10930716
0.043044239 -0.44371414 0.45953065 -0.21392472 -0.27639946 -0.93693089 0.11510412
-0.055281542 -0.46164116 0.49035439 -0.7030862 -0.066414103 -0.70799643 0.19338779
-0.089420713 -0.17073186 0.58782649 0.27182764 -0.035957728 0.96167397 0.15409903
-0.0099631483 -0.41880193 0.46667594 -0.39841729 0.10470406 -0.91120845 0.080033243
-0.036511328 -0.16209795 0.58949083 -0.20685774 0.89584059 0.39329302 0.052237827
0.04463559 -0.34150651 0.4937982 0.043015487 0.35435429 -0.93412131 0.018780883
-0.0054556471 -0.16072769 0.59746718 -0.13951662 0.93039966 0.33895665 0.015471864
-0.10017038 -0.16915968 0.59075195 -0.614016 0.78783959 -0.047887117 0.15866156
-0.08643987 -0.45606145 0.58638054 -0.43783945 -0.42730868 0.79101449 0.24685098
-0.073260114 -0.46182132 0.56399482 -0.10638087 -0.9250226 0.36471403 0.21683295
-0.084994815 -0.46202409 0.59148079 -0.34481657 -0.4850629 0.80362642 0.22041197
-0.086685881 -0.17101377 0.5817768 -0.39539835 0.16044448 -0.90438801 0.13711637
-0.083854392 -0.17110673 0.58716786 0.28283301 -0.017477682 0.95900989 0.14689811
-0.10454031 -0.17412762 0.59192944 -0.44828951 0.15841685 -0.87973905 0.15827267
-0.049248058 -0.17172982 0.59367424 -0.12501551 0.60631835 0.78533387 0.08189176
-0.050951064 -0.16103481 0.54933077 -0.24361958 0.95017803 0.19445129 0.062324207
-0.024365691 -0.16744281 0.5880056 -0.20509371 0.87759614 0.43331459 0.06607198
-0.056532934 -0.15976568 0.55698878 -0.25102082 0.92553949 0.28348756 0.04872914
-0.043339666 -0.16270912 0.58996248 -0.20305103 0.89310968 0.40140432 0.052878413
-0.057137188 -0.43952253 0.54452437 -0.92148077 0.083305143 -0.37938568 0.22129971
0.020758703 -0.15751465 0.57791054 -0.14311472 0.92778856 0.34456721 0.022022201
-0.014272288 -0.14574331 0.5450877 -0.19141747 0.93168765 0.30873522 0.037688188
-0.032388944 -0.14967719 0.55711371 -0.17731233 0.94381917 0.27886489 0.030527454
0.025096752 -0.15809289 0.58309186 -0.13885549 0.92719132 0.34790164 0.023337593
-0.05737631 -0.45953271 0.50596613 -0.055328961 -0.9764086 -0.20872262 0.201277
-0.04915699 -0.15958342 0.56238341 -0.21179655 0.9196859 0.33063579 0.040915117
-0.10463671 -0.17384727 0.59192634 -0.44828951 0.15841685 -0.87973905 0.15827267
-0.060782705 -0.45860985 0.55793637 -0.20907453 -0.92197454 0.32596141 0.23005494
-0.03098252 -0.15326346 0.55245155 -0.18218312 0.93876219 0.29246345 0.032663804
-0.064023584 -0.36774778 0.57732582 -0.94757164 -0.055699479 -0.31465176 0.017439568
-0.066088371 -0.40832898 0.59460819 -0.93637234 -0.0080619017 -0.35091573 0.07883057
-0.043100126 -0.15816964 0.56340808 -0.20480444 0.93030995 0.30426735 0.037047029
-0.078195654 -0.46297336 0.5641309 -0.074617527 -0.92792541 0.36522156 0.21808355
-0.018758584 -0.14909226 0.54888552 -0.18037066 0.93792814 0.29623839 0.034829963
-0.063988984 -0.37595379 0.57872719 -0.9536882 -0.030836489 -0.2992124 0.019514605
-0.0098497318 -0.16819985 0.59507167 -0.18679672 0.91201484 0.36515194 0.0530991
-0.073266573 -0.46187633 0.56443447 -0.11129615 -0.92018491 0.37533036 0.21783118
-0.064356133 -0.40699691 0.58411747 -0.9426133 -0.013305692 -0.3336212 0.078200556
-0.0792289 -0.17149265 0.58165914 0.33974227 -0.048991021 0.93924177 0.12472927
-0.054956637 -0.41359833 0.53510636 -0.9181819 0.080050327 -0.38798684 0.10654605
-0.056068603 -0.43785253 0.53078622 -0.89707297 0.076313734 -0.43524265 0.18977615
-0.062143214 -0.39809701 0.56871587 -0.94713968 0.015473291 -0.32044816 0.063722305
-0.058373511 -0.43534845 0.55294442 -0.96274912 0.037074745 -0.26784232 0.21769908
-0.022306135 -0.14636247 0.54676825 -0.18037066 0.93792814 0.29623839 0.034829963
-0.038082968 -0.44410527 0.48014647 -0.63684744 0.027246445 -0.77050823 0.12963903
0.088210031 -0.434075 0.45137399 0.024383605 -0.089676932 -0.99567235 0.13542216
0.0062105921 -0.14763057 0.5629819 -0.14192194 0.92969131 0.33990043 0.01885747
0.017606916 -0.14788885 0.56901091 -0.14606035 0.92869681 0.34086436 0.021000374
0.0069386452 -0.14797242 0.56347275 -0.14192194 0.92969131 0.33990043 0.01885747
-0.045519859 -0.15921341 0.56027335 -0.20531638 0.93053555 0.30323058 0.037513629
-0.054707814 -0.42616382 0.53472483 -0.90829742 0.076463997 -0.41127747 0.15028337
-0.062863238 -0.3943902 0.56925601 -0.94478565 0.029607708 -0.3263486 0.050215878
-0.063794717 -0.40541798 0.5725103 -0.95178759 -0.0051528723 -0.30671439 0.078046344
-0.051456008 -0.37669834 0.52575207 -0.84843236 0.18341836 -0.49650794 0.037168909
-0.097446755 -0.19675124 0.57070392 -0.4069365 0.024149381 -0.9131372 0.099183924
-0.014539419 -0.39720613 0.49347442 -0.57405108 0.21638113 -0.78971165 0.059095893
-0.093269303 -0.19810212 0.56993347 0.32543537 -0.0037353656 0.94555688 0.10230067
-0.028945724 -0.16563278 0.59086967 -0.20164555 0.88374221 0.42230177 0.062918581
-0.080176435 -0.24232839 0.56795818 -0.66238159 -0.08058808 -0.74481958 0.032850802
-0.036766939 -0.42819917 0.5498293 -0.9304207 -0.14763069 -0.33544388 0.16672023
-0.099869713 -0.23167829 0.59686363 0.49510321 0.025059214 0.8684727 0.041759912
-0.059276544 -0.45909441 0.50555438 0.025029786 -0.98807245 -0.1519417 0.19935
-0.063990511 -0.37618956 0.57837105 -0.9536882 -0.030836489 -0.2992124 0.019514605
-0.064628936 -0.39084017 0.5750553 -0.9564417 0.042060122 -0.28887764 0.037961494
-0.0081386408 -0.13446443 0.56121349 -0.17486632 0.93086958 0.32078585 0.031584665
-0.097345158 -0.17139497 0.59034866 -0.58088553 0.81281608 0.043613575 0.15167511
0.029701676 -0.15692762 0.58846188 -0.12750277 0.92499882 0.35793862 0.025676144
-0.03521217 -0.45399165 0.47919726 -0.62270433 -0.042325225 -0.78131163 0.14288509
-0.064178951 -0.37714741 0.57863498 -0.95385289 -0.028140724 -0.29895288 0.019372987
-0.075956747 -0.44969451 0.50601864 -0.601354 0.67315918 -0.43038371 0.20251118
-0.064055517 -0.37637818 0.57862437 -0.9536882 -0.030836489 -0.2992124 0.019514605
-0.047425479 -0.43912423 0.48106071 -0.68061608 0.12418903 -0.72203791 0.12126007
-0.053679112 -0.44146508 0.51841205 -0.86318189 0.11654405 -0.49125803 0.1885574
-0.06406635 -0.40851542 0.58319986 -0.94381231 -0.011974049 -0.33026505 0.077800214
-0.065123908 -0.45112616 0.5589813 -0.33823729 -0.73817438 0.58369017 0.27361625
-0.06066525 -0.3642965 0.51577348 -0.83489585 0.16825086 -0.52406174 0.033851422
-0.1049106 -0.21436819 0.58577418 -0.56866431 -0.022215094 -0.82226968 0.058929875
-0.071393788 -0.15784177 0.55566198 -0.2951605 0.93377888 0.20232946 0.057494488
