# .PCD v0.7 - Point Cloud Data file format
VERSION 0.7
FIELDS x y z normal_x normal_y normal_z curvature
SIZE 4 4 4 4 4 4 4
TYPE F F F F F F F
COUNT 1 1 1 1 1 1 1
WIDTH 578
HEIGHT 1
VIEWPOINT 0 0 0 1 0 0 0
POINTS 578
DATA ascii
-0.064072862 -0.56685746 0.36685392 -0.5657804 -0.73670113 -0.37035662 0.14957954
-0.05459043 -0.5690276 0.36663204 -0.44902697 -0.83737415 -0.31173599 0.13972227
-0.044978768 -0.56887025 0.36411297 -0.39344555 -0.8694607 -0.29872844 0.11796097
-0.036484078 -0.56956804 0.36655331 -0.30739877 -0.92502326 -0.223244 0.099357113
-0.020634435 -0.57149494 0.36770168 -0.1522851 -0.97686362 -0.15015566 0.05719867
-0.018388445 -0.57071221 0.3607212 -0.15034112 -0.97090501 -0.18638943 0.062341701
-0.0060536121 -0.57190371 0.3679103 -0.092438534 -0.98605746 -0.1383682 0.044050697
0.006100832 -0.57180178 0.36875811 -0.08891122 -0.98977339 -0.11154988 0.038633648
0.035128787 -0.57129824 0.36537522 -0.071063966 -0.99404782 -0.082576171 0.016412787
0.045148857 -0.57132167 0.36663082 -0.049865637 -0.9966321 -0.065099515 0.011002482
0.055122316 -0.57180178 0.36213231 -0.03413903 -0.99829501 -0.047345735 0.0043159565
0.079610594 -0.57180178 0.36629769 -0.0067285066 -0.9999103 -0.011576466 0.0003743202
0.086042836 -0.57180178 0.3638941 -0.0044042286 -0.99992365 -0.011545339 0.00030811981
0.095620461 -0.57180178 0.36335522 0.021804385 -0.99937564 -0.027800528 0.0084035117
0.1169734 -0.57180178 0.3622942 0.053901069 -0.99718505 -0.052120905 0.021627892
0.17560329 -0.57022363 0.36505777 0.18880621 -0.9763028 -0.10575964 0.060263406
-0.092324123 -0.5664621 0.3852402 -0.75857931 -0.63532335 -0.14464295 0.16920491
-0.087299615 -0.56324297 0.37949374 -0.79614156 -0.56696337 -0.21144995 0.17581572
-0.080619872 -0.56602591 0.37846529 -0.68313551 -0.70275414 -0.19865151 0.17100379
-0.074061915 -0.56748557 0.37641168 -0.60373759 -0.75497282 -0.25596276 0.16444479
-0.065413043 -0.56765032 0.37470293 -0.52820909 -0.80173761 -0.27966401 0.15166546
-0.055666931 -0.56945926 0.37295729 -0.42081618 -0.87489933 -0.23971845 0.13446184
-0.044700705 -0.56968409 0.37341934 -0.36436573 -0.90824807 -0.20572576 0.11963245
-0.034107558 -0.57022375 0.37336567 -0.28120363 -0.94180459 -0.18419753 0.095822215
-0.028652081 -0.57133079 0.377478 -0.21808606 -0.96833754 -0.12149408 0.073411107
-0.019547379 -0.57137531 0.37342665 -0.14862531 -0.97990692 -0.13301504 0.055038892
-0.0033409642 -0.57180178 0.37508285 -0.084004492 -0.99116188 -0.10267059 0.034366433
0.0043978044 -0.57180178 0.37476406 -0.082104631 -0.99014235 -0.11347701 0.033174615
0.020460363 -0.57180178 0.3772628 -0.084062263 -0.9933297 -0.078928448 0.022269228
0.037272025 -0.57140434 0.37084851 -0.055558708 -0.99613863 -0.06797751 0.013123638
0.065493613 -0.57180178 0.37221181 -0.0082716597 -0.99987155 -0.013726966 0.00040265144
0.077162921 -0.57180178 0.37625813 -0.0038637195 -0.99996823 -0.0069742822 0.00033271758
0.095039837 -0.57180178 0.37666956 0.00028991388 -0.99999124 -0.0041710245 0.00030206263
0.10600185 -0.57180178 0.37866086 0.013498205 -0.99983817 -0.011894555 0.0045783864
0.12821814 -0.57180178 0.37520021 0.047411177 -0.99806267 -0.04028729 0.016189396
0.14456241 -0.57180178 0.37324885 0.082415439 -0.9957214 -0.041791636 0.023013158
0.16701187 -0.57080811 0.37609306 0.14913338 -0.98491502 -0.087759279 0.048592743
0.17512584 -0.57043082 0.37646008 0.21784118 -0.97269958 -0.080005296 0.066517651
0.1801374 -0.57003069 0.3737247 0.20943224 -0.9736833 -0.089883313 0.064652987
-0.091012962 -0.5650717 0.38774839 -0.81627369 -0.55719471 -0.1524179 0.17541879
-0.082614422 -0.56676012 0.38491043 -0.66566402 -0.73554534 -0.12595429 0.16924365
-0.074183933 -0.56832707 0.38574088 -0.54924697 -0.82460493 -0.13547851 0.15428801
-0.064701229 -0.56920695 0.38239717 -0.44066772 -0.87841064 -0.18495071 0.14085963
-0.056949187 -0.56961769 0.38074586 -0.39830175 -0.89752227 -0.189234 0.13329583
-0.044491284 -0.57151979 0.38501912 -0.29959467 -0.94414037 -0.13726634 0.10486384
-0.01005475 -0.57180178 0.38521931 -0.097687744 -0.99145937 -0.086402468 0.035026941
0.00071930763 -0.57180178 0.38307193 -0.087118685 -0.99221176 -0.089029223 0.024045339
0.01503964 -0.57180178 0.38950914 -0.060471635 -0.99671191 -0.053930506 0.013525487
0.021316439 -0.57180178 0.38638639 -0.062852591 -0.99654907 -0.054217178 0.013605458
0.049742639 -0.57180178 0.3810263 -0.0099911513 -0.99984783 -0.014300159 0.00053083373
0.052065775 -0.57180178 0.38513461 -0.0081147719 -0.99990267 -0.011346171 0.00038795889
0.068017855 -0.57180178 0.38236403 -0.0038682965 -0.99997085 -0.0065718712 0.000338121
0.075837173 -0.57180178 0.38524905 -0.0030070925 -0.99998379 -0.0048310338 0.00034278951
0.092675298 -0.57180178 0.38106704 9.3524766e-05 -0.99999356 -0.0036002134 0.00030513119
0.1089568 -0.57180178 0.38462108 0.013609663 -0.99983102 -0.012352258 0.0047099814
0.11406902 -0.57180178 0.38365108 0.01667094 -0.99978125 -0.012630569 0.0049987095
0.12435517 -0.57180178 0.38739711 0.0265649 -0.9995501 -0.013922848 0.0053146482
0.1335941 -0.57180178 0.3803913 0.051056851 -0.99762142 -0.046309236 0.018362533
0.14105929 -0.57180178 0.38231969 0.075932197 -0.99595374 -0.048066143 0.0229181
0.17526354 -0.57037055 0.38349968 0.17485482 -0.98349255 -0.046563469 0.054216743
0.18467343 -0.56961781 0.38464046 0.17995432 -0.98132145 -0.068004966 0.061044704
0.19348407 -0.56917667 0.38746515 0.31781778 -0.94351292 -0.093676783 0.10131272
-0.097156435 -0.56929898 0.3959426 -0.78059018 -0.62457812 0.024107039 0.155754
-0.086074106 -0.56789184 0.39348784 -0.68391138 -0.72751951 -0.054593761 0.16476059
-0.075198807 -0.56940901 0.39581516 -0.48200086 -0.87279731 -0.076811619 0.14428748
-0.063498765 -0.57044411 0.39460802 -0.38435346 -0.91960543 -0.081229612 0.12280627
-0.036042653 -0.57165617 0.39701518 -0.20443636 -0.97738653 -0.05404941 0.065010644
-0.0053784875 -0.57180178 0.39735314 -0.091364302 -0.99426615 -0.055565402 0.02057495
0.014260385 -0.57180178 0.39445341 -0.059222814 -0.99739504 -0.041180369 0.012403341
0.02568364 -0.57180178 0.39952409 -0.036807507 -0.99916685 -0.017630186 0.010127735
0.034319222 -0.57180178 0.39478508 -0.010951225 -0.99987543 -0.011365803 0.00050377299
0.047963679 -0.57180178 0.3922435 -0.0051796432 -0.99995202 -0.0083220387 0.00046142418
0.053692967 -0.57180178 0.39605844 -0.0031163853 -0.99998105 -0.0053030606 0.00037023367
0.066092573 -0.57180178 0.39680848 -0.0019105414 -0.99999171 -0.0035850112 0.00036877464
0.07742916 -0.57180178 0.39081579 -0.0022472087 -0.99999171 -0.0033862542 0.00036954595
0.082692593 -0.57180178 0.3944701 -0.00091483694 -0.99999797 -0.0018038169 0.00035064621
0.1077826 -0.57180178 0.39830631 0.005222247 -0.99998558 -0.001262653 0.00039603634
0.12203924 -0.57180178 0.39672628 0.017387819 -0.99984711 -0.0018707262 0.00069848518
0.13501249 -0.57180178 0.39531615 0.052428313 -0.9984979 -0.015913121 0.010649079
0.14408579 -0.57180178 0.39870119 0.071346134 -0.99712056 -0.025698563 0.01881245
0.15749514 -0.5710001 0.39308098 0.1208168 -0.99223512 -0.029543411 0.037376523
0.16346392 -0.57092935 0.39498278 0.13774434 -0.98923433 -0.049415234 0.04593062
0.17903621 -0.57020169 0.39048746 0.1802057 -0.98204058 -0.055876598 0.059280377
0.18835813 -0.56904101 0.39737064 0.29616082 -0.95096976 -0.089136779 0.096400529
0.19607311 -0.56874591 0.3980186 0.35825899 -0.92613524 -0.11800023 0.11035912
-0.11120614 -0.56962246 0.40483174 -0.9278214 -0.3219246 0.1884463 0.1499165
-0.081196375 -0.57023495 0.40630737 -0.52575117 -0.85062087 0.0054678619 0.13857502
-0.071709894 -0.5711903 0.40300429 -0.47837147 -0.87805647 0.013325897 0.13831493
-0.067040011 -0.57161558 0.40469143 -0.40571052 -0.91397458 -0.0070249778 0.12676753
-0.056791175 -0.57107413 0.40689921 -0.35981795 -0.93299413 -0.0072835525 0.10619518
-0.043034293 -0.57131487 0.40538308 -0.23484094 -0.97186154 -0.018299883 0.073556967
-0.031208195 -0.57164973 0.40801856 -0.18062375 -0.98328483 -0.022934075 0.054328978
-0.026297534 -0.57165217 0.40406519 -0.15726784 -0.98733014 -0.021118484 0.048388805
-0.017556926 -0.57180178 0.40698996 -0.11194828 -0.99366063 -0.010301153 0.032821413
-0.0054709828 -0.57180178 0.40510803 -0.095871203 -0.99479556 -0.034501456 0.022228323
0.0041543101 -0.57180178 0.40516785 -0.058845419 -0.99824971 -0.0058855941 0.01335704
0.023301695 -0.57180178 0.40638661 -0.038781926 -0.99912339 -0.015760874 0.010278885
0.042116296 -0.57180178 0.40043145 -0.0053943619 -0.99997056 -0.0054516699 0.00041185861
0.05904818 -0.57180178 0.4088347 -0.00088180497 -0.99999768 -0.0019731047 0.00035258514
0.1137496 -0.57180178 0.40294299 0.0067328103 -0.99997646 -0.0012812413 0.00034629012
0.12299967 -0.57180178 0.40182504 0.017151751 -0.99985123 -0.0018498743 0.0007031904
0.1357297 -0.57180178 0.4072893 0.043173328 -0.9990505 -0.0058487486 0.0058923257
0.14488557 -0.57180178 0.407002 0.07359568 -0.99721748 -0.011873126 0.016780127
0.16408239 -0.57096332 0.4049089 0.13890712 -0.99016321 -0.016784778 0.047291316
0.19543646 -0.56895989 0.40468529 0.32729235 -0.94023329 -0.094027281 0.12134106
0.20015238 -0.56666666 0.40740061 0.39896956 -0.90762299 -0.13055176 0.13638866
-0.090430439 -0.57086444 0.41293997 -0.72260517 -0.67137367 0.16461837 0.12897803
-0.076513171 -0.57049233 0.41729206 -0.61026168 -0.77919245 0.14296819 0.12570979
-0.0633801 -0.57029611 0.41459298 -0.42622069 -0.90332448 0.04838239 0.11379787
-0.05593694 -0.57068974 0.41695261 -0.3075982 -0.95145309 0.010972643 0.092492759
-0.043461666 -0.5711031 0.41107205 -0.23743869 -0.97132623 -0.012173756 0.075816244
-0.033067413 -0.57114136 0.41639313 -0.15485601 -0.98793328 0.0027187772 0.046560299
-0.028896011 -0.57139045 0.41268834 -0.14650258 -0.98918283 -0.007362497 0.043423664
-0.01202765 -0.57180178 0.4136841 -0.096556611 -0.99510092 0.021238787 0.028006341
-0.0005877614 -0.57180178 0.4166407 -0.076288685 -0.99663091 0.030114619 0.024699083
0.0079208771 -0.57180178 0.41397905 -0.056637011 -0.99839306 0.0019007485 0.013138718
0.016871629 -0.57180178 0.4175421 -0.054631267 -0.99847776 0.007585627 0.0091633592
0.024184609 -0.57180178 0.41442803 -0.029949941 -0.99952292 0.007542674 0.0021465686
0.036028501 -0.57180178 0.41437295 -0.0080182049 -0.99996763 0.00065487117 0.00040369062
0.046678893 -0.57180178 0.41930342 -0.0035880664 -0.99999332 -0.00069357461 0.00035339899
0.057289887 -0.57180178 0.41262212 -0.00076406565 -0.99999863 -0.001495455 0.00035072552
0.0602304 -0.57180178 0.41883329 -0.00053375057 -0.9999994 -0.00095376087 0.0003625447
0.085849732 -0.57180178 0.41294211 0.00049512181 -0.99999952 -0.00086305354 0.00038504039
0.11640212 -0.57180178 0.41671929 0.0079944329 -0.99996531 -0.0023491541 0.00035477645
0.12503545 -0.57180178 0.41596782 0.017084483 -0.99983841 -0.005578775 0.00062934123
0.13652486 -0.57180178 0.41192198 0.04131072 -0.99910897 -0.0086447345 0.0054395781
0.14562616 -0.57180178 0.41233149 0.071026474 -0.99737787 -0.013874157 0.017048558
0.15593623 -0.57180178 0.4155077 0.13503985 -0.99068469 -0.017552404 0.043252658
0.16457729 -0.57106185 0.41305202 0.13089627 -0.99118632 -0.020388743 0.046614707
0.17359354 -0.57021475 0.41692764 0.21863221 -0.97490752 -0.041895218 0.08331085
0.18447967 -0.57003325 0.4134405 0.27120879 -0.9598254 -0.071978599 0.1014986
0.19548833 -0.56831342 0.41611788 0.36055213 -0.93090129 -0.058523349 0.12821439
0.20422056 -0.56635541 0.41451386 0.48619491 -0.86725676 -0.10714565 0.15161189
0.21547045 -0.56987685 0.4198921 0.63631874 -0.75763464 -0.14521785 0.17780398
-0.061432891 -0.57009757 0.42303339 -0.34752768 -0.93495655 0.071279563 0.097348966
-0.056790713 -0.56859386 0.42375872 -0.31498337 -0.94743299 0.056179903 0.091445275
-0.048233625 -0.56887019 0.42552099 -0.21820064 -0.97493625 0.043449461 0.066903159
-0.03278935 -0.57039714 0.42550799 -0.16737819 -0.98453963 0.051636022 0.048923612
-0.02371967 -0.57075655 0.42545226 -0.10047727 -0.99362421 0.051138941 0.032919742
-0.016911605 -0.57180178 0.42580426 -0.094855472 -0.99436986 0.047233179 0.032884419
-0.0044249897 -0.57180178 0.42813709 -0.094960198 -0.99487549 0.034716304 0.031497631
0.0047619715 -0.57180178 0.4239237 -0.084127858 -0.99608409 0.027182695 0.024530323
0.01096061 -0.57180178 0.42156911 -0.065848522 -0.99749207 0.025953311 0.015702216
0.023624729 -0.57180178 0.42150533 -0.037452646 -0.9992224 0.012324357 0.0030052895
0.037189148 -0.57180178 0.42367864 -0.0089820828 -0.9999584 0.0015777231 0.00041777629
0.047332838 -0.57180178 0.42919219 -0.0038982965 -0.99999213 0.00074493891 0.00039233849
0.056713864 -0.57180178 0.42512894 -0.00069775764 -0.99999952 -0.00068950694 0.00037748917
0.062337089 -0.57180178 0.42401919 -0.00048660653 -0.9999997 -0.00057199603 0.00036027317
0.087452859 -0.57180178 0.42477131 0.00034494619 -0.99999958 -0.00089873071 0.00035603956
0.094085872 -0.57180178 0.42594802 0.00073743041 -0.9999994 -0.00075466576 0.00036602243
0.1034974 -0.57180178 0.42628729 0.0021277517 -0.99999738 -0.00082096132 0.00036880063
0.1225093 -0.57180178 0.42111129 0.014788868 -0.99987537 -0.005525874 0.00060439017
0.13712215 -0.57180178 0.42476866 0.038148493 -0.99922276 -0.0099291401 0.0053380835
0.1410035 -0.57180178 0.42676315 0.059491444 -0.99822509 -0.0027103077 0.012609817
0.1592159 -0.57180178 0.42052171 0.13013163 -0.99117583 -0.025225168 0.046675205
0.16127101 -0.57180178 0.42046061 0.13013476 -0.99117541 -0.025226206 0.046685033
0.17692515 -0.57054681 0.42205086 0.22597592 -0.97322524 -0.04204287 0.088820614
0.18571995 -0.57032269 0.42503166 0.32038352 -0.94728559 -0.0021220078 0.11988535
0.20248452 -0.56967747 0.4255386 0.498831 -0.86514235 -0.051926203 0.1598562
0.2156937 -0.57064164 0.42406952 0.66141444 -0.73678148 -0.14029953 0.17791004
0.22460587 -0.57180178 0.42370972 0.79254043 -0.57510775 -0.20280732 0.16567156
-0.059223346 -0.56486934 0.43607962 -0.37244701 -0.91055965 0.17934439 0.084614553
-0.050983515 -0.5662927 0.43434548 -0.24048649 -0.96522313 0.10252097 0.070881881
-0.046144638 -0.56736177 0.43460232 -0.20877737 -0.97339374 0.094428085 0.064400539
-0.034944471 -0.56886017 0.43465364 -0.16445743 -0.98230249 0.089641154 0.055588882
-0.024714282 -0.57024473 0.43516985 -0.123921 -0.98734826 0.0989291 0.04494825
-0.0082514985 -0.57180178 0.4387427 -0.11028259 -0.98945266 0.09392143 0.028590746
0.023476506 -0.57180178 0.43555194 -0.042777933 -0.99895841 0.015879847 0.0035844804
0.046965059 -0.57180178 0.43041 -0.0042514121 -0.9999907 0.00067594397 0.00040409234
0.05412218 -0.57180178 0.43481445 -0.0031853144 -0.99999481 0.00041577584 0.00041300396
0.096346319 -0.57180178 0.43489727 0.0013787944 -0.99999875 -0.00076376728 0.00037334007
0.10153356 -0.57180178 0.43446097 0.0018074285 -0.99999791 -0.0009773341 0.0003651072
0.11670566 -0.57180178 0.43535557 0.0055704406 -0.99998307 -0.0016641349 0.00037741181
0.1227898 -0.57180178 0.43530911 0.010289839 -0.99994469 -0.0021880071 0.00042355427
0.1312774 -0.57180178 0.43285009 0.033660769 -0.99943155 -0.0018868125 0.004830915
0.14164931 -0.57180178 0.43133795 0.057653561 -0.99833393 -0.0023131762 0.012365206
0.15510871 -0.57180178 0.437547 0.12791486 -0.99152642 0.022656294 0.050308567
0.17991954 -0.57117206 0.43313465 0.31496355 -0.94743782 0.056210008 0.11799132
0.19575289 -0.57096416 0.43939984 0.44438678 -0.8891238 0.10944971 0.15204886
0.20454094 -0.57089359 0.43562081 0.58146256 -0.81115037 0.062740013 0.16883099
0.21679898 -0.57088941 0.43349278 0.74974209 -0.66140425 -0.020765455 0.17210904
0.2288368 -0.57180178 0.43065929 0.85405058 -0.50628501 -0.1194702 0.1730901
-0.052765556 -0.56393802 0.43958974 -0.27351782 -0.9499014 0.15124631 0.067743503
-0.043006193 -0.56680715 0.44335726 -0.18910018 -0.96957898 0.15542749 0.060266107
-0.034454852 -0.56838727 0.44463888 -0.174853 -0.97236639 0.15469344 0.050078098
-0.025447715 -0.57000804 0.44260815 -0.13521776 -0.98595345 0.098040782 0.040346317
0.005650416 -0.57180178 0.4429855 -0.10493716 -0.99179393 0.073027596 0.024955925
0.01648701 -0.57180178 0.44217816 -0.10012373 -0.99325371 0.058500692 0.023296036
0.025517199 -0.57180178 0.44384041 -0.067094788 -0.99730396 0.029716948 0.011588694
0.03502411 -0.57180178 0.44368601 -0.026609814 -0.99955916 0.013164304 0.001690087
0.043469671 -0.57180178 0.44595069 -0.016774319 -0.99981189 0.0097389296 0.00096725277
0.05462772 -0.57180178 0.44616953 -0.0046048234 -0.99998671 0.0023222228 0.00040582282
0.068847418 -0.57180178 0.44878271 -0.0006780494 -0.9999997 0.00039108249 0.00034752127
0.094129831 -0.57180178 0.4443996 0.0001826526 -0.99999994 -0.000313706 0.00038881495
0.12440821 -0.57180178 0.44359455 0.0097920112 -0.99995059 -0.0017046867 0.00044145749
0.13714001 -0.57180178 0.44889966 0.072414726 -0.99694592 0.029239131 0.022024853
0.15426312 -0.57180178 0.44828451 0.10307427 -0.99423397 0.029571017 0.037925035
0.1775381 -0.57180178 0.44811881 0.27627274 -0.95527983 0.10542227 0.10606885
0.1815971 -0.57180178 0.44583929 0.35299695 -0.92605144 0.1334987 0.12791525
0.1955592 -0.57180178 0.44781461 0.45597696 -0.87051642 0.18516532 0.14986674
0.20850402 -0.57180178 0.44298971 0.59787714 -0.79816997 0.073943622 0.17365852
0.21671836 -0.57180178 0.44414634 0.68273145 -0.71932507 0.12825398 0.17976564
0.22241719 -0.57180178 0.44577518 0.84103721 -0.5195877 0.15061544 0.17772077
0.2300929 -0.57180178 0.44599661 0.91447097 -0.4028492 0.038150873 0.18155491
-0.040423833 -0.56601328 0.45274135 -0.24788113 -0.94711751 0.20377305 0.062248681
-0.032931767 -0.56780303 0.45398983 -0.19676182 -0.96265703 0.18594657 0.053118095
-0.024226971 -0.56975508 0.45410752 -0.16984925 -0.97402531 0.14975259 0.049114216
-0.01078006 -0.57112706 0.45962471 -0.14834708 -0.98012495 0.13171224 0.040372018
0.0063613649 -0.57180178 0.45195809 -0.11875156 -0.98950362 0.082345001 0.029027259
0.011876296 -0.57180178 0.45764425 -0.14401703 -0.98473585 0.09774667 0.035888083
0.02790853 -0.57180178 0.4584212 -0.10084392 -0.99342847 0.054132324 0.023515545
0.044376418 -0.57180178 0.45401943 -0.023663413 -0.99960011 0.015480175 0.0024631838
0.054668874 -0.57180178 0.45692617 -0.012064479 -0.99989289 0.0082844691 0.00094757852
0.064326473 -0.57180178 0.4539732 -0.0024287435 -0.99999577 0.0016113252 0.00035424886
0.071582228 -0.57180178 0.45856541 -0.00094829028 -0.99999946 0.00042491063 0.00034280485
0.11525223 -0.57180178 0.45574701 0.0054198718 -0.99998528 -0.0002076808 0.00043628112
0.12514801 -0.57180178 0.45367622 0.022592407 -0.9997347 0.0044906945 0.0036434161
0.13800301 -0.57180178 0.452889 0.075420305 -0.9966051 0.033017024 0.023407048
0.18584427 -0.57180178 0.4559097 0.37931132 -0.90655094 0.18517098 0.13333715
0.19725929 -0.56976503 0.45857468 0.52366626 -0.81145734 0.25944281 0.15610333
0.20560531 -0.57180178 0.45573872 0.62326032 -0.73942894 0.25454134 0.16937986
0.21626674 -0.57180178 0.45422953 0.74903089 -0.59816086 0.28487957 0.18140668
-0.033410862 -0.56780255 0.46444365 -0.27023584 -0.92996103 0.24928918 0.068383321
-0.024716867 -0.56936538 0.46630466 -0.24705704 -0.94579089 0.21081369 0.061812941
-0.016713636 -0.57063967 0.4685863 -0.20217346 -0.96518153 0.16598323 0.054574098
-0.0055142231 -0.57128143 0.46106356 -0.14102294 -0.98290408 0.11837238 0.038597688
0.0013673027 -0.57165605 0.46172407 -0.14240849 -0.98416942 0.10550047 0.036348894
0.011944176 -0.57180178 0.46614948 -0.16212238 -0.98257345 0.090915747 0.038625188
0.023564991 -0.57180178 0.46200311 -0.12045752 -0.99021852 0.070407689 0.030596551
0.035085458 -0.57180178 0.46495792 -0.074699849 -0.99577194 0.053461451 0.019214936
0.040126577 -0.57180178 0.46592891 -0.055777173 -0.99771804 0.038046211 0.01258604
0.05931716 -0.57180178 0.46485704 -0.011823178 -0.99989867 0.0079231011 0.00093324715
0.068685889 -0.57180178 0.46541286 -0.0025478124 -0.99999613 0.0011112443 0.00034269522
0.070553601 -0.57180178 0.46171001 -0.0018329336 -0.99999791 0.00082283153 0.00035387115
0.1093552 -0.57180178 0.46338111 0.0030145803 -0.99999547 -0.00027484831 0.00040241092
0.1152878 -0.57180178 0.4657833 0.004950006 -0.99998778 0.00013835843 0.0004282606
0.123861 -0.57180178 0.46641529 0.05527981 -0.99793142 0.032818872 0.01846372
0.148589 -0.57180178 0.46286899 0.089217655 -0.995224 0.039616447 0.0332877
0.15544569 -0.57180178 0.463229 0.10103224 -0.99428242 0.034568645 0.038840018
0.17335311 -0.57180178 0.46522671 0.22797808 -0.96606255 0.12144618 0.084520563
0.18333903 -0.57010275 0.46462905 0.35863566 -0.91163278 0.20076397 0.11617023
0.19745345 -0.56923753 0.46222025 0.47113818 -0.83821577 0.27463284 0.14925461
0.20276336 -0.56735134 0.46447742 0.5762254 -0.73361689 0.3602367 0.16010103
0.2192256 -0.57180178 0.4664678 0.77934772 -0.4370012 0.44905123 0.16446385
-0.033180967 -0.56822914 0.47947383 -0.3522478 -0.89873391 0.26114899 0.071092933
-0.024643548 -0.56965899 0.47394323 -0.28447455 -0.93688112 0.20329335 0.061726198
-0.014420025 -0.5703578 0.47520405 -0.21339142 -0.96432668 0.15664689 0.05483095
0.026050836 -0.57180178 0.47535586 -0.14806488 -0.98646027 0.070518419 0.035945404
0.035558321 -0.57180178 0.47106925 -0.079497874 -0.99573964 0.046719793 0.019559983
0.045417067 -0.57180178 0.47632694 -0.060346961 -0.99761605 0.03347436 0.014316128
0.059911381 -0.57180178 0.4786486 -0.02759603 -0.999511 0.014705648 0.004766996
0.063102551 -0.57180178 0.47354507 -0.012148746 -0.99990743 0.0061220462 0.00086230837
0.074969314 -0.57180178 0.47323301 -0.001948521 -0.99999774 0.00081526855 0.00037647365
0.11587691 -0.57180178 0.47616899 0.015233756 -0.99888098 0.044773865 0.016445266
0.1287434 -0.57180178 0.47914451 0.075712129 -0.9931832 0.088627487 0.034279067
0.1365349 -0.57180178 0.47662541 0.068192981 -0.99519354 0.070282273 0.028986577
0.14426669 -0.57180178 0.47548801 0.059121914 -0.99536443 0.075856648 0.034238081
0.1530093 -0.57180178 0.47823581 0.082959309 -0.99527138 0.050524145 0.034091812
0.16434614 -0.57180178 0.47667646 0.18787007 -0.97347647 0.13056917 0.07567028
0.17644253 -0.57180178 0.47253662 0.26297385 -0.95204443 0.15638477 0.092605978
0.18648984 -0.56791085 0.47241685 0.40553656 -0.87165469 0.27524206 0.12361392
0.1916209 -0.56736517 0.47174969 0.43948945 -0.83562374 0.32951778 0.13586117
-0.020816643 -0.56777608 0.48463434 -0.3443757 -0.90618813 0.24541475 0.070471764
-0.015126068 -0.56873214 0.48415026 -0.28797185 -0.9332341 0.21481705 0.066650704
-0.0043524727 -0.57030141 0.48766306 -0.24858768 -0.95829588 0.14097238 0.062822342
0.0020217644 -0.57118958 0.48529541 -0.22570334 -0.96599263 0.12615979 0.059080701
0.037569139 -0.57180178 0.48991269 -0.12215234 -0.99004245 0.069962971 0.034602813
0.044329703 -0.57180178 0.48743743 -0.073729828 -0.99631011 0.043931704 0.020450657
0.051738724 -0.57180178 0.48843598 -0.066398755 -0.9972868 0.031785838 0.016715446
0.069030523 -0.57180178 0.48087499 -0.011594979 -0.9999243 0.0041083386 0.00096465141
0.097240753 -0.57180178 0.48949891 0.019335527 -0.99926043 0.033237692 0.015477426
0.100171 -0.57180178 0.48577169 0.016971564 -0.99919242 0.036422573 0.016799442
0.11758585 -0.57180178 0.4835037 0.019085072 -0.99854207 0.05049333 0.01895684
0.12719725 -0.57180178 0.48768169 0.083407372 -0.99194247 0.095359094 0.038813405
0.13561444 -0.57180178 0.48638922 0.079991773 -0.99200302 0.097627349 0.03681143
0.15953469 -0.57180178 0.48734239 0.1418218 -0.97950464 0.14302848 0.065035276
0.16045099 -0.57180178 0.48655981 0.16817221 -0.97409189 0.15120542 0.070276134
0.17516547 -0.57180178 0.48378885 0.25395346 -0.94004703 0.22763842 0.086645052
-0.010353363 -0.56873798 0.49936146 -0.35393277 -0.91141993 0.20986949 0.074935608
-0.003612119 -0.56990242 0.49558792 -0.29785562 -0.93961596 0.16853443 0.069125846
0.021958712 -0.57149166 0.49070254 -0.19169909 -0.97632319 0.10022242 0.049055442
0.03304977 -0.57180178 0.49581391 -0.13870573 -0.98746061 0.07538034 0.037872039
0.046366625 -0.57180178 0.49394745 -0.084968291 -0.99471182 0.057696305 0.027285177
0.050083108 -0.57180178 0.49178639 -0.073244207 -0.99600917 0.051000241 0.023772934
0.060965929 -0.57180178 0.491907 -0.043608647 -0.99882054 0.021347698 0.011040901
0.072880328 -0.57180178 0.49685091 0.01449753 -0.99958873 0.024743428 0.014615633
0.10472635 -0.57180178 0.4968054 0.023802012 -0.99886584 0.041237742 0.0193318
0.1157285 -0.57180178 0.49812967 0.026993943 -0.9983303 0.051068544 0.021260276
0.1281822 -0.57180178 0.49516869 0.096533231 -0.99056798 0.097244471 0.04462311
0.1407212 -0.57180178 0.49075651 0.09149643 -0.98948407 0.11202575 0.042469505
0.1520023 -0.57180178 0.49509239 0.10541403 -0.98078561 0.164157 0.057049382
-0.0030068178 -0.5689258 0.50764287 -0.32594293 -0.92592621 0.19084519 0.076485239
0.0037714536 -0.56999332 0.50470364 -0.27565226 -0.95057112 0.14293486 0.070029043
0.015645079 -0.57133067 0.50813884 -0.24176222 -0.96111369 0.13345937 0.068774126
0.024158303 -0.57144225 0.50415462 -0.18632251 -0.97555178 0.11654411 0.061999161
0.03908905 -0.57180178 0.50414878 -0.14448914 -0.98492825 0.095074847 0.051047832
0.04416902 -0.57180178 0.50164288 -0.09401273 -0.99275798 0.074788012 0.036204446
0.064819679 -0.57180178 0.50734389 -0.035593715 -0.99470818 0.09637747 0.045008115
0.11268555 -0.57180178 0.50487047 0.030485606 -0.99825376 0.050596874 0.023079833
0.1244524 -0.57180178 0.50721169 0.071123593 -0.99346483 0.08926966 0.038624454
0.1325359 -0.57180178 0.50931883 0.14428799 -0.97894615 0.14437902 0.05673223
0.14300245 -0.57180178 0.50363588 0.15103203 -0.97140551 0.18319586 0.053745482
-0.015298352 -0.56321639 0.51149285 -0.55704248 -0.74607009 0.36480567 0.093738973
-0.00039090845 -0.5661822 0.51196957 -0.39509484 -0.88666421 0.24026349 0.095802672
0.0033605387 -0.56749964 0.51597971 -0.40394062 -0.87366414 0.27118817 0.098054655
0.016339544 -0.5713042 0.51593608 -0.23555067 -0.95826626 0.16199273 0.079233676
0.022864817 -0.57141602 0.51342475 -0.22174481 -0.96367699 0.14884835 0.076699615
0.03930771 -0.57180178 0.51710773 -0.1519108 -0.98083925 0.12197314 0.062694937
0.045891389 -0.57180178 0.51380932 -0.11526779 -0.9873268 0.10908353 0.051332563
0.067403898 -0.57180178 0.51450884 -0.008176079 -0.99296582 0.11811872 0.054582871
0.073769376 -0.57180178 0.51832634 0.021786002 -0.98890215 0.14696199 0.067652293
0.10474718 -0.57180178 0.51479322 0.097092636 -0.97914046 0.17848474 0.070792928
0.11637645 -0.57180178 0.5179652 0.086901367 -0.98135906 0.17141312 0.06285093
0.12490535 -0.57180178 0.51624042 0.075615056 -0.98747152 0.13850057 0.056675054
0.0076445965 -0.56720525 0.52501363 -0.36749703 -0.88265687 0.29302371 0.10419565
0.014135286 -0.56962806 0.52413285 -0.2851623 -0.93366981 0.21666363 0.091854714
0.025566515 -0.57138383 0.52225012 -0.22216387 -0.96234995 0.15660726 0.082070805
0.030569684 -0.57180178 0.52831012 -0.23659293 -0.95716929 0.16688555 0.091468245
0.045041915 -0.57180178 0.52317655 -0.12390239 -0.98312092 0.13461612 0.074435383
0.053262942 -0.57180178 0.52798575 -0.07932888 -0.9847644 0.15474516 0.083358213
0.068292394 -0.57180178 0.52497995 0.010488969 -0.98718297 0.15924746 0.077191673
0.076315537 -0.57180178 0.52279341 0.034868859 -0.98595315 0.16334178 0.07366962
0.080447324 -0.57180178 0.52374017 0.049414948 -0.98446655 0.16847469 0.071218692
0.10420677 -0.57180178 0.52792501 0.12836124 -0.97063416 0.20345199 0.078109227
0.11376704 -0.57180178 0.52440172 0.13756557 -0.95527643 0.26176828 0.085449405
0.12697969 -0.57180178 0.52119231 0.11987089 -0.97391379 0.19267283 0.062625647
0.0090463711 -0.56802386 0.53425801 -0.41787374 -0.84384161 0.33661979 0.11062466
0.018930402 -0.5711261 0.53324926 -0.31576085 -0.91712856 0.2432494 0.097742312
0.023632662 -0.57180178 0.53599292 -0.30678093 -0.9258436 0.22067876 0.10229782
0.032947078 -0.57180178 0.53304118 -0.18666773 -0.9717567 0.14437538 0.076578289
0.044032782 -0.57180178 0.53553516 -0.14430623 -0.97762889 0.15302765 0.089254998
0.055628307 -0.57180178 0.53411931 -0.082711563 -0.98262972 0.16612548 0.090282515
0.076497905 -0.57180178 0.53518796 0.063774101 -0.97735542 0.20176505 0.082439966
0.085215397 -0.57180178 0.53683752 0.077162899 -0.97077376 0.22725348 0.082842514
0.095420599 -0.57180178 0.53232521 0.13434304 -0.95747006 0.25534877 0.084493145
0.10318632 -0.57180178 0.53238833 0.15553264 -0.95876575 0.23786116 0.083106853
0.014539 -0.57180178 0.54142922 -0.34601757 -0.89479983 0.28214356 0.10958961
0.025457432 -0.57180178 0.54529351 -0.25806689 -0.94165158 0.21608731 0.10390478
0.035136204 -0.57180178 0.54636633 -0.23845696 -0.95392418 0.18211803 0.10316555
0.047389708 -0.57180178 0.54657298 -0.1325652 -0.9541831 0.26825589 0.12348531
0.054493707 -0.57180178 0.54621154 -0.060630981 -0.95697558 0.2837635 0.12293813
0.065700255 -0.57180178 0.54698634 0.037267931 -0.87297308 0.48634258 0.1476056
0.075058892 -0.57180178 0.54557073 0.14115576 -0.87812275 0.45713842 0.12942404
0.085256495 -0.57180178 0.54414237 0.11616571 -0.95234627 0.28203216 0.09301275
0.019025831 -0.57180178 0.55172497 -0.29674852 -0.91759735 0.2644909 0.11052518
0.025674067 -0.57180178 0.55676991 -0.28398439 -0.91826963 0.2759237 0.11957291
0.034205753 -0.57180178 0.55467755 -0.24750625 -0.93762833 0.24411833 0.10903006
0.044038728 -0.57180178 0.55649686 -0.18849128 -0.94495571 0.26745048 0.13045637
0.05773899 -0.57180178 0.55510479 -0.025692524 -0.88198411 0.47057828 0.15481368
0.065642186 -0.57180178 0.5537585 0.052623451 -0.81771886 0.57320738 0.15592401
0.073278546 -0.57180178 0.55211818 0.16556244 -0.84875214 0.502204 0.14169596
0.035229936 -0.57180178 0.5618481 -0.25681749 -0.93208581 0.25546208 0.11882482
0.044449911 -0.57180178 0.56632972 -0.1729704 -0.9328258 0.31609702 0.14911824
0.051576931 -0.57180178 0.5624218 -0.14376931 -0.88491213 0.4430134 0.15918207
0.060094848 -0.57180178 0.56070912 -0.037424318 -0.87830204 0.47663921 0.15255809
0.04192346 -0.57180178 0.5743202 -0.25584844 -0.87382048 0.4134964 0.14996803
0.08797133 -0.56653684 0.26594311 -0.05056861 -0.72984427 -0.68174052 0.16012184
0.09453398 -0.43992054 0.26549429 -0.37516266 0.012401324 -0.92687601 0.022977524
0.078107886 -0.39741457 0.27068847 -0.43008238 -0.019701917 -0.90257466 0.018622922
0.08279936 -0.46551231 0.26782176 -0.34570375 0.042441491 -0.93738341 0.033648655
0.090422876 -0.37833041 0.26475251 -0.38935152 -0.0025515964 -0.92108572 0.020806242
0.096933775 -0.47331768 0.26264435 -0.14898977 0.0097893709 -0.98879027 0.057568856
0.090511568 -0.3999978 0.26338705 -0.40430534 -0.013318909 -0.91452706 0.019668244
0.10287362 -0.41939706 0.26935008 -0.34489241 -0.010358369 -0.9385851 0.031278286
0.085213035 -0.51006675 0.26528692 -0.092963889 -0.076306783 -0.99274117 0.082558013
0.090693541 -0.53654516 0.26255187 -0.018032912 -0.29334199 -0.95583749 0.14295028
0.088913061 -0.51757288 0.2618832 -0.012993842 -0.13337101 -0.99098104 0.10309042
0.049989451 -0.36859322 0.29012963 -0.53841674 0.0057505113 -0.84265906 0.0021323711
0.090855025 -0.44040251 0.26543549 -0.37771687 0.011717191 -0.92584699 0.022585077
0.11767285 -0.57088006 0.29952276 0.32567552 -0.85618293 -0.40110633 0.11294468
0.078875035 -0.27430534 0.30639523 -0.14820446 0.87362432 -0.46348253 0.076527089
0.18150018 -0.27416173 0.46559668 0.28743941 0.95601195 0.058478232 0.062739462
0.072481096 -0.27141091 0.4972949 -0.015582833 0.99458236 0.10277662 0.014502318
0.11988889 -0.27148908 0.45483243 0.024884216 0.99924606 0.029801067 0.0060668471
0.083360754 -0.27526799 0.29527155 -0.14420146 0.83334553 -0.53361148 0.08513172
0.069930501 -0.27651969 0.29916555 -0.20144099 0.82087302 -0.53440535 0.083303131
0.09196718 -0.27161485 0.38034779 -0.00013672731 0.99993378 -0.011503459 0.0002152346
0.097425357 -0.27190658 0.34608379 -0.01511868 0.99446988 -0.10392828 0.011561913
0.17491956 -0.27381319 0.47168759 0.22166967 0.97344083 0.057233695 0.04461338
0.091429152 -0.33480781 0.2674109 -0.41403383 0.15946572 -0.89618456 0.024628613
0.03892025 -0.27300695 0.50408602 -0.080103964 0.98300475 0.16518162 0.042032555
0.039818149 -0.27169788 0.37040555 -0.1095594 0.98474449 -0.13518561 0.020077068
0.026540371 -0.27279612 0.35092467 -0.21252961 0.92883915 -0.30346164 0.051137909
0.090449534 -0.27127621 0.36262217 -0.013163915 0.99916095 -0.03878336 0.0013206039
0.19408369 -0.27885732 0.41485783 0.37659818 0.92363727 -0.071190476 0.08847104
0.043390308 -0.27267593 0.49327511 -0.057534143 0.99334705 0.099757001 0.024408789
0.047801908 -0.30930898 0.29267579 -0.49164319 0.4077445 -0.7694357 0.056453381
0.054946702 -0.34785354 0.28665271 -0.51487797 0.10313143 -0.85103738 0.0087935543
0.037081704 -0.3643367 0.30014354 -0.54976398 0.0069552176 -0.83529109 0.0016242968
0.056884825 -0.56434804 0.28295344 -0.29891717 -0.709508 -0.63815898 0.12014545
0.069147445 -0.53143275 0.27319056 -0.37328109 -0.28262627 -0.88361967 0.11361093
-0.038457021 -0.27767739 0.36741903 -0.45692414 0.78239852 -0.42317018 0.081607744
-0.018650571 -0.2769188 0.35973135 -0.34439662 0.82110792 -0.45516235 0.069118634
-0.035078291 -0.37335098 0.34749496 -0.58894485 0.0014726602 -0.80817187 0.013730627
-0.064186759 -0.39790058 0.36632997 -0.71082085 0.0014339903 -0.70337164 0.035490759
-0.0074231294 -0.32657906 0.32957667 -0.52296466 0.25738677 -0.81256384 0.0297742
-0.067357048 -0.50112927 0.35926971 -0.69498581 0.011928933 -0.71892446 0.043908369
-0.031147141 -0.42006975 0.34071007 -0.58704084 0.035308842 -0.80878705 0.0085120425
-0.07908769 -0.46465063 0.38164282 -0.85483342 0.084263258 -0.51201516 0.089409433
0.012794465 -0.49415973 0.30755696 -0.54998338 0.01536862 -0.83503413 0.0059195873
-0.062808894 -0.55547595 0.35727093 -0.65204829 -0.54607731 -0.52595872 0.14484137
0.013676101 -0.52525884 0.3106305 -0.54293573 -0.22779873 -0.80828738 0.079141513
-0.017983822 -0.54451025 0.32929081 -0.4888216 -0.37695527 -0.78673893 0.11569258
-0.039933097 -0.55232787 0.34166926 -0.51960868 -0.50689298 -0.68779826 0.12664439
-0.076418631 -0.56647497 0.37924221 -0.65444219 -0.72173244 -0.22540577 0.17036286
-0.074084759 -0.47158891 0.37024593 -0.7787587 0.065001324 -0.62394685 0.06778615
-0.012615738 -0.56098241 0.32481045 -0.309185 -0.82455981 -0.47382033 0.1138114
-0.084417596 -0.569453 0.38583937 -0.65389717 -0.74640387 -0.12369144 0.16939151
0.031516194 -0.46208128 0.29811797 -0.52937967 0.05106793 -0.84684658 0.00081695884
0.011341482 -0.33337685 0.31722313 -0.54415971 0.21351825 -0.81135696 0.022431767
-0.058993325 -0.31234166 0.36334166 -0.65807569 0.38301787 -0.64825445 0.081017114
-0.054095514 -0.35882148 0.35823956 -0.62988472 0.018055312 -0.77647877 0.025602743
-0.040100623 -0.32723427 0.35021806 -0.56779802 0.2394699 -0.78756559 0.036459386
-0.024503615 -0.48567009 0.33578047 -0.56590497 0.026706755 -0.82403779 0.0069791409
-0.0082733678 -0.27368557 0.3758778 -0.20063214 0.94188583 -0.26943973 0.053482786
-0.035720687 -0.28575388 0.35598454 -0.48475629 0.682446 -0.54706377 0.077134848
-0.030758055 -0.30890411 0.34734353 -0.52732801 0.39046431 -0.75462759 0.058344156
-0.019828938 -0.37841761 0.33712074 -0.55049413 0.017098192 -0.83466393 0.0044019395
-0.06642399 -0.3685196 0.36787626 -0.69529825 -0.031435031 -0.71803355 0.043484282
0.044775423 -0.29976007 0.29750779 -0.45902485 0.52073675 -0.71981204 0.063655376
-0.038634263 -0.37942907 0.3485055 -0.58894473 0.0084018102 -0.80812961 0.013124139
-0.078740828 -0.32542747 0.38985229 -0.87547016 0.25700408 -0.40926871 0.089355245
0.017446941 -0.32191962 0.31430644 -0.52005553 0.33098552 -0.78739488 0.042341225
-0.0078259604 -0.33053887 0.33065635 -0.52682316 0.23969738 -0.81547695 0.02706976
0.015532142 -0.31928959 0.31617603 -0.51735067 0.35349196 -0.77935344 0.044181082
-0.07561069 -0.34208795 0.37686253 -0.76098627 0.091836385 -0.6422351 0.055638131
-0.077817887 -0.33156729 0.38605317 -0.85006946 0.21235089 -0.48196375 0.078182228
-0.039507333 -0.36047098 0.34999347 -0.59346902 0.020945465 -0.80458426 0.014707128
-0.018968562 -0.33572966 0.33769086 -0.52953452 0.19015701 -0.82670033 0.021116581
-0.067742191 -0.39032474 0.37610877 -0.74973565 -0.018948728 -0.66146618 0.04870823
0.026887912 -0.52073956 0.29912952 -0.54291278 -0.16558358 -0.82330298 0.048552684
0.012856699 -0.4058497 0.31648779 -0.54830861 0.028479027 -0.83579093 0.0016818006
-0.074166775 -0.3765645 0.38474116 -0.78501827 -0.049010541 -0.61753082 0.065925799
0.0091302535 -0.2894977 0.3270407 -0.41655138 0.62225628 -0.66278356 0.065374732
0.068057038 -0.27179021 0.37128699 -0.036367934 0.99844557 -0.042235944 0.0021233307
-0.077743053 -0.34031996 0.38059816 -0.78782088 0.10887285 -0.60620546 0.060719877
-0.026942469 -0.33596298 0.34325007 -0.54610908 0.18149686 -0.81781638 0.022425232
0.019450558 -0.28713739 0.32625505 -0.40081829 0.6681515 -0.62683195 0.071346976
0.056009222 -0.2825439 0.29809326 -0.35913932 0.70020902 -0.61703014 0.08144594
0.13921191 -0.26887229 0.48021403 0.067465723 0.99448925 0.08024691 0.018966742
0.068155862 -0.38168585 0.27683121 -0.49405697 -0.027313396 -0.86900038 0.013496057
0.095011987 -0.44141296 0.26469788 -0.3764618 0.01351364 -0.92633361 0.023806306
0.00024089424 -0.27332646 0.38385633 -0.14352442 0.9689672 -0.20125432 0.04146548
0.060324736 -0.27139443 0.49175522 -0.013969971 0.99521661 0.096688628 0.015640378
-0.034210492 -0.29150611 0.35333571 -0.50689977 0.60393554 -0.61507279 0.073109455
0.1969274 -0.46962196 0.40475801 0.97910124 -0.028175246 -0.20141223 0.03310363
0.19051607 -0.28495646 0.39823443 0.37694138 0.91845715 -0.11979819 0.076335602
0.19771045 -0.42964047 0.40204209 0.96286303 -0.014160424 -0.26961863 0.021089505
0.042933438 -0.28099883 0.30925643 -0.3875978 0.70933008 -0.58874339 0.071083017
0.031996943 -0.28335267 0.32008892 -0.36531129 0.72146153 -0.58825243 0.070615202
0.07747706 -0.28489119 0.27911803 -0.25795987 0.66041636 -0.70519996 0.099712431
-0.039464105 -0.30381784 0.35307848 -0.55626315 0.43866819 -0.70579147 0.06857755
-0.0056754733 -0.27819887 0.3435047 -0.34883401 0.75544506 -0.55463284 0.07504677
-0.033583015 -0.27573949 0.37760115 -0.40943015 0.84272128 -0.34955391 0.078624517
-0.063441887 -0.28501186 0.38214019 -0.62667865 0.70090783 -0.34059089 0.099882759
-0.070987307 -0.34946245 0.37080577 -0.72578681 0.054542907 -0.68575394 0.048554771
0.010774123 -0.2859661 0.32324207 -0.42618471 0.61631072 -0.66221422 0.062155448
0.030284224 -0.30769661 0.30509517 -0.50818205 0.42159465 -0.75100523 0.047038212
0.015337265 -0.30942947 0.31551296 -0.48945385 0.42297187 -0.76258093 0.048886202
0.1020086 -0.27168283 0.3331826 -0.02222839 0.98751265 -0.15596355 0.018843155
0.090645209 -0.27086923 0.44164735 -0.013219581 0.99990422 0.0041069929 0.00037669149
0.16535753 -0.27378324 0.39462093 0.15303321 0.9876405 -0.033866692 0.019800015
0.13196358 -0.27212381 0.33262992 0.06741751 0.99076045 -0.11768013 0.0090083899
0.15337063 -0.26999298 0.47775331 0.10509627 0.99222708 0.066635154 0.022774229
0.14379737 -0.27098498 0.39895949 0.087376185 0.99582976 -0.026238238 0.0081462804
0.12446091 -0.27037692 0.48794729 0.034424007 0.99505401 0.093179666 0.017411865
0.12289682 -0.2712917 0.35813463 0.036200818 0.99872112 -0.035295177 0.0027738649
0.10933207 -0.27068043 0.46327972 0.008645338 0.9991926 0.039235793 0.0044928379
0.10966495 -0.27147144 0.49337974 0.024015149 0.99352485 0.11104792 0.020478781
0.037133086 -0.30470505 0.30059177 -0.49132258 0.47233987 -0.73177677 0.055817362
-0.047165073 -0.35857251 0.35384279 -0.59957927 0.030150849 -0.79974723 0.01528719
-0.036325976 -0.30277082 0.35126096 -0.5393737 0.4468444 -0.71372694 0.065280482
-0.044416696 -0.31045172 0.35391966 -0.57319915 0.36374167 -0.734258 0.061867766
0.092190273 -0.27141774 0.43599129 -0.012539229 0.99991697 -0.0029666221 0.00024457602
-0.033923082 -0.29149777 0.35079351 -0.50674319 0.58094704 -0.63695508 0.070167713
0.025622889 -0.31868431 0.30788532 -0.502123 0.3860192 -0.77386159 0.047449291
0.074801914 -0.2715061 0.38690874 -0.015164313 0.99984837 -0.0085641379 0.00018948664
0.068184108 -0.27133477 0.38436154 -0.024581457 0.99954152 -0.017675672 0.00082129461
0.013768522 -0.27528527 0.33550414 -0.3235544 0.8140974 -0.4822427 0.066043742
-0.011983915 -0.27361366 0.41370279 -0.13946889 0.98929614 -0.042913642 0.023318181
0.01961554 -0.28750861 0.31993222 -0.4347741 0.60608202 -0.66606015 0.064506352
0.047992319 -0.27207324 0.3921923 -0.038473379 0.99887615 -0.027680611 0.0016692076
0.024040427 -0.28221023 0.31968319 -0.3931058 0.69019568 -0.60753423 0.067042917
0.067556895 -0.27191371 0.35706046 -0.078630112 0.98953873 -0.12095651 0.016102636
0.007375231 -0.27411312 0.35541195 -0.22120951 0.91659039 -0.33305907 0.055312335
-0.05384415 -0.33587664 0.35861209 -0.63095683 0.14674565 -0.7618131 0.036525115
-0.079469278 -0.47091419 0.38191819 -0.82287776 0.088594258 -0.56126928 0.084787332
0.060197141 -0.47893196 0.28029981 -0.46554589 0.062668085 -0.88280219 0.0093069058
0.014183321 -0.38689116 0.31883025 -0.55062217 0.019396422 -0.83452922 0.0023893316
0.039500076 -0.43336612 0.2980901 -0.51100969 0.015909463 -0.85942775 0.005272835
0.17342481 -0.27474269 0.47140133 0.23678949 0.96913069 0.068675347 0.051112644
0.069030091 -0.27400821 0.31603599 -0.16152956 0.89932501 -0.40635306 0.069701746
-0.0024864366 -0.27722922 0.48708844 -0.11067635 0.99003452 0.087076642 0.019514604
0.13848907 -0.27270168 0.33263361 0.069464773 0.99290812 -0.096478067 0.0082764886
0.14062051 -0.27089134 0.40992048 0.088752277 0.99579346 -0.022770198 0.0085579297
-0.017559189 -0.27357852 0.40552497 -0.1941663 0.97743821 -0.083150826 0.033494681
0.15744475 -0.27234375 0.41339743 0.13292664 0.9910028 -0.015617628 0.015171424
-0.031410936 -0.27419806 0.424997 -0.24823736 0.96864325 -0.010416913 0.041895043
0.16642684 -0.27369174 0.41051379 0.18718721 0.98223525 -0.013224102 0.029152354
0.076605208 -0.27369604 0.52394676 0.017826363 0.96072572 0.27692661 0.051997297
-0.027426444 -0.27377638 0.41398594 -0.26153788 0.964239 -0.042907692 0.044944175
0.054509312 -0.27550143 0.3022553 -0.3353484 0.74521774 -0.57636094 0.080725677
0.13938802 -0.27444306 0.32121176 0.097028151 0.98237932 -0.15973881 0.012446173
0.14717826 -0.27201879 0.37122691 0.090984166 0.99561489 -0.021744166 0.0074528698
0.14952734 -0.27145523 0.40986153 0.11563199 0.99310237 -0.019417213 0.011387852
0.1029891 -0.27170232 0.33683744 -0.0065413648 0.99025917 -0.13908239 0.01501637
0.15696236 -0.2709631 0.43619442 0.1750425 0.9845559 0.0031234105 0.030605631
0.15531176 -0.27068096 0.44763824 0.15657128 0.98760641 0.010912764 0.026209546
0.013501613 -0.27345133 0.46593273 -0.085829645 0.99457788 0.058720946 0.01563536
0.034237981 -0.27347699 0.49773937 -0.084957451 0.98713589 0.13544348 0.033759959
-0.064717345 -0.27730364 0.40089175 -0.57970434 0.79710352 -0.16902328 0.08491718
-0.029716101 -0.27740568 0.36138996 -0.4056401 0.80219072 -0.43811664 0.071636997
-0.049861059 -0.27878267 0.37000427 -0.5143097 0.74799997 -0.41950163 0.083650634
-0.012635498 -0.27738675 0.34757647 -0.32787809 0.78569037 -0.52458227 0.075772807
-0.034310833 -0.32607394 0.34624779 -0.56344283 0.23561801 -0.79184359 0.033228707
0.059147201 -0.27135208 0.46689504 -0.028041055 0.99901599 0.03436216 0.002833986
0.029627323 -0.27357483 0.52062631 -0.12639861 0.96061373 0.24747644 0.071146868
0.0063033542 -0.37125131 0.32103562 -0.54910624 0.017080987 -0.83557796 0.0024140051
0.11810878 -0.27097863 0.4816592 0.029911444 0.99613053 0.082639441 0.014475089
0.07158944 -0.27231064 0.45857337 -0.020341594 0.99954605 0.022222543 0.0012588137
0.13593856 -0.26920938 0.48989943 0.044101324 0.99532431 0.085933894 0.014724227
0.11316644 -0.278108 0.51793522 0.053141546 0.9837411 0.17155005 0.029973174
0.11414749 -0.27070618 0.45815232 0.010163307 0.99955368 0.028093904 0.0034689805
0.14040938 -0.27064809 0.42793056 0.0929166 0.99555665 -0.015278676 0.0099276481
0.13771106 -0.27036446 0.4486419 0.076888569 0.99696225 0.012422503 0.0077630635
0.12887102 -0.27113244 0.45393077 0.040592466 0.99870181 0.030772882 0.0075792046
0.21817461 -0.27945909 0.44643226 0.59618694 0.80188704 0.039220989 0.12737817
0.14541151 -0.27560043 0.31598157 0.11170499 0.97667074 -0.18340182 0.014837341
0.11581866 -0.27122724 0.45347756 0.016373055 0.9994607 0.028463701 0.00468256
0.10138847 -0.27084023 0.43371031 -0.0051668454 0.99997205 -0.0053988928 0.00030501478
0.099330798 -0.27123466 0.43096158 -0.0065426473 0.99995351 -0.0070819911 0.00027050043
0.078342967 -0.38505095 0.27061072 -0.45035568 -0.02595618 -0.89247185 0.016096177
0.061408821 -0.34467429 0.28234527 -0.5041045 0.12006333 -0.85525632 0.01396347
0.038417403 -0.2763893 0.544954 -0.066359043 0.92397207 0.37665915 0.093946442
0.074963301 -0.27086923 0.47378188 -0.015333034 0.99875677 0.047432821 0.0057142028
0.051576246 -0.2716721 0.48779583 -0.034993876 0.99574012 0.085305408 0.016966404
-0.034109205 -0.27456564 0.43689516 -0.19539019 0.97957283 0.047536217 0.032231539
0.015577839 -0.27691141 0.52650094 -0.22546469 0.92143691 0.31641701 0.084099591
0.071244285 -0.27591193 0.54440409 0.068102278 0.91647136 0.39426172 0.074204221
-0.050746184 -0.27681285 0.42665866 -0.38195813 0.92417955 -0.00035271357 0.059709601
0.11524179 -0.27255169 0.32131207 0.036095008 0.9763934 -0.21296287 0.030035853
0.12576847 -0.27186304 0.51035935 0.05774904 0.9844076 0.16615242 0.031346418
0.14254765 -0.27015287 0.50275421 0.068212621 0.98564506 0.15443748 0.026522975
-0.0055702985 -0.27412111 0.4609898 -0.1049185 0.99245465 0.063450389 0.023201406
0.095177799 -0.36436105 0.26348716 -0.38387808 0.0077825892 -0.92335099 0.020471031
0.14405879 -0.26887584 0.47701231 0.073020771 0.99440026 0.076393686 0.02053804
0.12274913 -0.27130622 0.44318217 0.031499006 0.99945992 0.0093636401 0.004534049
0.019634793 -0.27485496 0.33337569 -0.30268988 0.83717752 -0.45553544 0.066581756
0.04770574 -0.31733087 0.29072309 -0.50103974 0.31657866 -0.80544215 0.043358997
0.079967052 -0.27158692 0.33982003 -0.090023957 0.97917229 -0.18198158 0.029882099
0.013561347 -0.33694062 0.31563401 -0.54688156 0.19372787 -0.81448758 0.018548977
0.084132984 -0.33553061 0.26913384 -0.44118789 0.15883282 -0.88324708 0.023681417
0.046907868 -0.35390413 0.29237112 -0.53915495 0.056478001 -0.84031081 0.0029362217
0.041483201 -0.45241478 0.29247406 -0.50612968 0.046454024 -0.86120546 0.0052421028
0.020597121 -0.27278844 0.37819454 -0.12366253 0.97814292 -0.16716439 0.029020377
-0.022036154 -0.27325597 0.46732473 -0.13433011 0.98715383 0.086503051 0.029426213
-0.014784355 -0.27884012 0.34892565 -0.33270335 0.78189963 -0.52720159 0.075422972
-0.02002158 -0.30563411 0.33944547 -0.47479385 0.4112004 -0.7781291 0.054698799
0.11626154 -0.27092701 0.43950194 0.016352205 0.9998579 0.004107201 0.0020541071
0.030729761 -0.27226225 0.43470383 -0.047499802 0.99862295 0.022271108 0.005612161
0.021744398 -0.27288529 0.34720239 -0.21865296 0.92100227 -0.32240602 0.053273521
0.018580455 -0.27317324 0.34847853 -0.22388284 0.91599125 -0.3329213 0.054525841
0.075369403 -0.51899904 0.26944649 -0.37814873 -0.15611076 -0.91248727 0.09216579
0.026614951 -0.31563699 0.30728096 -0.50079316 0.40294495 -0.76605588 0.048173863
0.03545934 -0.45912978 0.29585057 -0.52001327 0.051943116 -0.85257733 0.0019307621
0.10441687 -0.27206269 0.3271603 -0.020615144 0.98009259 -0.19746783 0.028601317
-0.0026635963 -0.27374583 0.39375201 -0.13006344 0.98570883 -0.10705871 0.022156477
0.14163129 -0.26608485 0.48767292 0.047835708 0.99628568 0.071600594 0.011699363
0.17228425 -0.27448711 0.37791526 0.18667838 0.98117936 -0.049376402 0.025169123
0.049805298 -0.27168941 0.38100028 -0.052086372 0.99767965 -0.043842621 0.0031723361
0.020801254 -0.27295712 0.38474911 -0.096633926 0.98835319 -0.11755791 0.016811034
0.13671371 -0.27343583 0.32696804 0.086141601 0.98572111 -0.14468382 0.011484364
0.058550879 -0.30425963 0.28674352 -0.45223498 0.44632405 -0.77219069 0.070721872
0.01304781 -0.27341345 0.38992643 -0.098468207 0.98929942 -0.10766003 0.016267316
-0.078456365 -0.3409431 0.37888193 -0.7840029 0.095880583 -0.61330777 0.058874898
0.035266262 -0.48739371 0.29396981 -0.51991791 0.056385379 -0.85235322 0.0019375473
0.15846504 -0.26927158 0.48644039 0.11535941 0.9892801 0.089538582 0.025911048
0.047577199 -0.49545258 0.28716871 -0.51032817 0.008477224 -0.85993797 0.0084195854
