# .PCD v0.7 - Point Cloud Data file format
VERSION 0.7
FIELDS x y z
SIZE 4 4 4
TYPE F F F
COUNT 1 1 1
WIDTH 1406
HEIGHT 1
VIEWPOINT 0 0 0 1 0 0 0
POINTS 1406
DATA ascii
-0.01224258 -0.560238 0.32530931
-0.087656721 -0.58653069 0.38184759
0.03577983 -0.46226561 0.30581701
0.01268731 -0.33332089 0.31906769
-0.055660009 -0.31296009 0.36823389
-0.052620862 -0.35882741 0.36060971
-0.036996711 -0.32735321 0.35556161
-0.023238011 -0.48562399 0.33775011
-0.0078872312 -0.2806797 0.3764061
-0.03609981 -0.2853466 0.35523039
-0.02876663 -0.30938211 0.35075659
-0.01665266 -0.3785736 0.34147421
-0.064455017 -0.36840931 0.37031731
0.04666492 -0.30084571 0.29995459
-0.036727671 -0.37974691 0.35182491
-0.084335797 -0.32676619 0.38863191
0.01702477 -0.3218728 0.31370971
-0.0066923951 -0.3305822 0.33236679
0.018080169 -0.31972021 0.31972679
-0.07378915 -0.34196699 0.3782399
-0.08789593 -0.3328703 0.38371941
-0.036822069 -0.3604542 0.35475579
-0.01756694 -0.33575851 0.33986819
-0.064895123 -0.38975739 0.37821421
0.02956355 -0.52084839 0.30325249
0.01430653 -0.4059872 0.31902829
-0.082829937 -0.377709 0.38112539
0.0073085409 -0.28754911 0.32378659
0.068131506 -0.27948549 0.37113479
-0.079215877 -0.34042749 0.37974939
-0.02547632 -0.3358492 0.34584591
0.02143524 -0.2921789 0.33157599
0.054412391 -0.27987659 0.29626289
0.1392263 -0.2693882 0.48025101
0.071283966 -0.38218689 0.2818301
0.095965087 -0.44127989 0.26965049
0.00024945661 -0.27385151 0.38386211
0.060965929 -0.279944 0.491907
-0.033303939 -0.29227841 0.35502991
0.1926647 -0.4703401 0.40728131
0.18933541 -0.28675219 0.39848021
0.1922621 -0.42970151 0.4064844
0.041576229 -0.2788491 0.30752459
0.033970062 -0.28656599 0.32258111
0.077696957 -0.28525409 0.2794486
-0.039578289 -0.30378041 0.3528921
-0.006529192 -0.27471209 0.34231761
-0.033558171 -0.27601051 0.37764961
-0.066701159 -0.2819241 0.38007289
-0.069313817 -0.34933129 0.37261349
0.0072217248 -0.2782172 0.3148635
0.02860558 -0.30745259 0.30288199
0.0132989 -0.3092258 0.31238839
0.1020024 -0.27067739 0.33313251
0.090654038 -0.26948369 0.44162941
0.1637961 -0.2837176 0.39502421
0.1319797 -0.26849589 0.3324357
0.1530093 -0.27722549 0.47823581
0.14408579 -0.26407659 0.39870119
0.1249871 -0.275581 0.4880192
-0.4074285 -0.56886411 0.79346168
0.1230188 -0.26574281 0.3582812
0.1093552 -0.27193081 0.46338111
0.1092187 -0.2668815 0.49380779
0.038034659 -0.30486739 0.30168799
-0.045873608 -0.3586103 0.3561112
-0.038791951 -0.3020871 0.3476333
-0.044907998 -0.3103354 0.3530902
0.092196599 -0.27602941 0.43615109
-0.038134251 -0.28873 0.34448621
-0.43158859 -0.59111857 1.101281
0.023958171 -0.31852609 0.30574489
0.074842937 -0.26651949 0.38704121
0.068183959 -0.27137011 0.38436049
0.01325216 -0.27117789 0.334555
-0.01202765 -0.2760044 0.4136841
0.017110299 -0.28409711 0.31558171
0.047963679 -0.26944309 0.3922435
0.02076135 -0.27670601 0.3149502
-0.34385201 -0.55933321 0.92887563
0.067534208 -0.27521089 0.3570722
0.0072347731 -0.2727212 0.35529011
-0.053855021 -0.33587679 0.35859379
-0.086545207 -0.47083151 0.37947929
0.063555583 -0.479458 0.28567719
0.01443348 -0.38685611 0.31918681
0.040392671 -0.43347281 0.29948139
0.17453431 -0.27230069 0.4733724
0.069505692 -0.27728689 0.3162702
-0.0018092101 -0.28095719 0.48674509
0.13855609 -0.27099001 0.3324441
0.14061619 -0.27466869 0.40995479
-0.017571989 -0.2739816 0.40550241
0.1576004 -0.27028811 0.4133203
-0.031411558 -0.2745645 0.42497009
0.1665118 -0.27310801 0.41049799
0.076031327 -0.27852821 0.5236541
-0.027396049 -0.27686831 0.41371399
0.05192396 -0.2617994 0.2986809
0.1393255 -0.27603769 0.3214944
0.1471207 -0.27305391 0.371234
0.1494882 -0.2726182 0.40987599
0.1029832 -0.2747117 0.33707061
0.15697651 -0.27212319 0.4362126
0.1553089 -0.27133551 0.44763821
0.01371303 -0.276216 0.4658393
0.03425416 -0.27367589 0.49774
-0.066858172 -0.26987731 0.40112099
-0.03084382 -0.27374011 0.3586216
-0.051689621 -0.27572 0.3674067
-0.01447949 -0.27000451 0.3448883
-0.033513188 -0.32610419 0.3476865
0.05929086 -0.274423 0.4667747
0.029663621 -0.27390161 0.52061027
0.0042323768 -0.37128171 0.31791651
0.1180469 -0.27037781 0.48166111
0.071582228 -0.27300739 0.45856541
0.13593151 -0.2691215 0.48989731
0.1128669 -0.28033409 0.51689488
0.1140114 -0.26719961 0.45803311
0.14045151 -0.27309659 0.42788959
0.13768759 -0.26978329 0.44862241
0.12903631 -0.27353171 0.45405689
0.2196254 -0.27641231 0.44676691
0.1454211 -0.2750234 0.31588009
0.115802 -0.27099761 0.45347601
0.1013928 -0.27417159 0.43350789
0.099234343 -0.2786763 0.43067721
0.080857068 -0.3854531 0.2754091
0.061954349 -0.34467849 0.283243
0.037843559 -0.2728242 0.54576182
0.075084478 -0.27222881 0.47379199
0.051611159 -0.27246669 0.4877882
-0.034117822 -0.27419841 0.43690071
0.01511207 -0.27422491 0.52681297
0.07261762 -0.268493 0.54589123
-0.050171658 -0.28127941 0.42616841
0.1152116 -0.27408111 0.32143241
0.1248447 -0.26103929 0.51299012
0.1425273 -0.26717249 0.50306678
-0.0055358112 -0.27068731 0.46106929
0.094245464 -0.3642337 0.26136199
0.1440154 -0.26660511 0.4768624
0.1228917 -0.27491871 0.44324729
0.01923129 -0.27067769 0.33236241
0.047988828 -0.31733409 0.291168
0.079956293 -0.27031061 0.33977261
0.01362389 -0.33693829 0.31571981
0.083711296 -0.3355436 0.26836759
0.04505292 -0.3539809 0.28980151
0.04087463 -0.45228729 0.29128161
0.020720329 -0.27508181 0.3781679
-0.021693259 -0.26682389 0.46744221
-0.01707199 -0.27333349 0.34557679
-0.02202329 -0.305217 0.3362821
0.1162557 -0.26895529 0.43957499
0.02950481 -0.2603513 0.4346891
0.02156451 -0.27018541 0.34701559
0.01837763 -0.2700868 0.3483116
0.073512018 -0.51890409 0.2662985
0.02582556 -0.31556091 0.30628851
0.036011431 -0.45922819 0.29697219
0.1044131 -0.27332351 0.3272281
-0.002658874 -0.27293059 0.39373949
0.1397689 -0.240146 0.48452559
0.17217059 -0.2752457 0.37794241
0.049742639 -0.26817119 0.3810263
0.02084416 -0.2737681 0.38475019
0.1369334 -0.26960701 0.3263337
0.05860066 -0.30427721 0.28683889
0.01298556 -0.27179009 0.38991389
-0.083152518 -0.34130791 0.37531361
0.03512368 -0.48739511 0.29372939
0.15953469 -0.25783309 0.48734239
0.047169659 -0.49543431 0.28654081
0.039301962 -0.26416001 0.49326181
0.080447324 -0.27066931 0.52374017
0.074933648 -0.2642065 0.47049749
-0.033823941 -0.27149019 0.44464621
0.01847467 -0.2681556 0.53039002
-0.003172457 -0.27110839 0.3599439
-0.019869709 -0.26736119 0.3705982
-0.07319051 -0.26859221 0.38185841
-0.061462119 -0.2718167 0.41992289
-0.051088389 -0.2660532 0.43526101
-0.071653843 -0.3361499 0.36973059
-0.02879646 -0.28248721 0.3427687
0.001365751 -0.2742708 0.461725
0.0054897959 -0.26935339 0.3252126
0.039263699 -0.57447499 0.65537101
0.052584078 -0.27454239 0.2889761
0.036132429 -0.58968937 0.64204472
-0.002254307 -0.33183339 0.32820821
0.035621971 -0.28314111 0.54906821
0.1125806 -0.26472381 0.52078909
-0.068477929 -0.37193719 0.3667627
-0.076614797 -0.5788694 0.446518
0.01042375 -0.27368829 0.45473111
-0.057788059 -0.27053121 0.37632599
0.1007049 -0.2645078 0.51025689
0.04060841 -0.26284751 0.34517229
0.1171924 -0.26240921 0.38160259
-0.00084087253 -0.278712 0.49147919
0.02661315 -0.27992949 0.55813402
0.26746351 -0.86923641 1.084402
-0.066133194 -0.3383683 0.36150539
-0.059293751 -0.56265509 0.50259727
0.023564991 -0.26898381 0.46200311
0.219837 -0.26882699 0.43866619
0.1215702 -0.2615042 0.50912952
0.17335311 -0.2540549 0.46522671
-0.0088267624 -0.29202631 0.3679662
-0.04130901 -0.27254719 0.36025959
-0.030511741 -0.27429891 0.35565981
0.1377943 -0.2713871 0.41020471
0.05479816 -0.29990971 0.28503051
-0.018583391 -0.27562809 0.42252851
0.059106559 -0.27131301 0.54707491
0.02204627 -0.278779 0.55701989
-0.084759578 -0.28893331 0.3787322
-0.076686829 -0.34539559 0.36879161
-0.018082799 -0.3473708 0.33443981
-0.03022665 -0.2688376 0.37417331
0.055089891 -0.26333261 0.29566449
0.037651692 -0.26073989 0.3392624
-0.067352682 -0.58493781 0.46779871
-0.02887651 -0.60166788 0.53532362
0.057097021 -0.58183563 0.67734778
-0.032438159 -0.3183094 0.3441245
0.04013899 -0.27428231 0.46714759
-0.0044845939 -0.27333361 0.40115261
-0.051306918 -0.2585834 0.37052
-0.01280627 -0.36620861 0.33363879
-0.038950648 -0.28646979 0.34679011
0.067466497 -0.3654137 0.27570659
-0.0498573 -0.2773636 0.3603085
0.003201067 -0.34381369 0.3156274
-0.057467561 -0.29105061 0.36152729
0.13056301 -0.26966679 0.41017991
-0.036773499 -0.27535129 0.3484157
0.034586221 -0.26793689 0.4115648
0.100226 -0.27142799 0.4321698
-0.066053897 -0.33925271 0.3620626
0.1104624 -0.2603766 0.33255589
0.1048506 -0.2786234 0.32207739
0.089309476 -0.26887849 0.2804521
0.1333295 -0.2697731 0.3290216
0.06469366 -0.27184969 0.3097657
0.117899 -0.2768628 0.31668991
0.1259921 -0.27075511 0.38676381
0.097181857 -0.2889691 0.2592769
0.083756797 -0.283014 0.27006859
0.1859818 -0.2794621 0.3811959
0.15818121 -0.26477399 0.39374799
0.054904129 -0.2996569 0.28449121
0.19584019 -0.2707153 0.41232029
0.096704207 -0.2678721 0.3627854
0.067470849 -0.27139959 0.3113021
0.1864797 -0.27480289 0.42394209
0.060167432 -0.27355921 0.28738189
0.1098478 -0.27329621 0.3797451
0.1340757 -0.2677623 0.3248294
0.16465209 -0.27018601 0.41196451
0.1480111 -0.26401749 0.40659019
0.1415555 -0.26932481 0.42563671
0.096912503 -0.27074549 0.2607421
0.1540174 -0.26686969 0.44945139
0.1955592 -0.26482001 0.44781461
0.07947126 -0.26814419 0.33286241
0.099208467 -0.2870959 0.2563782
0.1256329 -0.269714 0.39945811
0.052942839 -0.2723349 0.2891776
0.099242933 -0.30060619 0.25748369
0.164638 -0.27286029 0.33956519
0.064402074 -0.27605799 0.27993619
0.09054932 -0.28490159 0.262871
0.2288368 -0.27405661 0.43065929
0.097800277 -0.31503731 0.25666791
0.047120988 -0.29044691 0.28601879
0.079528838 -0.32985181 0.26898471
0.073087901 -0.32439151 0.26306701
0.064643092 -0.34522679 0.28471979
0.088028222 -0.5720107 0.2515929
0.03001049 -0.45138159 0.29443559
0.058247302 -0.31889001 0.28195059
0.095227033 -0.36821851 0.25882459
0.01845387 -0.36089459 0.32868931
0.1125025 -0.33495769 0.26350719
0.096338779 -0.33978719 0.25959891
-0.024203541 -0.28024501 0.43572789
-0.03120989 -0.27009001 0.40801951
0.071620353 -0.2703512 0.51608312
-0.01442891 -0.27624911 0.42506641
0.037569139 -0.26605031 0.48991269
-0.07159102 -0.270282 0.3898696
-0.044215411 -0.26493689 0.35781401
0.076281637 -0.26890031 0.51842588
-0.039315999 -0.27354321 0.41748261
0.056431379 -0.27636501 0.55004311
0.1049809 -0.27037179 0.51466882
-0.035122961 -0.26714471 0.39416471
0.05181795 -0.26330081 0.53670162
-0.02802697 -0.27209991 0.45496601
0.040210221 -0.2714335 0.47300389
0.0691908 -0.26368639 0.46627
0.02335027 -0.26654649 0.53146923
0.003104717 -0.27458721 0.40971771
-0.02816635 -0.2647815 0.46327469
0.032440271 -0.2686573 0.49714449
-0.031230841 -0.2647258 0.4198519
-0.04753232 -0.26622409 0.3660104
-0.074867547 -0.4556371 0.36232939
-0.065457217 -0.35883179 0.3631894
-0.072842449 -0.32842249 0.3659986
-0.080393083 -0.3131257 0.36884719
-0.077220619 -0.45507839 0.36630401
-0.042076711 -0.30033419 0.34888309
-0.069832921 -0.44330761 0.3718231
-0.067733727 -0.32757249 0.36112621
-0.02412561 -0.48340881 0.34375319
-0.082815863 -0.52407372 0.37878501
-0.082804978 -0.30821991 0.37444299
0.01239926 -0.55438828 0.55442899
-0.082784154 -0.32266971 0.37129971
-0.071153253 -0.36335021 0.3631126
0.1420372 -0.2687631 0.34735161
0.092892081 -0.29923639 0.26155689
0.18852989 -0.26596749 0.42923221
0.0565258 -0.2726655 0.32597351
0.032364931 -0.278386 0.30564111
0.095014147 -0.35606971 0.26087281
-0.0002306402 -0.49720669 0.30552021
0.081734933 -0.58148158 0.23133349
0.097240753 -0.2675375 0.48949891
0.04522955 -0.2660298 0.4518407
-0.056809809 -0.26969519 0.4158724
0.024076249 -0.2707884 0.515113
-0.070503034 -0.33758 0.37196559
-0.066806167 -0.44000399 0.37023139
-0.067225069 -0.27582681 0.35817459
0.038917989 -0.58193618 0.65809143
0.025517199 -0.27623951 0.44384041
-0.070217252 -0.39329529 0.37136301
-0.070855558 -0.3129268 0.36128801
-0.084727697 -0.44848499 0.37025401
0.0049842889 -0.56078148 0.5411309
0.1411318 -0.26844329 0.41078949
0.05049314 -0.27040431 0.29493931
0.041015539 -0.55257899 0.28620261
0.01224518 -0.39591411 0.3099446
0.079126462 -0.38730589 0.26101491
0.087922603 -0.5000999 0.2595219
-0.060202569 -0.40262619 0.35582799
-0.05273762 -0.57892191 0.32315329
0.040023729 -0.35229409 0.28420699
-0.01069567 -0.42716119 0.31760219
-0.02513786 -0.45178741 0.33357561
-0.087690637 -0.54275042 0.369526
-0.091355287 -0.54351163 0.364519
-0.044255111 -0.56588727 0.33963019
-0.088599756 -0.51295131 0.36657321
-0.065156236 -0.5029617 0.3570278
-0.06089066 -0.43541691 0.3470532
-0.048167791 -0.3815411 0.34439409
-0.064956963 -0.5227524 0.35962629
-0.089542598 -0.43561181 0.3688015
-0.073328197 -0.4756662 0.35821849
-0.070711993 -0.4498553 0.35756171
-0.071216032 -0.46321651 0.36158451
0.066070817 -0.36666799 0.2751759
0.086171627 -0.53661442 0.2577118
-0.037216369 -0.287994 0.35006741
0.1002388 -0.53615749 0.25404659
-0.01212186 -0.327586 0.32987839
0.047235381 -0.30027819 0.2959061
0.022296119 -0.3128351 0.30428591
-0.01638875 -0.2892184 0.33897331
-0.064689472 -0.35710719 0.36937129
-0.022445129 -0.30015469 0.33244139
-0.045451399 -0.30075359 0.35157901
-0.037231151 -0.27867451 0.35099939
0.082105517 -0.28312051 0.27396521
0.04540614 -0.3178975 0.29377609
-0.001486465 -0.3256461 0.33097059
-0.0039331471 -0.33000529 0.32878709
-0.028205071 -0.28690991 0.34519231
-0.017207179 -0.27378809 0.34888369
0.079681009 -0.27118051 0.31978351
0.1074311 -0.27297249 0.3365134
0.05885876 -0.26847059 0.2987445
-0.032901909 -0.27219021 0.35994929
-0.067183517 -0.35976151 0.36787841
-0.02303973 -0.30132899 0.3382279
0.13199539 -0.26403731 0.48749569
-0.001655855 -0.27203459 0.3458398
-0.0022172779 -0.27843371 0.49325731
-0.033463951 -0.3568047 0.34865159
0.1959237 -0.2730481 0.45886561
0.082709998 -0.27181509 0.29175001
0.1382186 -0.27265751 0.33562589
0.1419092 -0.26794821 0.47545981
0.0041749701 -0.34989271 0.31761259
0.01441774 -0.3508628 0.31702039
0.067140684 -0.2724241 0.51894063
0.034614999 -0.27233431 0.44442749
-0.039013851 -0.27378091 0.37244719
-0.048374251 -0.27369899 0.42538521
-0.017800091 -0.28913879 0.33612251
0.036104739 -0.2766735 0.35973689
0.024616649 -0.27900389 0.4064382
0.072754763 -0.27156571 0.47445419
-0.03985868 -0.30180901 0.34840351
0.047332838 -0.27052549 0.42919219
-0.057987481 -0.3849397 0.35524371
0.001923628 -0.3591826 0.3150669
-0.070105843 -0.3302654 0.36504829
-0.084015884 -0.31368601 0.3808299
0.048732191 -0.26933709 0.31637949
0.01579337 -0.3313677 0.31429741
-0.016453549 -0.35582981 0.33963731
0.075162873 -0.277255 0.37425259
0.032525871 -0.27460891 0.47127411
0.04458775 -0.27212179 0.36611259
0.098734722 -0.2765407 0.2664372
0.052921981 -0.278579 0.29283449
0.0574109 -0.2722463 0.5495494
0.1179977 -0.26752639 0.4978019
0.098077588 -0.28230441 0.4366625
0.056011721 -0.2658557 0.5272162
0.117909 -0.27263701 0.418984
0.034754328 -0.26990181 0.37132269
0.02055246 -0.27122509 0.35001051
0.064214811 -0.3402451 0.2816883
0.093413837 -0.30256131 0.26479489
0.12632839 -0.27504829 0.45008951
0.1777432 -0.27446929 0.4238199
0.097984262 -0.27238831 0.44752711
0.098446809 -0.2704919 0.37381801
0.1711477 -0.2763474 0.38097239
0.1667099 -0.27223739 0.41375321
0.07099393 -0.27534771 0.32028201
0.029833149 -0.27288619 0.34439439
0.13967299 -0.2710475 0.32976201
0.08198759 -0.27036679 0.33691561
0.045194011 -0.3539277 0.29088289
-0.032978099 -0.27495429 0.42713171
0.059556089 -0.2717427 0.41180861
0.0306968 -0.2711511 0.3550013
0.006100832 -0.26893231 0.36875811
0.1078483 -0.27791959 0.51810938
0.01332814 -0.27268299 0.39336291
-0.029812319 -0.2728771 0.41271049
-0.003280906 -0.2743865 0.36785209
-0.04691359 -0.27177939 0.38288209
-0.08166752 -0.2746183 0.3840425
-0.023997569 -0.26988119 0.4696328
-0.045101851 -0.27049541 0.37013531
0.037278399 -0.26732531 0.4223763
0.053299941 -0.27207831 0.39858541
0.03859077 -0.27467501 0.47086439
-0.068292968 -0.27379921 0.40649751
0.054421969 -0.27932131 0.39260039
0.015715189 -0.2734201 0.44372311
-0.02559294 -0.2732231 0.44004259
-0.062750489 -0.38723639 0.3570435
-0.075270399 -0.3317112 0.3699902
-0.0230726 -0.3843163 0.33551389
-0.03106923 -0.4768531 0.33753359
-0.089286007 -0.55075461 0.37221289
-0.04364552 -0.47652099 0.35143191
-0.01263425 -0.37686321 0.33594131
0.093881018 -0.3569946 0.260784
0.06181749 -0.27147239 0.47039011
0.03435931 -0.27114129 0.39100039
0.099094257 -0.37844029 0.2605502
0.1195568 -0.27303281 0.43071279
-0.05914522 -0.29116461 0.3644211
0.094531 -0.29241481 0.26181439
0.080105521 -0.4330155 0.26495591
0.03053098 -0.27844411 0.52985942
0.1268591 -0.27537161 0.35017341
0.018851129 -0.27383831 0.33709541
0.085764498 -0.27513611 0.3663967
0.16127101 -0.27318209 0.42046061
0.080503397 -0.2789512 0.53406727
0.1553854 -0.2718834 0.43818939
0.1152878 -0.27354041 0.4657833
0.078214876 -0.26501569 0.47195911
0.093574949 -0.39052859 0.2594178
0.050161451 -0.49046919 0.2830908
0.07473518 -0.37760219 0.27430999
0.021609699 -0.41542539 0.31922099
0.099868923 -0.43755871 0.2592217
0.083052807 -0.41156629 0.2679458
0.083577812 -0.3364737 0.2706165
0.06364397 -0.34872931 0.28783041
0.020022919 -0.48560491 0.30535239
0.069025293 -0.37017751 0.27922219
0.092603169 -0.58086002 0.2583935
0.016857371 -0.42004189 0.31789649
0.081524722 -0.37513211 0.2680822
0.076457173 -0.52872628 0.27028549
0.042204749 -0.5565567 0.289307
0.04076796 -0.41082171 0.2982522
0.068830967 -0.44604191 0.277132
-0.0066968258 -0.47108021 0.31996819
-0.001803132 -0.28812501 0.37030411
-0.05329122 -0.27623731 0.37160119
-0.032490078 -0.37735099 0.34960261
-0.057040341 -0.5501408 0.34896129
-0.03052628 -0.54570061 0.33644921
-0.080431998 -0.48845059 0.37151131
-0.079131857 -0.36862329 0.37091589
-0.02395577 -0.453933 0.33563751
-0.026506931 -0.52186328 0.33314091
-0.060386229 -0.38030961 0.365125
0.088681467 -0.27874029 0.32755271
0.086749554 -0.2739341 0.4213061
0.19127449 -0.2605876 0.47288531
0.1529935 -0.25791419 0.49800399
0.091541857 -0.47050679 0.2614198
-0.001522348 -0.58503032 0.23538721
-0.060392991 -0.27211311 0.3853012
-0.04532649 -0.43500099 0.35927179
0.17914049 -0.279392 0.39046091
0.035443541 -0.49297699 0.2963199
0.1444615 -0.2772758 0.50180942
0.04856332 -0.30570269 0.29675499
0.13800301 -0.27114999 0.452889
0.1150515 -0.27023521 0.45622849
0.090692379 -0.27902699 0.26898751
0.1204755 -0.2679989 0.39551511
0.055250131 -0.35831881 0.27758351
0.024073061 -0.31503579 0.30696541
0.093529657 -0.27607009 0.2798692
0.048041899 -0.51645201 0.2861962
0.1414268 -0.27721739 0.40158701
0.16045099 -0.2757034 0.48655981
0.064105123 -0.29651281 0.28338319
-0.22756369 -0.57851928 0.29131889
0.082692593 -0.2705135 0.3944701
0.12697969 -0.26765719 0.52119231
0.2007262 -0.28932589 0.4026728
0.1135065 -0.27113611 0.27609739
0.14856181 -0.2687296 0.41026071
0.061685849 -0.55327553 0.27122271
0.1350704 -0.26691279 0.42325211
0.079088308 -0.26930031 0.34101751
0.111668 -0.27052531 0.30412829
-0.025381951 -0.4542399 0.33522099
-0.04261145 -0.55615193 0.33414781
0.031679548 -0.2576364 0.54405028
-0.073751047 -0.55541772 0.36129379
-0.033568721 -0.26554671 0.43104959
-0.084526323 -0.60776359 0.38206139
-0.03143492 -0.2840848 0.34952149
-0.089809932 -0.54002458 0.37780991
-0.083553433 -0.2930479 0.38316941
-0.042967319 -0.27467969 0.40563741
-0.08694154 -0.60955179 0.80462247
0.1171248 -0.27056831 0.48534629
0.18726499 -0.26965681 0.45442629
0.045891389 -0.28133789 0.51380932
0.086321183 -0.27288929 0.36139151
0.05852814 -0.26624641 0.35724229
0.1822222 -0.27079821 0.46424329
0.1429888 -0.26442119 0.4741959
0.1447138 -0.27066821 0.37279159
0.1824685 -0.27014229 0.41173449
0.1624016 -0.27444109 0.47767979
0.091746181 -0.27285981 0.2871505
0.1365397 -0.27221891 0.40899909
0.060943302 -0.27384809 0.47309491
0.1216328 -0.27198991 0.38683259
0.087130234 -0.2722061 0.30496889
0.073026843 -0.27313659 0.32765159
0.096428066 -0.27061221 0.3608005
0.1028509 -0.2715084 0.3306548
0.02075211 -0.27306399 0.43340889
0.073254481 -0.4056468 0.28761011
0.01225741 -0.27404109 0.46760339
-0.03290306 -0.27053049 0.35737091
0.037421029 -0.27251911 0.54792118
0.01544663 -0.27191249 0.51227897
-0.019239681 -0.27418321 0.37623239
-0.034472331 -0.26736549 0.44407001
0.01324163 -0.26952881 0.52396512
-0.062872283 -0.27015579 0.40685651
-0.0035652779 -0.27262649 0.39652109
-0.01680419 -0.27446419 0.40849301
-0.023731681 -0.27571249 0.4541629
-0.0082514985 -0.2857646 0.4387427
0.023309151 -0.2789332 0.54612529
-0.0214634 -0.41451579 0.3368555
-0.072717734 -0.43009841 0.36550131
-0.03036486 -0.50860351 0.34291059
-0.024543921 -0.38242769 0.33968961
-0.069688678 -0.45690039 0.3762778
-0.042747531 -0.50283867 0.34706321
-0.045247689 -0.38941151 0.35557851
-0.040841971 -0.4159272 0.3473402
-0.1856997 -0.58463579 0.25924879
-0.1051722 -0.58274788 0.37531331
-0.1978074 -0.58139968 0.27041611
-0.1378343 -0.58692318 0.36173609
-0.1407567 -0.58013088 0.32976601
-0.055626731 -0.58334231 0.28203031
-0.12955619 -0.58590508 0.2731851
0.1179791 -0.27024391 0.4168528
-0.0064573721 -0.27302909 0.40906349
0.01096061 -0.27638081 0.42156911
0.01251454 -0.27792919 0.45873699
0.082212418 -0.2782377 0.3093611
0.050083108 -0.27533501 0.49178639
-0.01005475 -0.26989529 0.38521931
0.032374911 -0.26901829 0.49717161
-0.02169434 -0.26975849 0.48521969
0.02560392 -0.26581779 0.4176673
-0.006984578 -0.55477238 0.3190023
0.1127981 -0.2733067 0.3855429
0.1276319 -0.27418241 0.45759571
0.050123081 -0.278184 0.54710561
-0.2565797 -0.58721602 0.2032547
0.025887741 -0.2767016 0.41561031
-0.1201687 -0.58469951 0.30180141
0.071737647 -0.2702463 0.29131651
-0.1813817 -0.58251649 0.2821179
-0.067216538 -0.32494029 0.37584299
0.2195476 -0.2756595 0.45105171
0.067028083 -0.27346349 0.3953653
0.169778 -0.26936641 0.4740583
-0.1562537 -0.58390409 0.36260319
0.056757711 -0.27483121 0.45623749
0.128282 -0.27476639 0.37101591
-0.042428289 -0.32916731 0.3461045
0.1534631 -0.26843289 0.44776389
-0.2191115 -0.58011723 0.2235333
0.092304237 -0.2718423 0.37971121
0.02831297 -0.365639 0.31076691
-5.7015801e-05 -0.37225839 0.33281121
0.089731902 -0.27023539 0.34801921
0.035799589 -0.27232739 0.3370519
0.066290297 -0.26932651 0.50571889
-0.33534041 -0.5601126 0.94136637
0.13220111 -0.27332991 0.31846869
0.19791541 -0.2778385 0.40870169
0.02136807 -0.265641 0.43889099
0.12917919 -0.2852219 0.41804129
-0.016743639 -0.56548607 0.32063559
0.01055142 -0.27385709 0.3303144
0.062337089 -0.27104941 0.42401919
0.048837472 -0.30865431 0.2967822
0.049274702 -0.27241501 0.4194614
0.1181301 -0.27512649 0.47573909
-0.016579861 -0.47187451 0.3327252
0.2127948 -0.2675105 0.42690659
0.063945383 -0.26924619 0.35076621
0.1152476 -0.27207929 0.34399459
0.042146999 -0.27202299 0.40025571
0.1364044 -0.2712909 0.34754011
-0.01327482 -0.32569921 0.32977289
0.077497333 -0.26861131 0.38044989
0.21628881 -0.2678991 0.42110661
0.2192256 -0.27272499 0.4664678
0.3955631 -0.74719453 0.52543283
0.36087129 -0.58643728 0.38748801
0.45489559 -0.82301962 0.52939379
0.20885199 -0.28535241 0.4123022
0.47322351 -0.83234358 0.68106008
-0.05332543 -0.26993299 0.3660939
0.052328698 -0.2737948 0.3873437
0.1365924 -0.26817131 0.44917691
0.1200093 -0.26846689 0.39520559
-0.1381748 -0.5861727 0.3581596
-0.14364441 -0.59038663 0.3348521
0.177471 -0.27622011 0.38835019
0.21791869 -0.2773484 0.45396701
0.1990266 -0.28534639 0.4166638
0.2300929 -0.2826061 0.44599661
0.21457981 -0.2691896 0.41987151
0.19755331 -0.28407699 0.39804271
0.1666034 -0.26761591 0.34721571
0.2004755 -0.31006059 0.40977299
0.1284907 -0.31233001 0.3001945
0.1248007 -0.27187139 0.3478559
0.082902446 -0.27510291 0.29648271
-0.033903081 -0.2718015 0.425796
0.01103345 -0.27360761 0.46771941
-0.043112811 -0.2736083 0.40516099
0.1726077 -0.26634139 0.4159542
0.1431368 -0.2630868 0.47778049
0.1873605 -0.2706731 0.4586767
0.1242721 -0.27134269 0.45190081
0.1590751 -0.27082929 0.41866639
-0.032515381 -0.2714234 0.41211611
0.068100289 -0.2713252 0.52248538
0.03441957 -0.27345741 0.44440791
0.084323563 -0.2817468 0.27644929
0.078205436 -0.2651808 0.31343979
0.074762084 -0.26510689 0.47328231
0.1608588 -0.2710962 0.4782913
-0.050029069 -0.27639031 0.43564749
0.03060839 -0.27218369 0.52676082
0.033325151 -0.26709059 0.3939628
-0.02615157 -0.28618199 0.34872931
0.058360789 -0.2722328 0.2836951
0.045553818 -0.26838869 0.36729699
0.1721846 -0.27572101 0.48479861
-0.073314741 -0.33435589 0.37329641
-0.01501249 -0.28914681 0.3403838
0.2020991 -0.2731688 0.45998001
-0.047168579 -0.34484181 0.35019961
0.1227898 -0.27593791 0.43530911
0.098935783 -0.27380699 0.26626831
0.1775381 -0.27413231 0.44811881
-0.032854378 -0.31831181 0.3480134
-0.066275157 -0.35914379 0.3693727
0.1009466 -0.32833731 0.26352721
0.074905112 -0.271074 0.3902688
0.14108109 -0.27247301 0.4325884
0.05703922 -0.30385241 0.2913731
0.048053011 -0.31929111 0.29907149
0.082533449 -0.329788 0.2675755
-0.019591959 -0.2757192 0.4270339
-0.017296391 -0.26772431 0.40734091
-0.080885433 -0.30542591 0.37849641
0.078955621 -0.3273845 0.268852
-0.05862473 -0.29283339 0.36793149
-0.031841669 -0.30592611 0.34965569
0.100234 -0.2677072 0.49980301
-0.019054091 -0.2848286 0.33913329
-0.0186632 -0.30768269 0.3423557
-0.045399401 -0.30235901 0.35667679
0.00081004202 -0.3238183 0.33313739
-0.001857072 -0.32834989 0.3325291
-0.076742493 -0.31987369 0.37928751
0.01827674 -0.32980129 0.31622499
-0.01527338 -0.35342059 0.341566
-0.072442219 -0.3431991 0.38369459
-0.062474951 -0.28206241 0.3711803
-0.01078187 -0.33257291 0.33795071
0.060153261 -0.32315701 0.28961319
0.045907568 -0.30282971 0.30104479
-0.084366247 -0.32746691 0.3816182
0.0157515 -0.3494758 0.32063171
0.01195334 -0.28409389 0.3201341
-0.0307847 -0.33828509 0.347965
0.0059210062 -0.3528522 0.3240402
0.1237536 -0.26835489 0.34408021
0.1042786 -0.2667881 0.33484769
0.089946881 -0.271299 0.28919309
0.065637343 -0.34069479 0.2847662
0.07916297 -0.27822489 0.37826371
-0.03235377 -0.26755121 0.35675371
0.085163549 -0.27277231 0.2965886
0.093330011 -0.30331159 0.26803941
0.092187643 -0.28919891 0.25878429
-0.067138702 -0.31865731 0.36967689
-0.064398177 -0.3441191 0.37146801
0.03080748 -0.2820839 0.31513989
0.008113727 -0.2695961 0.37481129
0.00099618733 -0.26869109 0.3822251
0.1287434 -0.26702139 0.47914451
0.1815971 -0.26004559 0.44583929
0.1381781 -0.26778319 0.33038649
0.095594212 -0.3915081 0.26246169
0.075754568 -0.27345711 0.53230798
0.04820748 -0.2801635 0.52271062
0.03031175 -0.26308179 0.49759531
0.2073385 -0.27196291 0.44253999
-0.052624062 -0.3104977 0.3628847
-0.06062616 -0.26999381 0.4382143
-0.084426507 -0.50482613 0.3820371
-0.017382519 -0.57849568 0.33294079
0.054799479 -0.57720059 0.28523529
0.017924 -0.3080329 0.3170962
0.1671105 -0.26771399 0.4001427
0.18436991 -0.27336749 0.4679442
0.05665784 -0.271552 0.41717461
0.1533975 -0.26803511 0.41591659
0.04973869 -0.27120781 0.35652751
0.101058 -0.272165 0.31636059
0.1009634 -0.2664496 0.33138469
0.068256572 -0.27436689 0.31805411
0.0443465 -0.3661707 0.30182299
0.095610313 -0.5006606 0.25985819
0.089497849 -0.3824414 0.2544024
0.066395856 -0.56454128 0.2780869
0.045145139 -0.35319689 0.29095221
0.097443447 -0.43027419 0.25616071
0.083093539 -0.3956117 0.2712695
0.094239831 -0.57746452 0.25954989
0.026441559 -0.36115521 0.31344691
0.044237509 -0.56359923 0.2935937
-0.0019735841 -0.2792336 0.49859509
-0.0078455806 -0.25803199 0.4976244
-0.06045248 -0.39582169 0.36504459
-0.03015955 -0.37157789 0.34966719
-0.034109559 -0.2757796 0.35053381
0.02198674 -0.27335551 0.406335
-0.042081282 -0.27423519 0.38714519
0.0075256382 -0.27829251 0.42366999
-0.01107971 -0.3748464 0.33853379
-0.057552319 -0.38273081 0.35604081
0.01542346 -0.2739926 0.3288362
0.1281787 -0.28959271 0.3212465
0.1030946 -0.36539921 0.27910799
0.077720031 -0.40095621 0.32427159
0.079766259 -0.383396 0.25806499
-0.0831967 -0.31034279 0.38071719
0.081546709 -0.54136771 0.26774561
0.073589757 -0.5593282 0.2733441
0.09160237 -0.52497941 0.2574071
0.1018707 -0.2905643 0.2645472
0.1663225 -0.27103779 0.344769
0.091914669 -0.33023089 0.26738641
0.049633011 -0.2735267 0.30080649
0.02520667 -0.25343639 0.347193
-0.075674459 -0.3517575 0.37707001
0.090904437 -0.55375648 0.2549991
0.081413969 -0.56322271 0.26612401
0.073778108 -0.2737757 0.28463331
-0.06143013 -0.3795141 0.3661989
0.1000661 -0.37781969 0.26282549
0.098976783 -0.56566298 0.26013881
0.01069497 -0.27724311 0.31527829
-0.034143221 -0.3947919 0.3491331
-0.041379079 -0.53731662 0.33946371
0.1010715 -0.31983581 0.26539961
0.099933162 -0.45771411 0.25589371
0.036950931 -0.55815601 0.30078009
0.031725962 -0.33706751 0.30597141
0.15544569 -0.2648634 0.463229
0.067013569 -0.266736 0.51344752
-0.05407453 -0.30290779 0.35522079
0.0600655 -0.26669729 0.54880708
-0.001459226 -0.31672749 0.32527629
-0.02787986 -0.366887 0.34638029
-0.072728977 -0.2664305 0.38827601
0.01529289 -0.34876329 0.3182551
0.001732171 -0.35979491 0.3298997
0.030619569 -0.2732178 0.53259408
0.034843709 -0.26787031 0.32512709
-0.3133074 -0.57806921 0.88325489
0.1143045 -0.26361251 0.43577901
-0.32494119 -0.58192962 0.82942468
0.022475 -0.26807189 0.41829491
-0.34269351 -0.55451667 0.93842107
0.1137496 -0.26005819 0.40294299
0.081919201 -0.273251 0.2959429
0.079490133 -0.26388159 0.3119514
0.080536969 -0.27391529 0.26590329
0.059911381 -0.27329361 0.4786486
-0.005402572 -0.27621031 0.35996529
0.03981695 -0.2562063 0.333125
0.1281822 -0.26745719 0.49516869
0.1081504 -0.27168041 0.33780071
0.073353738 -0.37610009 0.27368161
0.066138893 -0.3389231 0.2819806
0.01122895 -0.26944879 0.4630186
0.18781149 -0.27389339 0.47096559
-0.018551949 -0.2687386 0.3455542
0.033189509 -0.3469882 0.2791945
0.058330361 -0.2679283 0.41061211
0.05534498 -0.27511409 0.4439176
-0.070049927 -0.45842999 0.36609551
-0.0069091772 -0.2655068 0.3993147
0.1034974 -0.2473039 0.42628729
-0.095931128 -0.51017171 0.360232
-0.028067181 -0.28172451 0.3416416
-0.015683221 -0.3535516 0.33934101
0.080390833 -0.2754533 0.26745871
0.03673495 -0.28006589 0.53099191
-0.003156818 -0.265273 0.3342067
-0.077690966 -0.32545251 0.35944021
0.074135363 -0.37201041 0.27123091
-0.049392451 -0.3421016 0.3442044
-0.075259723 -0.42125681 0.3542468
0.1335941 -0.2757442 0.3803913
0.1011234 -0.3971768 0.2672511
-0.35907269 -0.58384752 0.7397126
0.1214274 -0.26378021 0.33781329
-0.015631391 -0.31309801 0.34951401
0.073908933 -0.37950751 0.25549409
0.000134781 -0.3262668 0.32857421
0.073804423 -0.51587647 0.26263019
-0.0057820529 -0.26335901 0.50913662
0.02178872 -0.26260871 0.3880226
0.02106679 -0.29493451 0.33637711
0.097950801 -0.43230659 0.25833529
0.09368185 -0.4177047 0.2625151
0.1946314 -0.25803709 0.46366069
-0.018764621 -0.33320239 0.34166431
0.087267481 -0.26698199 0.41437241
0.089791752 -0.4694348 0.25815681
0.1047675 -0.32999381 0.2661075
0.1562468 -0.26629889 0.33432731
0.01254515 -0.26029801 0.33780551
0.051055539 -0.51466721 0.289702
0.083446242 -0.26604739 0.35507679
-0.075984433 -0.28846091 0.3761276
0.081100672 -0.56694072 0.27739891
0.0196524 -0.3007217 0.30749959
0.02814891 -0.40066761 0.33263269
0.073334493 -0.47027341 0.27518079
0.078392006 -0.52397043 0.2927652
0.1418788 -0.2640439 0.4731867
0.088066317 -0.2714037 0.2892428
0.058562908 -0.24592011 0.42494321
-0.06576746 -0.4733685 0.33820629
-0.02588262 -0.42735621 0.4302581
-0.045321561 -0.32153061 0.3097769
-0.47377431 -0.55456418 0.80937231
-0.069902383 -0.27133551 0.39465791
0.091410659 -0.48882419 0.25460041
-0.59712201 -0.58724469 0.54814643
-0.67721069 -0.57904547 0.75358719
-0.63760692 -0.58288062 0.66194248
-0.57765692 -0.59876293 0.69448179
-0.030802671 -0.28966901 0.34397119
0.01584688 -0.2682803 0.33431911
0.076957203 -0.25359541 0.2979722
-0.028879169 -0.52186418 0.37921661
-0.0054075718 -0.27173159 0.3415885
-0.068597317 -0.5148077 0.3804189
-0.06208232 -0.36393559 0.32266399
0.01384717 -0.32717589 0.31465641
-0.040040851 -0.28293121 0.35611379
-0.021901909 -0.36468479 0.35444859
-0.064910412 -0.49772891 0.36013719
-0.077323258 -0.33000249 0.36664739
-0.01816499 -0.53743738 0.32724291
0.059715301 -0.3293606 0.27229851
-0.0521718 -0.2969256 0.3462221
-0.04778498 -0.3466312 0.34398279
0.003048748 -0.36941609 0.32094991
0.02575797 -0.55377442 0.33853629
-0.08143276 -0.46214911 0.40343469
-0.002210587 -0.3128117 0.32735831
-0.02935165 -0.3500106 0.32391599
-0.078842938 -0.46257791 0.37424669
0.022929311 -0.2934036 0.2788966
-0.023851721 -0.40614459 0.32937679
-0.0447818 -0.4542914 0.33777681
0.002566546 -0.51208061 0.32080269
-0.029849799 -0.50131178 0.3369852
0.001415253 -0.45116109 0.33221191
-0.070559204 -0.50033581 0.33489299
-0.028429 -0.51852143 0.37570819
-0.42028341 -0.6988405 1.290719
-0.077012509 -0.336943 0.3766821
-0.01037636 -0.55505759 0.32151991
-0.01977673 -0.28458261 0.3111645
-0.092189401 -0.51145661 0.4583455
-0.0038724539 -0.32245091 0.32722691
0.076457679 -0.4319227 0.29630169
-0.043956041 -0.53534579 0.35336471
0.01478049 -0.34312949 0.3154538
-0.00031062961 -0.35199979 0.31839311
-0.078718513 -0.47849169 0.36556369
-0.067496061 -0.3519471 0.36304611
-0.078913882 -0.3645055 0.36308751
-0.090815566 -0.54792333 0.37685859
-0.35489491 -0.59006828 1.07543
0.029904131 -0.42274541 0.30322471
0.071398877 -0.54666072 0.2660585
-0.02515793 -0.4466702 0.32919499
0.0045170779 -0.52806121 0.30334961
-0.044971108 -0.3733913 0.33852401
-0.086927883 -0.4074339 0.39238739
-0.61772889 -0.58029902 0.46385339
-0.60486042 -0.54847437 0.43465391
-0.66848969 -0.56879538 0.66135871
-0.67519122 -0.58933741 0.39491811
-0.63307512 -0.58376658 0.44287771
-0.51895142 -0.51948792 0.80004668
-0.60923052 -0.62132889 1.153065
0.15660229 -0.2678054 0.41628441
0.072528183 -0.26734409 0.34523031
-0.61900997 -0.57542181 0.90308511
0.1667532 -0.26361009 0.37061459
0.1938834 -0.27424011 0.40533939
-0.032160278 -0.27376121 0.44529909
-0.05591261 -0.27486989 0.43200871
0.1799359 -0.28094649 0.43311781
-0.05128086 -0.2796309 0.41574231
0.2063859 -0.2763384 0.43330121
0.048247341 -0.27722239 0.479601
0.18233649 -0.27438161 0.42153931
0.18853439 -0.26841471 0.46491119
-0.58583713 -0.60561001 1.0611041
-0.4902086 -0.56397688 0.9863019
0.2220443 -0.2385243 0.34852171
0.1609382 -0.2776652 0.3570489
0.1787682 -0.31262469 0.42222691
0.1770983 -0.3033106 0.42176029
0.2260903 -0.32986149 0.42265129
0.1552871 -0.2674365 0.41568041
-0.035050571 -0.2750017 0.42505589
0.095366538 -0.35402411 0.26934639
-0.1113634 -0.29315129 0.40507939
0.053377029 -0.26986471 0.36079061
0.099946558 -0.2770282 0.4382506
0.02195221 -0.27248651 0.49070609
0.002006114 -0.27558509 0.48530969
0.059343461 -0.27037719 0.46293941
0.092039347 -0.41620371 0.26442969
0.090757847 -0.52207237 0.25560841
0.1742924 -0.27013081 0.41888571
0.1410816 -0.27192029 0.37252209
0.021630351 -0.2744711 0.51173508
0.015632991 -0.2750811 0.50813931
0.036036968 -0.27240539 0.35326871
0.01294422 -0.266772 0.52166963
0.01025194 -0.27264261 0.46551499
0.19607501 -0.2856735 0.3973718
0.1762435 -0.42903459 0.36164731
0.046148419 -0.27109969 0.53393352
0.223362 -0.3250131 0.44547051
0.1918769 -0.47799221 0.40633109
0.2118713 -0.4065038 0.43256569
0.2127305 -0.5047906 0.427966
0.22170641 -0.34584811 0.44488609
0.1157499 -0.27222061 0.38709119
0.044083089 -0.2691178 0.41914541
0.05242062 -0.26970479 0.38351461
0.1742388 -0.27676609 0.37752381
0.1448258 -0.3812575 0.3254317
0.1527898 -0.3562884 0.34433401
0.2136907 -0.33544281 0.42797339
0.1495261 -0.2720705 0.4761878
0.067851752 -0.27435669 0.38036761
0.20944101 -0.27213681 0.4422791
0.1225093 -0.26748651 0.42111129
0.2031302 -0.45916331 0.4672915
0.081983209 -0.27169281 0.32826069
0.092276514 -0.26860201 0.43274519
0.156901 -0.27392751 0.39242351
0.20543119 -0.39348081 0.4171724
0.1870472 -0.4318715 0.3868815
0.2229054 -0.27724499 0.44810951
0.1847439 -0.2738879 0.41365299
0.093933791 -0.319188 0.53147513
0.045581158 -0.4086262 0.56047869
0.1674303 -0.27219069 0.37787959
0.01825732 -0.2707141 0.31082359
0.089597747 -0.54154098 0.54229683
0.1322462 -0.27397221 0.33058521
0.0075665121 -0.26852921 0.34862211
0.20451429 -0.42201701 0.45966059
0.19021501 -0.44008619 0.4721463
0.20206121 -0.46010789 0.4639214
0.1783006 -0.28886071 0.4702197
0.14618769 -0.2743417 0.4114705
0.1383502 -0.26714069 0.4146705
0.2062355 -0.4035016 0.45120451
0.20915569 -0.4729287 0.45183161
0.148589 -0.27058071 0.46286899
0.20868909 -0.40625539 0.4584626
0.03819266 -0.35851321 0.56304502
0.04294521 -0.27572489 0.36629781
0.1988582 -0.34549609 0.4611679
0.09629494 -0.27273539 0.53212851
0.1915285 -0.36208731 0.47317201
0.079501033 -0.39908159 0.5425024
0.1892457 -0.49920061 0.47752699
0.1010051 -0.56411391 0.53396022
0.01519263 -0.27554601 0.3955439
0.03072888 -0.27157381 0.49078381
0.2020961 -0.32221591 0.40751031
0.1884063 -0.3300283 0.47149909
0.20519491 -0.4583253 0.467583
0.2177393 -0.3274492 0.44254711
0.0918383 -0.36959589 0.53153408
0.1543961 -0.34385219 0.49861321
0.093751192 -0.27069229 0.4440423
0.119886 -0.4807781 0.51903558
0.085356608 -0.44704741 0.5419547
0.152343 -0.27001691 0.43880209
0.1983493 -0.31728059 0.39948279
0.1046386 -0.27271521 0.51954627
0.1340183 -0.37283829 0.50803679
0.2188016 -0.29929021 0.451823
0.1434104 -0.4117735 0.50537688
0.19671801 -0.34967929 0.4593749
0.2175695 -0.41057849 0.45225891
0.19277669 -0.30083039 0.47145799
0.070553601 -0.26892501 0.46171001
0.076453447 -0.2748788 0.31842381
0.058484972 -0.27583039 0.353773
0.2162701 -0.29592541 0.44051799
0.097929686 -0.2864047 0.53009617
0.2025656 -0.38234431 0.46531251
0.047764901 -0.36040229 0.56440169
-0.025990561 -0.273289 0.40645051
-0.01495108 -0.2763212 0.48366359
0.1293916 -0.27069831 0.4401148
0.016871629 -0.27437139 0.4175421
-0.060099989 -0.2759544 0.415308
0.037625879 -0.27077761 0.46859631
0.1225985 -0.47247881 0.51782519
0.1276816 -0.4439083 0.51542759
0.1147288 -0.3821578 0.52031487
0.080919713 -0.45781121 0.54298162
0.1186222 -0.51414841 0.52300692
0.20397989 -0.50217378 0.4673306
0.1780518 -0.55024242 0.4821786
0.1822203 -0.3102518 0.4774721
-0.0022109151 -0.2724385 0.35234889
0.1404402 -0.28009769 0.34198669
0.1865928 -0.273651 0.4146755
0.02257329 -0.2752285 0.32448381
0.1529761 -0.45500991 0.3466908
0.1957517 -0.26970249 0.4393619
0.1881976 -0.33022499 0.47012571
0.1960213 -0.53608072 0.47484651
0.1316357 -0.4303084 0.50933439
0.046965059 -0.27715799 0.43041
0.06814906 -0.39333391 0.54475248
0.076599747 -0.2688272 0.52193272
0.1063672 -0.51656008 0.53028828
0.12940741 -0.2697193 0.48734421
0.051866289 -0.27056491 0.4890838
0.02640873 -0.27964789 0.4229261
0.059438661 -0.27246001 0.531537
0.1710013 -0.39733931 0.48410499
0.087700456 -0.4279024 0.53721893
0.1794721 -0.4731319 0.4817411
0.1005437 -0.28818849 0.5278098
-0.028660061 -0.27474949 0.4674015
0.1325359 -0.40027249 0.50931883
0.1718338 -0.36884579 0.48395571
0.21054409 -0.27265379 0.45801389
0.051351901 -0.43413171 0.56159109
0.1993352 -0.2876114 0.4629842
0.1043771 -0.41427311 0.53299493
0.1517379 -0.56466037 0.4960306
0.077241242 -0.41626999 0.538068
0.1040868 -0.34138569 0.52665782
0.061588231 -0.26938769 0.3150931
0.033850249 -0.27824941 0.34635761
0.063583434 -0.27229011 0.39664811
0.1367496 -0.37463519 0.31882089
0.1434916 -0.39886379 0.32664451
0.21417931 -0.55163521 0.46058679
0.12733459 -0.2690762 0.50529379
0.2140574 -0.4959431 0.4599537
0.1054876 -0.44588301 0.2592518
0.119223 -0.5654676 0.52113259
0.16652779 -0.5389784 0.49616191
0.098789901 -0.32792819 0.53129119
0.045012649 -0.30078939 0.56516123
0.15101109 -0.27382419 0.49218079
0.1115934 -0.2794899 0.52582848
-0.01547125 -0.2746284 0.47552511
0.1365349 -0.27156529 0.47662541
0.043523282 -0.27856639 0.45619819
0.019598629 -0.27132219 0.44406229
0.045376752 -0.51496738 0.55789369
0.1227275 -0.4272002 0.51746172
0.1146502 -0.54569519 0.52481139
0.1079898 -0.48324969 0.52930743
-0.0035253761 -0.27293909 0.3785491
-0.031684458 -0.27260551 0.3684679
0.13291679 -0.27169889 0.39158481
0.1202488 -0.27418631 0.40004081
0.078359596 -0.27463871 0.3389205
-0.01684982 -0.26617041 0.340635
0.1630054 -0.37705171 0.3635768
0.1284043 -0.41175699 0.51498097
0.089737952 -0.49791771 0.54176372
0.068217039 -0.46469969 0.55693722
0.1018364 -0.4411889 0.5317502
0.2173173 -0.45179471 0.4590176
-0.74957818 -0.56387049 0.38633189
0.093736947 -0.45214841 0.53742588
0.1129131 -0.3058995 0.52703297
0.21122231 -0.44913191 0.45816711
0.1730254 -0.51417828 0.48681971
0.1790017 -0.51729047 0.4843525
0.1428287 -0.49612579 0.50933242
0.1725329 -0.27156621 0.41694829
0.133186 -0.2743845 0.39968729
0.084099203 -0.50703061 0.54724699
0.059849799 -0.36536521 0.55807477
0.073278546 -0.42390251 0.55211818
0.20249639 -0.55619878 0.46872091
0.1033124 -0.40066969 0.26027241
0.1249553 -0.56282312 0.51461971
0.2089202 -0.48290399 0.44285539
0.069256186 -0.49295589 0.54969758
0.088156164 -0.26810181 0.42823651
0.2031683 -0.50458038 0.46337661
0.1070057 -0.55925369 0.5285126
0.075279921 -0.451803 0.54738623
0.1248258 -0.2829152 0.51740718
0.04192346 -0.30328959 0.5743202
0.04598099 -0.45482981 0.56544572
0.2084281 -0.32648939 0.45554909
0.1605563 -0.2683219 0.41590559
-0.042970721 -0.2710098 0.4125284
0.006849349 -0.27089509 0.50451249
0.02468753 -0.27433559 0.35487649
-0.02923733 -0.27194819 0.3537842
0.045084659 -0.2713972 0.50310898
0.0052039032 -0.27265489 0.40061799
-0.0005877614 -0.27076679 0.4166407
-0.020070789 -0.2770986 0.35262829
-0.026324119 -0.2726025 0.4539752
0.067338757 -0.27624771 0.4731195
0.1995177 -0.28867739 0.45835179
0.045563579 -0.322249 0.56889158
0.062825471 -0.49392259 0.55411661
0.1763289 -0.29667729 0.4815917
0.041470591 -0.40077239 0.56808537
0.1229589 -0.2726669 0.34695029
0.1820884 -0.35019109 0.3838602
0.134409 -0.33384299 0.31524351
0.065884054 -0.33444601 0.55022168
0.054755691 -0.26773539 0.33282879
0.123255 -0.28630149 0.51759011
0.1234431 -0.26351929 0.46837631
0.05005151 -0.3410362 0.56288248
0.2248358 -0.53632581 0.4573983
0.2165326 -0.4017767 0.44755399
0.14288691 -0.26745459 0.50332397
0.060094848 -0.32343841 0.56070912
0.086168997 -0.4354305 0.54676503
0.076952703 -0.31520969 0.54537457
0.2153146 -0.56498241 0.3903268
0.053327382 -0.36060151 0.56279188
0.068765759 -0.56572819 0.55208403
0.1001646 -0.3036522 0.53451991
0.087442338 -0.28344911 0.53922629
0.04220289 -0.4170939 0.56857449
0.2016567 -0.52799833 0.43820101
0.1121641 -0.49406499 0.52943832
0.16762599 -0.54718482 0.48834789
0.05790218 -0.27668479 0.5577144
0.04202253 -0.47485629 0.56959891
0.2678861 -0.55955839 0.2180784
0.1793678 -0.27982339 0.47388589
0.0298 -0.56232458 0.54761332
0.024148051 -0.27483541 0.50415468
0.095996797 -0.27038649 0.30952561
0.02366638 -0.4833892 0.54645967
-0.0077726841 -0.27255031 0.48683891
-0.068481147 -0.2938284 0.4105947
0.035319511 -0.2717624 0.35178271
0.054665029 -0.27011049 0.44507879
0.01440263 -0.27705601 0.52008682
-0.0027271509 -0.3790932 0.50433367
-0.077404439 -0.38987839 0.3964738
0.036317941 -0.52874041 0.55451822
-0.01883531 -0.54529631 0.51266909
0.036636408 -0.37871611 0.55546743
0.0022556779 -0.28243461 0.50430912
-0.019290861 -0.2812137 0.47785091
0.03930771 -0.27331379 0.51710773
0.025955681 -0.3098838 0.5385372
0.021513641 -0.28350121 0.5345282
-0.01683265 -0.27207819 0.46859959
0.1134593 -0.26886621 0.4984574
0.0043923259 -0.27593961 0.37027991
-0.070665479 -0.35773519 0.39864969
-0.01685971 -0.52033198 0.48852891
0.00099933147 -0.49937591 0.51369172
-0.039741639 -0.54552323 0.44756511
0.0307461 -0.36805001 0.55006403
-0.059891049 -0.464991 0.41773689
-0.048496369 -0.4789595 0.436398
0.029665589 -0.50327659 0.5481351
0.0054188971 -0.47869271 0.51606768
-0.058185641 -0.4251563 0.41570091
-0.034577429 -0.42928809 0.44712511
-0.0187543 -0.41227439 0.4704704
0.030971291 -0.3307578 0.55256802
-0.035012841 -0.55227101 0.46209341
0.0372684 -0.32478929 0.55628991
-0.02196813 -0.39003101 0.46577919
0.1060956 -0.28237551 0.51369202
-0.044935409 -0.30185151 0.4336071
-0.040830851 -0.27783811 0.4423019
-0.02299243 -0.30834019 0.46917829
-0.027313471 -0.46113741 0.47520939
-0.01343763 -0.37698859 0.48179659
0.01169044 -0.48041621 0.52744317
-0.01070201 -0.49668261 0.486494
0.01743013 -0.3803283 0.52160192
0.02625322 -0.3856256 0.54565293
-0.017335949 -0.4689433 0.48864421
0.02095115 -0.44572929 0.5447759
0.01547778 -0.30228409 0.52708173
0.028446671 -0.45615721 0.55538177
0.035508569 -0.43905371 0.550659
-0.043439269 -0.45348611 0.44601941
-0.084920406 -0.42810309 0.38087609
-0.03645277 -0.41017681 0.45224911
0.02979416 -0.4183996 0.53618991
0.001597762 -0.31173211 0.5055294
0.0094944239 -0.35067981 0.52149922
-0.089853533 -0.53789163 0.37167701
0.0048916941 -0.53036201 0.52536517
-0.01083982 -0.31733611 0.4833726
-0.077871077 -0.50026977 0.3838819
0.0126906 -0.27668941 0.4594647
-0.033108771 -0.28312469 0.4576101
-0.002648294 -0.50973272 0.49809751
0.0083233118 -0.49019319 0.5294947
-0.035782401 -0.52515978 0.468115
-0.048239231 -0.53678322 0.4413608
-0.032291051 -0.3091 0.4530482
-0.056874629 -0.56355268 0.42483929
-0.03332961 -0.47125551 0.46442601
0.03319585 -0.39540869 0.55838418
0.001544893 -0.46579471 0.5192287
-0.072261147 -0.39530709 0.4044767
-0.066406429 -0.47709221 0.41303539
-0.059845451 -0.49541119 0.42505419
0.0150578 -0.27583271 0.44024161
-0.00087052578 -0.35788551 0.50765401
-0.056803819 -0.3914398 0.40692681
0.1832125 -0.27205911 0.46596131
-0.033302549 -0.52452141 0.46865901
-0.0025881529 -0.3717173 0.50862968
-0.0337708 -0.56526041 0.47954741
-0.05674082 -0.45200631 0.41847309
-0.004329503 -0.52752781 0.51101762
-0.057727579 -0.51921791 0.42114541
-0.058771849 -0.39945641 0.4269385
0.01377612 -0.2905778 0.52308309
-0.082253337 -0.50561053 0.37638429
-0.064058177 -0.31529179 0.3969276
-0.040971279 -0.29855451 0.4433611
0.079610594 -0.25661209 0.36629769
-0.01704061 -0.38096961 0.48154369
0.00132817 -0.45098099 0.51755899
0.025590179 -0.36661321 0.55654389
-0.075290918 -0.4536618 0.3911261
0.014539 -0.52846283 0.54142922
-0.079182453 -0.52223492 0.38196871
-0.02827245 -0.4322094 0.47236791
-0.042773429 -0.51923972 0.45401701
-0.008231163 -0.36341929 0.49590051
0.1164021 -0.27218759 0.47466439
0.048433959 -0.37296599 0.55076802
0.03083086 -0.52501142 0.55241323
-0.058852311 -0.30686769 0.42279041
-0.062795758 -0.33524641 0.4131951
0.02772647 -0.47287059 0.54769832
-0.0528965 -0.41169119 0.4186441
-0.0161683 -0.27210161 0.42685479
0.003517091 -0.53419912 0.5253517
0.02969509 -0.41358 0.54825562
-0.0056712632 -0.55749369 0.50984412
0.18446989 -0.2772125 0.3864322
-0.0075029731 -0.33223769 0.48941341
0.01102513 -0.32952181 0.52072692
0.028578101 -0.2805571 0.47892621
-0.04923344 -0.34712571 0.43823269
-0.01080775 -0.27335131 0.4596366
-0.051318049 -0.55321407 0.43848741
-0.01742262 -0.39119869 0.4892517
0.1029819 -0.2710245 0.43770519
0.041238189 -0.28973281 0.55983829
0.064326473 -0.27669469 0.4539732
0.03436828 -0.44292551 0.55890989
0.02353221 -0.55569613 0.54154527
0.01918602 -0.35022131 0.53778869
-0.0028453469 -0.41756141 0.4966794
-0.01773053 -0.4504838 0.48094359
-0.085174322 -0.56136328 0.37416011
-0.061210509 -0.2745907 0.4161928
0.088319898 -0.284482 0.31797919
-0.034955919 -0.2768459 0.39813569
-0.040565491 -0.42502889 0.45152849
-0.043031991 -0.47927821 0.45518121
-0.082784303 -0.46444401 0.38421801
-0.079043329 -0.41719371 0.3943685
0.1380872 -0.2661089 0.40698069
0.1312774 -0.2757012 0.43285009
0.02024376 -0.471075 0.5400371
0.036213819 -0.4844501 0.55750167
-0.01126999 -0.30427051 0.47755599
-0.081110887 -0.53135163 0.40900651
-0.051532511 -0.38015601 0.43808779
0.023523569 -0.27383351 0.47178549
-0.068633683 -0.33894229 0.40260389
-0.076755233 -0.30453789 0.38524261
-0.079895079 -0.27893579 0.3838785
-0.06731236 -0.27592909 0.3723368
-0.057160079 -0.2799342 0.38035151
-0.086123109 -0.37277609 0.38406011
-0.080772102 -0.37950259 0.38309351
-0.055039641 -0.33045569 0.44203201
-0.061493222 -0.36255839 0.42319909
-0.074996233 -0.51314259 0.3999165
-0.021032929 -0.35402381 0.4534058
-0.047750119 -0.55807471 0.44756791
-0.071182907 -0.39440659 0.40153551
-0.000302434 -0.4538995 0.51818597
0.050007582 -0.3590785 0.5449568
0.01388431 -0.4474664 0.52954
-0.01864117 -0.4568074 0.51527143
0.020602411 -0.37192929 0.53395098
-0.01089293 -0.5281319 0.49974161
