# .PCD v0.7 - Point Cloud Data file format
VERSION 0.7
FIELDS x y z normal_x normal_y normal_z curvature
SIZE 4 4 4 4 4 4 4
TYPE F F F F F F F
COUNT 1 1 1 1 1 1 1
WIDTH 583
HEIGHT 1
VIEWPOINT 0 0 0 1 0 0 0
POINTS 583
DATA ascii
-0.11902465 -0.24368599 0.58967221 -0.38364512 -0.02018282 -0.92326009 0.04684728
-0.1561514 -0.23146392 0.63394022 -0.96219146 0.020727787 -0.27158409 0.046154086
-0.043878768 -0.13572092 0.58266073 -0.024362776 0.68562007 -0.72755182 0.059425939
0.038134806 -0.38328966 0.5779711 0.35826254 -0.15681504 -0.92035699 0.087986961
-0.089446932 -0.3320598 0.58441579 -0.15723751 0.035523508 -0.98692173 0.0075710826
-0.079365358 -0.24503337 0.58755952 -0.12956144 0.022672188 -0.99131215 0.0046411422
-0.14184523 -0.17478923 0.59229976 -0.62929076 0.2072448 -0.74902779 0.10010216
0.0078292526 -0.37066355 0.57802534 0.0852089 -0.080936074 -0.99307042 0.033851616
-0.0057501164 -0.13011384 0.70050746 0.01695947 0.99970335 -0.017482718 0.0005170388
-0.096102417 -0.29989338 0.58568132 -0.29197443 0.054449536 -0.95487493 0.020264238
-0.071879327 -0.13983287 0.59486568 -0.030523149 0.75860965 -0.65082997 0.079296805
-0.069140762 -0.23262306 0.58741409 -0.0863683 0.025013871 -0.99594921 0.00059040246
-0.092808835 -0.13763152 0.59508318 -0.14250767 0.770895 -0.62081605 0.080378883
0.04895528 -0.21426439 0.5809437 0.57644892 0.043647852 -0.81596667 0.061232798
0.059990276 -0.13505521 0.65977442 0.5286268 0.84158933 -0.11081982 0.055369943
-0.03529701 -0.36428735 0.58022368 -0.056047115 -0.093829669 -0.99400938 0.017921247
-0.0044261813 -0.13174748 0.64396644 0.04859468 0.98808461 -0.14603895 0.02014548
-0.043866698 -0.13192211 0.60426581 -0.039753888 0.90370971 -0.42629603 0.056153849
0.050915662 -0.13224095 0.68771106 0.35350472 0.93017292 -0.099058777 0.057972174
-0.083280452 -0.3563101 0.58302683 -0.11695214 -0.045207918 -0.99210811 0.0085992636
-0.068850711 -0.32978672 0.58514446 -0.069188304 0.035794549 -0.99696124 0.0009274598
-0.11638988 -0.13336149 0.7046842 -0.37072492 0.92867392 0.011303947 0.057070855
-0.1216414 -0.13519228 0.76799542 -0.49695984 0.83352113 0.24139906 0.076382212
-0.12753683 -0.13561407 0.77718276 -0.55499935 0.77554137 0.30085102 0.08605624
-0.10815766 -0.1334995 0.66860646 -0.2547572 0.96698874 -0.0056201783 0.03162387
-0.14099975 -0.31615657 0.59296328 -0.63152456 0.010015483 -0.77529114 0.052136488
-0.11803977 -0.13373359 0.6591745 -0.33318576 0.94202703 -0.039652228 0.052027468
-0.13050899 -0.13448754 0.65406805 -0.42922238 0.90164453 -0.052965321 0.062302645
-0.098881178 -0.36931691 0.5824331 -0.15631779 -0.093248688 -0.9832952 0.029736416
-0.14623699 -0.13998502 0.62542176 -0.59024715 0.759395 -0.27372894 0.10458931
0.051165581 -0.14305611 0.58501631 0.49077037 0.57301223 -0.65635467 0.10418145
-0.032470867 -0.12947255 0.73515111 -0.020380871 0.99934423 0.029928392 0.0013750045
0.022016224 -0.22070092 0.57846963 0.17412832 0.022602271 -0.98446351 0.038737547
-0.089246012 -0.39122775 0.58150351 -0.093563825 -0.23994403 -0.96626747 0.059989545
-0.12745297 -0.13435355 0.58701265 -0.31335708 0.6815629 -0.66127104 0.1037297
-0.0782943 -0.1672029 0.58910662 -0.029374382 0.37062487 -0.92831802 0.064779788
-0.044071727 -0.13052011 0.75779307 -0.033168912 0.9935059 0.10883911 0.015331898
0.055850994 -0.16088265 0.58337444 0.52421975 0.4421593 -0.72779721 0.10129029
-0.15313277 -0.25750491 0.69418204 -0.99782389 0.032161459 0.057560392 8.2844279e-05
0.014905258 -0.21268488 0.57918906 0.12423967 0.031635571 -0.9917478 0.032341346
0.035382222 -0.40954503 0.57753444 0.25278381 -0.37932387 -0.89006394 0.10048042
-0.033232503 -0.13363583 0.57861167 -0.031161768 0.68548644 -0.72741824 0.052418742
-0.085560217 -0.1642656 0.58900833 -0.085314341 0.39521128 -0.91461986 0.067283437
-0.041402429 -0.20999032 0.58543694 -0.085297875 0.063928671 -0.99430245 0.0022348231
-0.0090654287 -0.35551894 0.57986528 0.0028627526 0.0088240895 -0.99995697 0.005651908
0.051636476 -0.18954577 0.58302611 0.47828788 0.20623825 -0.85364312 0.077811278
-0.093893595 -0.21452975 0.58911765 -0.19597782 0.01877892 -0.98042852 0.017285241
-0.079003789 -0.35660717 0.58245808 -0.11317337 -0.044702072 -0.99256915 0.0082573388
0.043790769 -0.39815143 0.57823437 0.40723178 -0.24536227 -0.87974977 0.1051091
-0.095078193 -0.13363609 0.79384935 -0.25208828 0.85980296 0.44406128 0.083775029
-0.081299558 -0.23680674 0.58772415 -0.12596726 0.018987993 -0.99185264 0.0043824697
0.051981933 -0.1335279 0.6531415 0.39517024 0.91110253 -0.11718605 0.053043135
0.059340216 -0.36048788 0.58303165 0.65842217 -0.045875691 -0.75124937 0.070812821
0.0537659 -0.2734732 0.57947385 0.67895699 0.071062349 -0.73073083 0.056931451
-0.075542673 -0.26933721 0.58463567 -0.11607048 0.032419421 -0.99271178 0.0023265979
-0.056048054 -0.18275167 0.5869059 -0.07112173 0.29919028 -0.95153922 0.044881649
-0.024507679 -0.34189999 0.58168942 -0.042083833 0.03734462 -0.99841589 0.00033587622
0.0009892825 -0.21362607 0.5813207 0.047244675 0.04359464 -0.99793154 0.018853206
0.015398532 -0.23034316 0.57840282 0.16679701 0.049764693 -0.98473459 0.040588006
-0.087506816 -0.33269945 0.58430618 -0.15017745 0.038866326 -0.98789477 0.0069794115
-0.1021852 -0.20656344 0.58996475 -0.21702459 0.03844519 -0.97540879 0.020662189
0.058619317 -0.41840243 0.58706474 0.57251668 -0.48684949 -0.65969867 0.13109565
0.060726624 -0.15287866 0.58305568 0.55661106 0.48824811 -0.67215914 0.10388874
0.045360915 -0.26305673 0.57760012 0.57250744 0.052570954 -0.81821239 0.055324908
0.057994071 -0.18439165 0.58304608 0.52476436 0.22315054 -0.82147801 0.082087852
-0.10186584 -0.32486928 0.58461291 -0.32537511 0.035306256 -0.94492567 0.030896822
0.060864288 -0.15377907 0.58424443 0.55661106 0.48824811 -0.67215914 0.10388874
0.063997619 -0.38772997 0.58603847 0.64420754 -0.18025315 -0.74330711 0.10221943
-0.056971181 -0.13532294 0.59393746 -0.0082073091 0.79789931 -0.6027348 0.065247461
0.018210271 -0.26305571 0.57627463 0.21026373 0.038253538 -0.97689599 0.036504477
-0.080388971 -0.13633589 0.60753715 -0.085194074 0.89748222 -0.43274429 0.066278234
-0.045312576 -0.22936313 0.58625942 -0.085201018 0.030251244 -0.99590439 0.00028879635
0.035874825 -0.13632508 0.59696257 0.28506896 0.76618928 -0.57592511 0.086291671
0.058102004 -0.32583636 0.58174378 0.74359441 -0.036541689 -0.66763169 0.068741202
0.025813239 -0.19747727 0.58006263 0.20405887 0.15144782 -0.96717292 0.052080277
0.0035125695 -0.40741593 0.57781446 0.023927163 -0.42100856 -0.90674102 0.068689436
0.048409559 -0.25155687 0.5794462 0.63002825 0.098370977 -0.77031648 0.059784666
-0.0020639957 -0.13179979 0.64126861 0.055503931 0.98512477 -0.16262975 0.02387495
0.073322296 -0.17485589 0.67081368 0.95504475 0.28309649 -0.088010795 0.054540087
-0.0049303309 -0.2229186 0.58060288 0.011326604 0.0095123174 -0.99989069 0.012943751
0.061085384 -0.1552446 0.58570677 0.56208664 0.48837024 -0.66749758 0.10283338
-0.12232402 -0.13685459 0.59599912 -0.27988487 0.78673285 -0.55019629 0.098677807
0.072889365 -0.19848202 0.65508652 0.98350751 0.12756738 -0.12821648 0.016031053
-0.081228748 -0.35689586 0.58254558 -0.1166674 -0.045447286 -0.99213064 0.0084863864
0.065900899 -0.19672069 0.59770626 0.77761787 0.12062152 -0.6170584 0.075218357
0.080086 -0.16131422 0.74982995 0.89641649 0.43071026 0.1045284 0.10771893
0.081895992 -0.32622328 0.74857557 0.98867744 0.0024705448 0.15003607 0.020677751
0.033770408 -0.13162699 0.63849181 0.25263056 0.95226765 -0.17135981 0.047631584
0.075312294 -0.22649057 0.68814927 0.9965657 0.02662183 -0.078410022 0.00027767167
-0.1090316 -0.39954764 0.58252019 -0.19670154 -0.27132297 -0.94217432 0.07275378
-0.041020118 -0.36846933 0.58096713 -0.058941729 -0.14292248 -0.98797721 0.0266743
0.05816514 -0.13458985 0.66714114 0.50506461 0.85557288 -0.11359959 0.064001076
0.0095029855 -0.13109489 0.66599286 0.083290465 0.99541748 -0.046975598 0.0063204365
0.07069052 -0.13356395 0.7347858 0.54181993 0.83954048 0.040036753 0.067760721
0.067661464 -0.13446188 0.69666672 0.57223731 0.81584263 -0.083338067 0.072028711
0.036807571 -0.13212267 0.64585638 0.27867594 0.95160019 -0.12960248 0.045376234
0.019882018 -0.13255145 0.61258167 0.20136908 0.87800938 -0.43422335 0.068364091
0.056370113 -0.14514627 0.58464962 0.53932017 0.54982722 -0.6378274 0.10577838
-0.11980581 -0.1408961 0.59351891 -0.25024793 0.71245259 -0.65558165 0.10310575
0.037743494 -0.29508281 0.57756352 0.50576913 -0.0020036064 -0.86266661 0.050889637
-0.071058609 -0.25391126 0.58642143 -0.084206343 0.028785061 -0.99603254 0.00067688251
0.069783889 -0.13492656 0.71129543 0.53037578 0.84649962 -0.046259131 0.070697591
-0.13519287 -0.18938111 0.59117025 -0.53230357 0.10001688 -0.84062451 0.081570387
-0.092246488 -0.2299324 0.58897656 -0.20876685 0.0057127089 -0.97794878 0.017439688
0.0048151994 -0.36975521 0.5783298 0.072220862 -0.085627891 -0.99370623 0.031763565
0.015503895 -0.20766868 0.57963198 0.1270835 0.056532957 -0.99027973 0.034065574
-0.08029303 -0.16364466 0.58977211 -0.050665807 0.40169737 -0.91436982 0.066422686
0.065749601 -0.1424119 0.59804809 0.62491578 0.59462351 -0.50586873 0.088051312
-0.031052439 -0.12954479 0.75097102 -0.020235159 0.99616957 0.085069351 0.0079791313
-0.038401064 -0.13213247 0.59742343 -0.026470983 0.8287589 -0.55897945 0.061287966
-0.093640849 -0.13327292 0.69158697 -0.18937927 0.98190135 -0.0022798979 0.026792914
-0.054902643 -0.13121724 0.74641597 -0.038229451 0.99695343 0.067987628 0.0071277744
-0.10377341 -0.15759383 0.59132868 -0.22420348 0.49080822 -0.84192646 0.08950083
0.010000996 -0.34843278 0.57951647 0.11405073 0.030133277 -0.99301785 0.027968371
-0.083571367 -0.39547697 0.58205044 -0.085722491 -0.27766731 -0.9568451 0.063540816
0.055729493 -0.21118517 0.58297545 0.62979907 0.056190122 -0.77472317 0.063626952
0.057500102 -0.13308616 0.67444927 0.45686358 0.8821938 -0.1140606 0.057287961
0.00040966482 -0.25882038 0.58042186 0.045559928 -0.002059493 -0.99895948 0.019989658
-0.078190111 -0.23574956 0.58766943 -0.11118756 0.023712076 -0.99351656 0.0029494106
-0.028639963 -0.131825 0.61998904 -0.041848861 0.94713724 -0.31808752 0.046933912
0.055026978 -0.38312817 0.58134979 0.57438809 -0.16779558 -0.80120093 0.094016358
-0.12573691 -0.13705751 0.77595812 -0.57068354 0.76401246 0.30100703 0.087095216
0.031709265 -0.22467586 0.57846612 0.23689583 0.023969322 -0.97123933 0.045605335
-0.029472839 -0.18035688 0.58486867 -0.034412876 0.34949028 -0.93630773 0.042955291
-0.06060062 -0.18009643 0.58625621 -0.05777267 0.31372711 -0.94775397 0.051425699
-0.0017605248 -0.16016227 0.58532113 0.025815912 0.50066972 -0.86525333 0.060443897
-0.069259576 -0.33539778 0.58485669 -0.073254399 0.034519359 -0.99671572 0.0010603023
0.042245507 -0.19341989 0.58248162 0.38299438 0.1987398 -0.90211844 0.068907917
-0.019634113 -0.13042618 0.78807938 0.026323769 0.93623781 0.35037956 0.055303577
0.00015045797 -0.13029607 0.74507356 0.047790702 0.99442291 0.094016656 0.01004927
0.061133478 -0.13265263 0.73147237 0.38074121 0.92429167 0.026851378 0.05476262
-0.11434773 -0.13306282 0.71061414 -0.36716026 0.93007088 0.012709106 0.054996289
-0.1379475 -0.32135448 0.59138072 -0.59867311 0.017341997 -0.80080563 0.051636912
0.02720521 -0.40952286 0.576985 0.15457177 -0.38451153 -0.91008711 0.093023762
0.020837653 -0.25753668 0.57692552 0.20708615 0.034229293 -0.97772378 0.038199507
0.058941722 -0.28926876 0.58051044 0.79863966 0.034247458 -0.60083419 0.047797587
-0.13711204 -0.29752821 0.5916394 -0.60703784 0.043485627 -0.79348218 0.051818535
0.03311187 -0.32401335 0.57980955 0.41460028 -0.011295564 -0.90993357 0.063477755
-0.085958011 -0.29808205 0.58517289 -0.17398053 0.039954413 -0.98393822 0.0074354433
-0.122802 -0.13336204 0.70216602 -0.42255309 0.90627724 0.010507369 0.064477406
-0.12129769 -0.35208294 0.58572942 -0.3989892 0.021780446 -0.91669691 0.039265454
-0.020212684 -0.24432209 0.58316213 -0.065559477 0.011066882 -0.99778736 0.0011153482
-0.10529932 -0.24074675 0.58906448 -0.29509541 -0.01586069 -0.95533609 0.034993269
-0.12961856 -0.21792153 0.59255028 -0.47312322 -0.022200974 -0.8807165 0.058938093
0.038428385 -0.38045365 0.57811004 0.36044666 -0.15772277 -0.91934854 0.0868432
-0.066317216 -0.16495794 0.58871996 -0.022667419 0.41182601 -0.91098052 0.068574771
-0.070148677 -0.13203231 0.6271494 -0.024787564 0.96508557 -0.26075959 0.047143906
-0.047102686 -0.12986356 0.71056163 -0.024092099 0.99966317 -0.009650155 0.00011530797
-0.047844455 -0.13062468 0.6956926 -0.023018541 0.99968255 -0.010248099 0.00010092869
0.036695533 -0.40639347 0.57728738 0.29695186 -0.33364689 -0.89470631 0.1037261
-0.074585833 -0.40279266 0.58295238 -0.068777584 -0.3450765 -0.93605125 0.074613377
0.015160526 -0.29422987 0.57914561 0.23982486 -0.0083253635 -0.97078037 0.040870797
-0.063711233 -0.13022146 0.60916793 -0.019280063 0.94334048 -0.33126572 0.054520693
-0.099403434 -0.13745616 0.59552759 -0.17220621 0.77933103 -0.60248518 0.084914573
-0.075042054 -0.26982996 0.58542347 -0.11415456 0.032913912 -0.99291766 0.0022933639
-0.14021176 -0.34327877 0.590976 -0.56642586 -0.003734305 -0.82410425 0.05215713
-0.13879885 -0.25217369 0.59472054 -0.54170668 -0.021301737 -0.84029758 0.055671703
-0.089414582 -0.24734294 0.58824539 -0.18993799 0.029720061 -0.98134613 0.011806984
0.070105165 -0.14731085 0.67647177 0.75731808 0.64192486 -0.12000764 0.073023804
-0.028226811 -0.37746531 0.58005255 -0.068723388 -0.20326534 -0.97670895 0.037257351
0.047771219 -0.13326707 0.66246378 0.36969304 0.92275131 -0.1088905 0.052634645
0.041215561 -0.14598419 0.58168864 0.30222845 0.563541 -0.76881689 0.099164851
0.015863435 -0.14500144 0.58720517 0.14821716 0.63472199 -0.75839275 0.079094648
-0.1396794 -0.31607965 0.59235418 -0.6198383 0.01813248 -0.78452003 0.051774692
-0.12471613 -0.2513434 0.59109104 -0.48927671 -0.011317893 -0.87205517 0.050314374
0.0036009075 -0.13935521 0.59255326 0.065998144 0.72944313 -0.68085015 0.07067699
-0.078266636 -0.13238189 0.62941504 -0.052369297 0.97269034 -0.22612147 0.041899201
0.035783213 -0.13186739 0.64102876 0.25978041 0.95237982 -0.15964626 0.047391035
-0.12570816 -0.13383101 0.64649951 -0.37702912 0.91944993 -0.11162769 0.063724265
-0.087551445 -0.13362865 0.67507023 -0.15326084 0.98798817 -0.019760435 0.016757149
0.012357028 -0.13969405 0.59215206 0.14454797 0.74537265 -0.65078837 0.078235179
-0.092092507 -0.13335906 0.68490779 -0.18131408 0.9833349 -0.013333271 0.023617089
0.073061898 -0.14258492 0.79776388 0.62651986 0.58206159 0.51834083 0.12865698
-0.075308718 -0.13279918 0.65091097 -0.085813187 0.98889005 -0.12137745 0.018792707
-0.063211247 -0.13115481 0.7298457 -0.042988408 0.99892133 0.017553169 0.0010274298
-0.042248432 -0.13442275 0.58733469 -0.023850651 0.73635525 -0.67617458 0.062632471
-0.067373313 -0.13100682 0.72521734 -0.059941001 0.99819607 0.0034253695 0.0018269602
0.037905492 -0.13776968 0.59420466 0.30794752 0.73019874 -0.60990018 0.090489626
0.028598603 -0.13346171 0.60964793 0.2489408 0.8522917 -0.46002969 0.073339887
-0.018471288 -0.12992074 0.73541611 -0.004684052 0.99952972 0.030305976 0.0016334953
0.046581946 -0.13370025 0.65222263 0.36522135 0.92322123 -0.11948206 0.051289059
-0.036612254 -0.13185059 0.61445034 -0.051347617 0.93911737 -0.33973816 0.048652351
0.016792139 -0.13035771 0.72619528 0.076171331 0.9969784 0.015232984 0.0048668869
0.041486245 -0.13126141 0.73888546 0.20337391 0.97423065 0.097538181 0.034731846
-0.080370456 -0.13305256 0.68105751 -0.10595467 0.99429607 -0.012206758 0.0083046658
-0.018649222 -0.13212436 0.63330173 -0.0054073185 0.97955692 -0.20109437 0.02970154
-0.036443342 -0.1316023 0.62612367 -0.050547961 0.95588362 -0.28936389 0.044989035
-0.063732572 -0.13122539 0.74995357 -0.04728483 0.99608213 0.074730694 0.007856586
-0.036465533 -0.13168131 0.66400272 -0.016149888 0.99928939 -0.034056216 0.00095213501
-0.066619776 -0.13203143 0.68296283 -0.051327463 0.99862403 -0.010750139 0.00084984052
-0.074564852 -0.13232912 0.68875551 -0.067455277 0.99770343 -0.0061417273 0.002247009
-0.045834221 -0.13594793 0.59679544 -0.01881903 0.80627418 -0.59124267 0.067706428
-0.1326994 -0.13733876 0.76397681 -0.65628439 0.72435921 0.2111741 0.076544397
-0.14251629 -0.13958564 0.70085353 -0.63544077 0.77157331 0.029827647 0.07714238
0.037514765 -0.13096011 0.71634251 0.22756253 0.97354031 -0.020843906 0.042644799
-0.024233563 -0.12963645 0.72718847 -0.0093971826 0.9999314 0.0069981562 0.00044573576
0.0097454172 -0.13044019 0.74363172 0.074555993 0.9916625 0.10510434 0.01343095
-0.13218118 -0.13456716 0.65917242 -0.44131795 0.89676595 -0.032391399 0.061139274
-0.047727961 -0.13160096 0.61862266 -0.047516458 0.94251668 -0.33076346 0.04975073
-0.038976964 -0.14673524 0.59223765 -0.011644359 0.70062315 -0.71343642 0.067098863
0.004585526 -0.13019104 0.70630723 0.044608511 0.99879301 -0.020556988 0.0024102158
0.0634358 -0.13379151 0.71972889 0.42854056 0.90311539 -0.027121853 0.055535104
0.067560047 -0.13630417 0.67427552 0.60381186 0.7875343 -0.12329237 0.063001171
-0.03290911 -0.13070664 0.78414202 0.0064474554 0.95010018 0.3118782 0.050669141
-0.10851575 -0.1333939 0.74294287 -0.34830743 0.93476272 0.070004642 0.046432693
-0.086665399 -0.13412087 0.79416728 -0.17666683 0.89134896 0.41747567 0.069320433
-0.056995511 -0.13409668 0.80230749 -0.024203951 0.88655102 0.4619973 0.068394244
-0.0089564463 -0.13041089 0.78557068 0.059127461 0.9489131 0.30994794 0.046129301
-0.084803939 -0.13450988 0.79849422 -0.16626388 0.87439704 0.45583555 0.070433721
-0.13957754 -0.14049435 0.76597452 -0.74660927 0.62452364 0.2292268 0.069401808
-0.077112526 -0.13610686 0.59995532 -0.052842963 0.85933292 -0.50867927 0.067596711
-0.12339785 -0.13359635 0.63646966 -0.35813773 0.91661042 -0.17765929 0.074232019
-0.074350767 -0.1323549 0.62593609 -0.029048108 0.96529675 -0.2595351 0.045794699
0.010388214 -0.13289511 0.61584073 0.1551929 0.89285856 -0.42275152 0.06423334
-0.1493084 -0.1573841 0.65845555 -0.8024947 0.5959093 -0.029907104 0.073415525
-0.046107274 -0.13438568 0.80443877 0.0055023264 0.85654956 0.5160355 0.076844178
-0.14349109 -0.30608693 0.79275519 -0.75415546 0.031051425 0.65596133 0.055027828
-0.15043968 -0.29685631 0.75207156 -0.97816157 0.022358496 0.20663996 0.012912451
-0.13901666 -0.18706563 0.79557604 -0.81223392 0.23891777 0.53216004 0.070178792
-0.15013887 -0.20865501 0.72238529 -0.99116915 0.10121066 0.085674398 0.0029389439
-0.062868521 -0.1320744 0.64294159 -0.063774191 0.97863239 -0.19547744 0.034963842
-0.070976049 -0.13983439 0.596165 -0.029838925 0.77026087 -0.63703048 0.08032304
0.060703628 -0.13427392 0.67467123 0.54145408 0.83214295 -0.11985606 0.061825342
0.0016034424 -0.17908767 0.58158898 -0.00053375337 0.34089857 -0.94009995 0.050198928
0.022555195 -0.19443884 0.58031291 0.15734266 0.18154238 -0.97071397 0.053507563
-0.12939391 -0.13987005 0.79104 -0.58646339 0.67803228 0.4430947 0.092141546
0.018424748 -0.12993006 0.70084852 0.096069902 0.99489951 -0.030748652 0.0096738571
0.026375854 -0.13340488 0.7963531 0.16622014 0.87889093 0.44712597 0.075234056
-0.12523177 -0.13659449 0.7866829 -0.53704637 0.73903012 0.40671328 0.091146596
-0.080696702 -0.13700913 0.60068506 -0.080801785 0.83806849 -0.53954828 0.074032217
-0.14814682 -0.19036172 0.72757357 -0.96643215 0.23379703 0.10652639 0.024481796
-0.070180826 -0.13245511 0.6457172 -0.072424665 0.9851023 -0.15597486 0.025488947
-0.14954156 -0.16159365 0.60189378 -0.73062921 0.35568032 -0.58281416 0.12201329
-0.15134971 -0.18006885 0.67663711 -0.9415307 0.32765737 0.078488886 0.048427854
-0.13986249 -0.14130037 0.75976616 -0.74290121 0.63784605 0.2031014 0.064185992
-0.15836795 -0.32177758 0.63776147 -0.97832364 -0.053334698 -0.20009595 0.033836581
0.070902988 -0.13634595 0.77916151 0.55041027 0.75219548 0.36228532 0.12156234
-0.030985828 -0.13115215 0.67292923 -0.010013339 0.99978983 -0.017891791 0.00018325182
-0.15107207 -0.15781415 0.60449517 -0.73908764 0.41468412 -0.53083581 0.12227843
-0.14841074 -0.16408972 0.69955015 -0.87376732 0.48011944 0.077562638 0.06449756
-0.1468267 -0.31501362 0.78101516 -0.87292588 0.039319005 0.48626581 0.056164891
-0.14084798 -0.22213687 0.79204929 -0.87396717 -0.0012618089 0.48598337 0.058593761
-0.13662723 -0.13586287 0.66717815 -0.47735122 0.87832743 0.026015341 0.061020426
-0.057220761 -0.13202208 0.64069909 -0.058033992 0.97772986 -0.20168409 0.03454484
0.054832064 -0.13238835 0.7245841 0.32067782 0.94718504 -0.0025295038 0.046995021
-0.023820326 -0.13232143 0.64609802 -0.0039843195 0.99073887 -0.13572222 0.020155579
0.0051384973 -0.13241859 0.62288636 0.10680004 0.95023805 -0.2926456 0.047680669
0.044850409 -0.13164136 0.6829924 0.29710948 0.9504621 -0.091366231 0.047739457
0.032844983 -0.13160062 0.67574769 0.20993447 0.97512698 -0.071098261 0.035612155
0.009047999 -0.13388947 0.79564756 0.092887163 0.90577149 0.41346094 0.057636105
-0.11339609 -0.13314696 0.71535915 -0.36134553 0.93232995 0.013794006 0.054709818
-0.10335381 -0.13260365 0.76386571 -0.297506 0.92899364 0.22013834 0.056636661
-0.076052882 -0.13300765 0.62103796 -0.024342429 0.96040493 -0.27754259 0.04795767
-0.11558279 -0.13347326 0.75123757 -0.44195673 0.8867141 0.13569213 0.060652323
-0.022569029 -0.13108742 0.67147428 -0.0038294769 0.99978548 -0.020354794 0.00032202076
-0.062920563 -0.13106446 0.75322199 -0.046471398 0.99415201 0.097479098 0.013435526
-0.073517092 -0.13292864 0.67646605 -0.060744107 0.99806178 -0.01351944 0.0013535855
-0.12789448 -0.13562435 0.77082056 -0.5725745 0.78052765 0.25086838 0.079933599
-0.12429985 -0.1353177 0.61075717 -0.32251975 0.86240226 -0.39018372 0.098335862
-0.15432023 -0.28039074 0.67684096 -0.9994328 0.025264241 0.022266636 0.0017077967
-0.10667101 -0.13373682 0.79023129 -0.33687702 0.8494646 0.40610826 0.082112215
-0.020357372 -0.1300624 0.75287426 0.004390785 0.99446619 0.10496559 0.0099933203
-0.14827308 -0.21112679 0.74205542 -0.98495191 0.084223941 0.15091752 0.0052926042
-0.14281589 -0.23815525 0.79095638 -0.89390373 0.013891556 0.44804376 0.047137037
-0.14840573 -0.19631422 0.73001403 -0.97665191 0.1882266 0.10354602 0.016218627
-0.14295363 -0.30370021 0.79443914 -0.74043846 0.016680794 0.67191708 0.055701621
-0.13712199 -0.1367525 0.69134194 -0.55548394 0.83129406 0.019696131 0.076962598
-0.113246 -0.13301148 0.64428139 -0.26546231 0.9549467 -0.13268998 0.056165613
-0.15354848 -0.30434486 0.70701015 -0.99742639 0.029706677 0.065253422 0.00024647667
-0.15219231 -0.28582424 0.72893953 -0.99458158 0.02371327 0.10121839 0.00084349856
-0.14930411 -0.37483409 0.7784211 -0.86928821 -0.12154865 0.47912827 0.055925462
-0.11172905 -0.13477987 0.78615826 -0.37759903 0.84033686 0.38891256 0.084897213
-0.088484459 -0.13269304 0.70162749 -0.14082924 0.99001437 0.0062180292 0.016059393
-0.044648096 -0.13261196 0.60218173 -0.036007494 0.89362836 -0.44736099 0.058115792
-0.1010929 -0.1355404 0.60135412 -0.19292141 0.83411473 -0.51675338 0.080562249
-0.11307262 -0.13357875 0.59934598 -0.2274233 0.82134509 -0.52313566 0.087527193
-0.033845082 -0.12984809 0.77413249 -0.00062505476 0.97232759 0.23362073 0.037925143
0.0039475914 -0.12979807 0.76238686 0.05780394 0.98460883 0.16493666 0.017266987
-0.011140833 -0.13014121 0.75842983 0.036118653 0.98446184 0.17184342 0.021224644
-0.013596652 -0.12978269 0.73443109 0.0048249299 0.9996838 0.024678679 0.0010960428
-0.095946446 -0.13460678 0.79905838 -0.24271503 0.82954425 0.5029372 0.085335784
-0.11378728 -0.13312094 0.71763593 -0.36674497 0.93028563 0.0081741456 0.054608874
-0.048235882 -0.1311696 0.68277186 -0.023389613 0.9996509 -0.012285254 0.00012471374
-0.093033232 -0.13323231 0.68735605 -0.18434024 0.98281956 -0.0091830604 0.024736663
-0.14294745 -0.13745293 0.69959515 -0.62932873 0.77662766 0.028194105 0.075995781
-0.14458878 -0.18449964 0.76261795 -0.93284547 0.27953848 0.22728296 0.03848616
-0.1376943 -0.13729446 0.68297172 -0.54653728 0.83669198 0.035262786 0.071026675
-0.15631659 -0.27910095 0.63704693 -0.98024762 0.029989794 -0.19548716 0.031178705
-0.15301773 -0.19967996 0.66068971 -0.98990083 0.13846123 -0.03041126 0.01787824
-0.15023182 -0.2283134 0.7262342 -0.99488336 0.047700047 0.089060903 0.00070943247
-0.15125951 -0.23841645 0.71655053 -0.99642283 0.039410692 0.074755266 0.00022980815
-0.14981098 -0.16435593 0.68412846 -0.84619665 0.52339625 0.10003745 0.069534518
-0.14961508 -0.34340811 0.77051198 -0.91827995 0.0094209891 0.39581966 0.043568343
-0.15229969 -0.3575902 0.75083297 -0.97631341 -0.0060734544 0.21627586 0.012623593
-0.052553594 -0.13080135 0.73783582 -0.035444833 0.99843168 0.04333438 0.0029713458
-0.14759198 -0.22967574 0.76333869 -0.96607959 0.038776029 0.25531688 0.019449858
-0.068709753 -0.13152739 0.71042746 -0.066509321 0.99778384 -0.0019730185 0.002290328
-0.1524211 -0.34998745 0.7483114 -0.97836936 0.023536777 0.20552208 0.01110428
-0.15532605 -0.31683564 0.69165719 -0.99823821 0.027577236 0.052534994 0.00039326539
0.049028944 -0.23150337 0.58275455 0.60532403 0.0572448 -0.79391807 0.065004766
-0.13922608 -0.14347328 0.77723384 -0.78471243 0.55081373 0.28430733 0.07390105
-0.15085377 -0.14698194 0.61143327 -0.68203962 0.58736253 -0.43569174 0.12078165
-0.15341105 -0.20527318 0.65973687 -0.99431098 0.10050792 -0.035267331 0.013061065
-0.14801882 -0.20072761 0.73840219 -0.97811657 0.15990506 0.13311012 0.013147547
-0.033894405 -0.13189721 0.60183507 -0.030823095 0.87514704 -0.48287421 0.056031972
-0.03397686 -0.13034257 0.6913321 -0.015788257 0.99980056 -0.01222669 0.00012364521
-0.096365325 -0.13259119 0.63186258 -0.15475239 0.96349484 -0.21847068 0.045576055
-0.14937274 -0.15788946 0.65754879 -0.81099886 0.58372551 -0.039311644 0.074332841
-0.13345467 -0.13787717 0.59555554 -0.37157255 0.69617409 -0.61422753 0.11380532
-0.14006412 -0.22069846 0.79539818 -0.85619944 0.0042074234 0.51662838 0.061955754
-0.1529132 -0.16268016 0.62249726 -0.85093641 0.38905162 -0.35291076 0.098466113
-0.15003307 -0.14877683 0.60765362 -0.68411487 0.55381918 -0.47462729 0.12193679
-0.15458077 -0.34382349 0.71864527 -0.9954887 0.033817057 0.088648833 0.00053455966
-0.14825435 -0.18057911 0.7150749 -0.94512844 0.31537896 0.085254461 0.043732148
-0.15022589 -0.37941977 0.77413404 -0.89483273 -0.16204028 0.41595346 0.055902552
-0.12326479 -0.13535245 0.5998745 -0.277228 0.80420989 -0.52572918 0.09913408
-0.14620478 -0.14318337 0.60728818 -0.59697187 0.64296788 -0.47980925 0.12137207
-0.075792246 -0.13198614 0.73599792 -0.08981315 0.99496895 0.044389393 0.0064545609
-0.13408247 -0.13777323 0.76480401 -0.68404049 0.69700032 0.2151261 0.075902551
-0.13479821 -0.37029421 0.80557847 -0.63154221 -0.070968606 0.77208668 0.056280252
-0.13776939 -0.24144937 0.80450875 -0.7533986 0.009574973 0.65749431 0.05915422
-0.054553062 -0.13200985 0.79602009 -0.02143655 0.92742801 0.37338683 0.06190145
-0.11020647 -0.13351776 0.78493416 -0.35524419 0.86068851 0.36471474 0.080915809
0.0033846579 -0.13183551 0.64923745 0.077764437 0.99260747 -0.093183316 0.012570713
-0.14344169 -0.38343346 0.79706478 -0.77279454 -0.15891184 0.61443925 0.069941796
-0.039051294 -0.13407074 0.80192322 0.027625374 0.88054693 0.47315344 0.072342969
-0.029795138 -0.13265951 0.79958135 0.023616033 0.89121819 0.45295963 0.070305511
-0.13419706 -0.29649958 0.8064813 -0.62516356 -0.013559958 0.78037596 0.055936836
0.047700126 -0.20211343 0.80513096 0.47415754 0.058277942 0.87850916 0.041141368
-0.11597977 -0.34876716 0.81085789 -0.4442735 0.020588862 0.89565462 0.047475655
-0.13480715 -0.16550097 0.80605388 -0.69371825 0.33421546 0.63800859 0.086455911
0.051615149 -0.23723985 0.80561638 0.58873665 0.040862668 0.80729139 0.036038529
-0.12824427 -0.2903513 0.80941188 -0.57702577 -0.031176802 0.81613064 0.051972058
0.058867496 -0.28028727 0.80492777 0.67102408 -0.0199832 0.74116617 0.048642561
0.008760293 -0.30023757 0.81101429 0.16797084 0.010854822 0.9857322 0.0087302523
0.050791003 -0.3157213 0.80574602 0.55539083 -0.039451856 0.83065313 0.049633775
-0.10042594 -0.34518486 0.81368005 -0.30379885 -0.013522711 0.95264024 0.028706407
0.047253069 -0.36317953 0.80545807 0.44585025 -0.050612479 0.89367551 0.045089744
-0.082967453 -0.13200858 0.63457954 -0.087167427 0.97691429 -0.19503935 0.037501857
0.031434819 -0.13823488 0.79891628 0.22095241 0.83816922 0.49865052 0.090339586
-0.13469796 -0.18880722 0.80429488 -0.7173754 0.20654032 0.66536736 0.075815223
-0.13925019 -0.13766406 0.71278793 -0.5957607 0.80234873 0.03613317 0.071420588
0.025160188 -0.15830575 0.80468309 0.21923906 0.59067434 0.7765553 0.098524727
-0.13140135 -0.16089013 0.80580449 -0.61408591 0.4035295 0.67827904 0.091593787
0.0043388908 -0.39759806 0.81067139 0.073593318 -0.33242065 0.94025564 0.052753199
-0.091701113 -0.29792556 0.81413418 -0.23037848 -0.017978152 0.97293502 0.023750946
0.061682183 -0.34914616 0.80103821 0.56670326 -0.015261049 0.8237806 0.052358963
-0.097024806 -0.17431147 0.8130852 -0.30276871 0.28895998 0.90820324 0.064449109
-0.11701948 -0.13657467 0.59994811 -0.24960043 0.79136562 -0.55806816 0.094047338
0.025394719 -0.33172688 0.80907333 0.27840713 -0.038332943 0.95969796 0.024798499
0.065757006 -0.26390111 0.80188107 0.75237745 -9.8941076e-05 0.65873218 0.041599821
0.039668813 -0.15786767 0.80494571 0.30443648 0.54608738 0.78045309 0.118095
-0.14281198 -0.13979235 0.60451221 -0.50158089 0.68886852 -0.52333242 0.11995182
0.02158517 -0.13213968 0.62950736 0.1944481 0.9454596 -0.26133502 0.050931651
0.064964242 -0.15031475 0.79710364 0.56546563 0.6082409 0.55703819 0.13754782
-0.0086323554 -0.13410309 0.80209982 0.051930279 0.87833524 0.4752163 0.066650771
0.046011727 -0.24269605 0.80624175 0.52799529 0.033125028 0.84860104 0.033792507
0.06481865 -0.30842409 0.80152953 0.7026726 -0.033179108 0.71073925 0.055565335
-0.12063633 -0.21110077 0.81225365 -0.57290429 0.047068447 0.81826967 0.063345857
-0.12988237 -0.3056868 0.80714995 -0.55896348 -0.019564452 0.82896143 0.053426821
-0.035817645 -0.14195351 0.80630559 0.029125545 0.79561925 0.60509646 0.079654545
0.015097021 -0.37118638 0.81159139 0.19150946 -0.12359192 0.97367817 0.021120552
-0.020285266 -0.39723441 0.81115443 0.078669406 -0.34600207 0.93492985 0.051391926
-0.14040296 -0.3346985 0.79869163 -0.70042223 -0.014502074 0.71358132 0.06144223
-0.089185461 -0.30020085 0.8141619 -0.22151525 -0.018381942 0.97498357 0.023326576
-0.098113634 -0.31065342 0.81390399 -0.29655179 -0.020098981 0.95480531 0.038093094
-0.13542202 -0.37881345 0.80247629 -0.64998144 -0.12697642 0.74926704 0.066925853
0.076126635 -0.26732767 0.78732401 0.88118929 0.014674657 0.4725357 0.049069263
0.040340412 -0.2972663 0.80778831 0.46713826 -0.01439235 0.88406718 0.049824901
-0.021994989 -0.12992506 0.78647482 0.023240216 0.93875366 0.34380433 0.055041648
-0.0050862073 -0.34262079 0.81267273 0.097532533 0.0059733852 0.9952144 0.001605108
0.032433528 -0.16845877 0.80648786 0.28648415 0.46242136 0.83910269 0.10378192
-0.10744249 -0.13869376 0.80757117 -0.345433 0.66429502 0.66286367 0.094749622
-0.13091892 -0.3567498 0.80694306 -0.59181219 -0.002059974 0.80607319 0.046928883
0.05543207 -0.31239748 0.80567127 0.60921502 -0.038840249 0.79205334 0.050179679
0.039839648 -0.22401011 0.80720997 0.44865119 0.042153969 0.89271218 0.0362585
-0.0054835128 -0.3818745 0.81284755 0.080312103 -0.23474912 0.96873254 0.032518428
-0.12065291 -0.18450192 0.81213206 -0.53815991 0.21056029 0.81611776 0.071099609
-0.082019955 -0.28538978 0.81380212 -0.19825993 -0.034262456 0.97955048 0.017128963
-0.12538469 -0.16002309 0.80681205 -0.52823293 0.41202542 0.74243188 0.089580283
-0.11506709 -0.41476947 0.81196582 -0.33819187 -0.39498052 0.85417604 0.098464742
-0.10951863 -0.13292104 0.73712146 -0.36501437 0.92983419 0.046614479 0.047981504
0.048965298 -0.14331903 0.80163395 0.38199437 0.68801874 0.61701745 0.12811527
-0.13590327 -0.1356779 0.7042768 -0.54688811 0.83652163 0.033836361 0.073318556
0.0063398071 -0.13199683 0.79295295 0.069112204 0.92362547 0.37701392 0.052196398
0.043234974 -0.19919461 0.8054899 0.42037314 0.068008058 0.9047991 0.047436461
-0.13418946 -0.22149897 0.80388695 -0.73385084 0.029778061 0.67865765 0.069474146
-0.12732978 -0.31518701 0.80707473 -0.53907239 -0.011963448 0.84217441 0.054882001
-0.059774466 -0.130605 0.72759175 -0.036180936 0.99931961 0.0071585444 0.00037995566
-0.095580779 -0.3987785 0.81759864 -0.19405864 -0.24779674 0.94917756 0.06155432
-0.085126691 -0.40247035 0.81401986 -0.11115371 -0.31722289 0.94181442 0.068617284
-0.038557939 -0.13164891 0.78814572 -0.0077768634 0.94020861 0.34051016 0.057226956
-0.13319987 -0.28632393 0.80804276 -0.62919545 -0.03613485 0.77640671 0.055748153
-0.0099419942 -0.1301097 0.75302768 0.032499265 0.99093938 0.13031848 0.013963753
-0.12104212 -0.22517496 0.81302249 -0.58833486 0.014835585 0.80848134 0.066779196
-0.091519661 -0.36638507 0.81572026 -0.20137253 -0.052023895 0.97813225 0.02485911
0.012217584 -0.40505129 0.80755883 0.10048435 -0.43047619 0.89699113 0.067304291
0.039943788 -0.18624283 0.80629742 0.40153238 0.15493573 0.90264422 0.07768748
0.006454804 -0.13225573 0.62818003 0.11360271 0.96675944 -0.2290647 0.037420847
-0.140233 -0.31777105 0.79923648 -0.6549561 -0.012177628 0.75556868 0.05348701
0.073491246 -0.26994666 0.79520738 0.84972411 0.0029030519 0.52721959 0.049165733
-0.053311352 -0.40059903 0.8132087 0.059014395 -0.37156883 0.92652786 0.05250366
0.030216884 -0.1315994 0.64307863 0.22273597 0.96420425 -0.1438708 0.038003132
-0.07670898 -0.13425596 0.60705411 -0.042268276 0.92034823 -0.3888092 0.060868017
-0.14293672 -0.14071457 0.65675396 -0.53561443 0.84394038 -0.029694747 0.068927616
-0.14488754 -0.16432357 0.58755851 -0.51094151 0.33042267 -0.79357398 0.10455953
0.012025065 -0.30012527 0.81141102 0.17730865 0.012640646 0.98407412 0.0096114557
-0.13403209 -0.17808865 0.80880558 -0.65014696 0.23680261 0.72196496 0.079530843
0.054343503 -0.27295935 0.80465567 0.62824571 -0.024664016 0.77762395 0.044947483
0.074184805 -0.20500007 0.78960937 0.81156129 0.034183286 0.5832665 0.0509969
-0.10905124 -0.33164328 0.81230569 -0.40638623 -0.02338895 0.91340196 0.044915453
0.07593137 -0.25490835 0.78988504 0.90551901 0.015827123 0.42401034 0.043290045
0.073755898 -0.30229157 0.79306412 0.80193704 -0.0088854898 0.59734249 0.053906679
-0.084034815 -0.13561812 0.80303687 -0.16987295 0.84062004 0.51429671 0.075281322
-0.10300823 -0.38634109 0.81621116 -0.26542184 -0.15045477 0.95232069 0.054529846
-0.017192136 -0.13730115 0.8072558 0.047039069 0.826262 0.56131846 0.07898616
-0.099671334 -0.13348112 0.59977293 -0.17892033 0.83745754 -0.51638401 0.076812744
-0.10193419 -0.13671015 0.60343671 -0.19925003 0.84906155 -0.48927888 0.083086729
-0.08497718 -0.13564922 0.60836923 -0.095116504 0.89315432 -0.43957719 0.070129998
-0.093258783 -0.13342816 0.6823501 -0.18492107 0.98264897 -0.014325188 0.023944346
0.022567041 -0.13042082 0.70942605 0.10765842 0.99377292 -0.028723191 0.013571098
0.016582107 -0.13038318 0.72940665 0.077746987 0.99656135 0.028649747 0.0063537639
-0.0026234887 -0.13358663 0.60300773 0.033628739 0.85662133 -0.51484853 0.060643606
-0.13748839 -0.13732877 0.69555914 -0.58036685 0.81386882 0.028139306 0.078540854
-0.069694042 -0.13225017 0.62255579 -0.022117784 0.96144581 -0.27410349 0.048167478
-0.13699688 -0.1383684 0.7621209 -0.70259047 0.68006861 0.20945968 0.071572632
-0.14069538 -0.36631513 0.79991913 -0.7343623 -0.051876478 0.67677242 0.05340964
0.030639907 -0.14398773 0.80241877 0.24302949 0.74784279 0.61779279 0.10087544
-0.11754842 -0.30260047 0.80940062 -0.4794746 -0.031561896 0.87698799 0.052851185
-0.082968459 -0.2582984 0.81309116 -0.1778471 0.011426665 0.9839918 0.018598227
-0.13203168 -0.17167194 0.80692774 -0.64185405 0.28922167 0.71019304 0.084363922
-0.10997441 -0.13815553 0.80514187 -0.3742041 0.66839904 0.64281714 0.097658888
-0.095090583 -0.13251787 0.73813087 -0.19743228 0.97924834 0.045749702 0.026598744
0.049811468 -0.18907924 0.80425882 0.4996978 0.13364598 0.85582757 0.072403394
-0.11060254 -0.29017845 0.81303674 -0.43242496 -0.050467566 0.9002564 0.045813259
0.023758808 -0.16709858 0.8041386 0.22572638 0.50061393 0.83572316 0.098880008
0.029979153 -0.36805591 0.80968046 0.30757198 -0.10497451 0.94571662 0.038547847
-0.080056131 -0.36240798 0.81561714 -0.12415375 -0.045673542 0.99121124 0.012916033
-0.041449126 -0.38862959 0.81432426 0.082579583 -0.27726275 0.95723867 0.039351892
0.045333087 -0.32906687 0.80610657 0.50265658 -0.05646079 0.86264044 0.048982065
-0.13348229 -0.14740309 0.79475951 -0.68965417 0.52674019 0.49691239 0.091355659
-0.12294262 -0.21818762 0.81171584 -0.61494792 0.026914559 0.78810829 0.068143263
0.042418513 -0.13323188 0.78370863 0.29671475 0.88683063 0.3542482 0.08758802
0.072792985 -0.4026483 0.7980125 0.58936149 -0.30092418 0.74973178 0.090704247
0.042545836 -0.29112259 0.80726933 0.4994024 -0.010539292 0.86630601 0.055686519
0.012341437 -0.14500237 0.58650631 0.11188137 0.62929952 -0.76906735 0.078566745
0.075872488 -0.15858433 0.79245049 0.74148965 0.45381585 0.49421081 0.12590894
0.073869184 -0.3331494 0.79138851 0.76531911 -0.03750065 0.64255762 0.06042657
-0.15310311 -0.36668864 0.74159014 -0.98500377 -0.087563463 0.1486617 0.021944499
-0.11965156 -0.161437 0.80822682 -0.49789003 0.39877832 0.7701177 0.089019403
0.039147999 -0.13523574 0.79532099 0.27417821 0.8499639 0.44987515 0.092249379
0.028022099 -0.13044927 0.74223143 0.17064138 0.97791255 0.12069985 0.032607034
0.075538889 -0.36931115 0.79202092 0.725411 -0.077615768 0.68392593 0.057637248
-0.11907435 -0.33763999 0.8105216 -0.46829039 -0.01096097 0.88350666 0.05072948
0.011713631 -0.13211447 0.65439993 0.11628658 0.98898751 -0.091548085 0.014221258
-0.099115796 -0.33793485 0.8138808 -0.28959018 -0.013598842 0.95705414 0.028171387
-0.11087582 -0.26222846 0.81351644 -0.41088468 -0.022260277 0.91141558 0.042588037
0.05334229 -0.14364015 0.80120802 0.43179569 0.67624009 0.59686834 0.13150552
0.022109747 -0.13196859 0.77051824 0.16927059 0.95191091 0.25536856 0.051823247
0.038803574 -0.14352067 0.80226916 0.27711532 0.71970028 0.63658357 0.10814016
-0.063981354 -0.13066536 0.71695614 -0.046903983 0.99889159 -0.0039518736 0.00081206986
-0.031442311 -0.13193901 0.62519634 -0.042692177 0.95823222 -0.28278685 0.044216365
0.05695371 -0.13278976 0.7122488 0.35590109 0.93437296 -0.016781483 0.056080494
0.062729001 -0.1330054 0.74905449 0.37716684 0.91005552 0.17188407 0.075409032
0.036236726 -0.13203564 0.64197481 0.26083037 0.95383888 -0.14885874 0.045669015
0.06529773 -0.13403967 0.72124094 0.4525736 0.89131576 -0.027081916 0.055857196
0.069708213 -0.13879806 0.67084253 0.63999104 0.75844294 -0.12318976 0.064365134
0.075973339 -0.26350883 0.68015999 0.99635881 0.024993828 -0.081513405 0.00018325211
0.008128074 -0.13341564 0.7938261 0.080409199 0.91912526 0.3856723 0.053899441
0.076389834 -0.26299545 0.68625712 0.99649888 0.024395658 -0.079967886 0.00016958905
0.078776821 -0.26165125 0.71864218 0.99899524 0.02448613 -0.037534568 0.0014828269
0.080336645 -0.26361474 0.78034329 0.93293434 0.025623893 0.35913351 0.04209055
0.073879823 -0.13896941 0.77866775 0.60978365 0.71061921 0.35097617 0.12655489
0.074192218 -0.13921435 0.7510072 0.64908034 0.74693495 0.14416289 0.10622373
0.07607466 -0.37535012 0.6691553 0.98473835 -0.14556186 -0.095405258 0.026524663
0.078979284 -0.28134441 0.70229477 0.99771512 0.02123953 -0.064135477 0.00050360267
0.078147858 -0.29233649 0.77916521 0.92734051 0.046360608 0.37133566 0.058479745
0.054945391 -0.13254213 0.72162807 0.31953853 0.94746739 -0.014165945 0.04899827
0.067761354 -0.13596083 0.78064847 0.51215363 0.77445287 0.37137777 0.11678035
0.080378562 -0.36285323 0.77346873 0.91256946 -0.039931674 0.40696737 0.058294609
0.070854142 -0.13541543 0.77275223 0.53972948 0.77309746 0.33318526 0.11575647
0.081740469 -0.36392665 0.75049192 0.98523206 -0.037128218 0.16715026 0.03164443
0.081271313 -0.25853592 0.78069466 0.93229026 0.01062883 0.36155474 0.039906897
0.078062832 -0.3741678 0.69664335 0.98715913 -0.14639504 -0.063916728 0.022146942
0.074751399 -0.1359989 0.71783233 0.54162085 0.83957928 -0.041874457 0.063638583
0.071822233 -0.23825285 0.62682432 0.95916539 0.035838991 -0.28056613 0.031294856
0.017453201 -0.12973729 0.69999957 0.094496578 0.99505973 -0.030439358 0.0095720328
0.069791801 -0.14072418 0.66826689 0.67370635 0.72770035 -0.12873192 0.064921074
0.036611397 -0.13117252 0.72260541 0.22214617 0.97501278 0.0010546077 0.038092166
0.077419333 -0.2693423 0.78793389 0.88156885 0.014852316 0.47182173 0.049052257
-0.024416659 -0.13217661 0.6417287 -0.0078450944 0.98693049 -0.16095552 0.024101365
0.079563782 -0.36265859 0.77749342 0.85179323 -0.036130179 0.52263087 0.056993943
0.081915155 -0.29409331 0.7535159 0.98633152 0.029711166 0.16207197 0.020658446
0.07205715 -0.13717744 0.69301057 0.6487835 0.75546914 -0.091358125 0.073360048
0.075693712 -0.14747843 0.74681062 0.72876 0.67259538 0.12854671 0.10501657
0.069144242 -0.41197717 0.61505449 0.82779956 -0.45166695 -0.33278343 0.097398214
0.075067475 -0.33164358 0.65796524 0.99090964 0.0053781131 -0.13442138 0.00093433983
0.080745205 -0.27730909 0.73718143 0.99712825 0.023436114 0.072014481 0.010191406
0.073226094 -0.13718086 0.75323486 0.59941792 0.78161126 0.17257462 0.10507458
-0.12845694 -0.13746648 0.60191071 -0.32244673 0.79965401 -0.50653875 0.1103033
0.074389502 -0.37973201 0.64112723 0.96362752 -0.1913991 -0.18651624 0.038723677
0.070676632 -0.33564779 0.62051296 0.94375622 -0.03047744 -0.32923442 0.036359496
0.080654979 -0.26861364 0.75533926 0.98792773 -0.014517089 0.15423372 0.021221129
-0.036963046 -0.13015758 0.74459851 -0.026340935 0.99738061 0.067365065 0.0063708127
0.081209235 -0.29363742 0.71817499 0.99901551 0.021898072 -0.038582392 0.0010476067
0.078086898 -0.37297165 0.69565892 0.98761183 -0.14343572 -0.063632227 0.021719577
0.081120335 -0.33810306 0.7180171 0.99977171 -0.0087384693 -0.019495582 0.0021069306
0.08012905 -0.34823939 0.71852267 0.99968761 -0.015367747 -0.019711602 0.0023762591
0.019097317 -0.13304158 0.61143166 0.19994003 0.87687349 -0.43716913 0.06889388
0.073963508 -0.23802345 0.65980518 0.99407172 0.019688424 -0.10692843 0.0013206059
0.056981202 -0.41740504 0.58825171 0.56730461 -0.47878096 -0.67002565 0.13012464
0.0091582574 -0.13253182 0.61344337 0.14636491 0.89076889 -0.43024185 0.064256556
0.073904194 -0.2784335 0.64913487 0.98853838 0.024283649 -0.14900421 0.003149057
0.069088548 -0.25988445 0.61011833 0.93343651 0.05833979 -0.35396704 0.037946284
0.073502123 -0.25509524 0.65058678 0.98818636 0.020693028 -0.15185325 0.0041734623
0.07783559 -0.36818099 0.68727863 0.99045837 -0.11448336 -0.076719262 0.016437406
-0.041862201 -0.13227655 0.6008662 -0.034575723 0.86821854 -0.49497598 0.059028916
0.06990274 -0.2498644 0.61440289 0.93794698 0.058957543 -0.34173006 0.039464504
0.080308728 -0.27515963 0.77203089 0.96411437 0.016234314 0.26499042 0.033726979
0.061563335 -0.32186273 0.58347559 0.78227925 -0.037091445 -0.6218226 0.066602156
0.075230747 -0.19047223 0.69219989 0.98417193 0.1625921 -0.070493542 0.022744518
0.077416725 -0.26443779 0.70034719 0.99691504 0.026524283 -0.073870264 0.00022773264
0.064169638 -0.28158897 0.59197348 0.86038411 0.0474209 -0.50743532 0.046946667
0.062716149 -0.29465008 0.5834949 0.81184602 0.026136449 -0.58328635 0.050921287
0.06698785 -0.23538542 0.60376763 0.84929729 0.080719516 -0.52170718 0.070331961
0.070302151 -0.34135813 0.61784571 0.93749732 -0.037988011 -0.34591275 0.041808974
0.077911399 -0.35194552 0.68528128 0.9964757 -0.0006917867 -0.083878972 0.00034532079
0.071269304 -0.20789555 0.62568325 0.94926232 0.025392847 -0.31345874 0.037121587
0.062780567 -0.31575525 0.58691287 0.83450329 -0.049143188 -0.54880708 0.0606764
0.059304174 -0.36620826 0.58646452 0.65900874 -0.070336692 -0.74883926 0.072902448
0.074687272 -0.22639441 0.68746579 0.99653423 0.027302094 -0.078575142 0.00027968691
0.060791023 -0.18169902 0.58608288 0.59672081 0.24363181 -0.7645703 0.090755619
0.075232312 -0.37013417 0.65526551 0.98438525 -0.13071638 -0.11789364 0.020505687
0.059913039 -0.20951936 0.58876014 0.71714324 0.044360232 -0.69551253 0.067933284
0.070224784 -0.16644712 0.6158061 0.81503731 0.39268023 -0.42604738 0.083903849
0.061985027 -0.39166564 0.58533007 0.61837125 -0.21818061 -0.75499278 0.10723326
0.050624479 -0.13429721 0.65255719 0.39126992 0.91227716 -0.12107155 0.052791312
0.066498578 -0.20486429 0.60085046 0.8181904 0.056517288 -0.57216275 0.069411799
-0.12435359 -0.13453159 0.72251326 -0.47229216 0.8809396 0.029756706 0.066257447
0.08083532 -0.3776544 0.77404195 0.89251316 -0.14401026 0.42741239 0.072815441
0.063776627 -0.30813313 0.5863502 0.85711092 -0.045235295 -0.51314193 0.052310374
0.062293801 -0.41868076 0.59753889 0.71692204 -0.52689582 -0.4565123 0.12124049
0.071476139 -0.13520125 0.71634382 0.52860129 0.84802109 -0.037957996 0.064673111
0.060901426 -0.35961434 0.58998448 0.74521941 -0.041638967 -0.66551805 0.072219372
0.012890127 -0.13009182 0.71678144 0.061817236 0.99804819 -0.0088559091 0.0031058111
0.007701376 -0.13241376 0.62020719 0.13231087 0.92218393 -0.36341527 0.057317831
0.07572443 -0.35593122 0.79001611 0.78066134 -0.0019172991 0.62495142 0.050250314
0.071535245 -0.27426291 0.62382191 0.96638507 0.039158225 -0.25409958 0.02003658
0.060584076 -0.14151214 0.59981203 0.60764313 0.61008459 -0.50849444 0.091516137
0.056026619 -0.13552214 0.64410508 0.51986152 0.83523035 -0.17926005 0.062094077
0.072990999 -0.20234461 0.65871227 0.98917115 0.099593058 -0.10780375 0.0094020544
-0.096885435 -0.13341191 0.66833794 -0.17879172 0.98369563 -0.019402249 0.022115348
0.076017328 -0.38033196 0.79216754 0.67972136 -0.13519593 0.72090292 0.062886387
0.081761077 -0.36034858 0.75426263 0.98168379 -0.013457749 0.19004162 0.03003273
-0.0012788428 -0.13272803 0.60681611 0.055380464 0.87843704 -0.47463807 0.057489321
-0.12682569 -0.13378528 0.6303249 -0.37749106 0.90160394 -0.21121261 0.082329035
0.036365747 -0.13080744 0.7342205 0.19548912 0.97773576 0.076267004 0.029856762
0.033830289 -0.13662899 0.59457731 0.26596895 0.75895721 -0.59434372 0.082148015
0.073551767 -0.14003986 0.79325598 0.61798513 0.63015956 0.47009927 0.12503742
0.071743928 -0.14407115 0.79817057 0.61954069 0.58012503 0.52879512 0.12968336
0.040876016 -0.1347049 0.79585415 0.28004241 0.85456181 0.43737903 0.091616653
-0.0019212513 -0.12987615 0.71108627 0.02395978 0.99962401 -0.013329495 0.00065224507
-0.10649811 -0.13242285 0.7398805 -0.3246837 0.94399828 0.058717381 0.043438632
-0.13004236 -0.13524996 0.72772223 -0.53241736 0.84554589 0.039798122 0.067642994
0.07329683 -0.14292677 0.79800367 0.63097507 0.57482153 0.52100921 0.12871864
-0.13855751 -0.13654166 0.60738659 -0.43670684 0.79246724 -0.42577314 0.11400288
0.067885838 -0.13974711 0.79609162 0.53971332 0.6879226 0.48525465 0.12525076
-0.039700825 -0.13218004 0.6473425 -0.034898486 0.98976767 -0.13835467 0.020797392
-0.14330155 -0.14074223 0.65468717 -0.54915798 0.83406216 -0.052592456 0.071527742
0.081619628 -0.36590463 0.75015283 0.98818815 -0.057954215 0.14186431 0.032542814
0.068107434 -0.39442825 0.6068421 0.85850847 -0.27043813 -0.43569082 0.090784423
0.071228988 -0.31887287 0.62111777 0.95657873 -0.012870585 -0.29118994 0.0287093
0.068228327 -0.33784923 0.60672784 0.89936644 -0.048999757 -0.43444106 0.05648414
0.08139649 -0.34003878 0.74611795 0.98780155 0.00077450805 0.15571587 0.024747342
0.0653622 -0.29871976 0.58922982 0.87035269 0.013051373 -0.49225587 0.051849373
0.069192708 -0.14428498 0.65772611 0.73516452 0.66700518 -0.12098403 0.063482456
0.081633687 -0.36566284 0.75010592 0.9880687 -0.05024315 0.14558807 0.0309976
0.081415087 -0.33968782 0.74600255 0.9885897 0.0041907756 0.15057513 0.023183564
0.06830363 -0.33780766 0.60698009 0.89936644 -0.048999757 -0.43444106 0.05648414
0.06899517 -0.14410901 0.65733767 0.72617459 0.67663807 -0.12178387 0.062346734
0.068108164 -0.39434874 0.60687 0.85850847 -0.27043813 -0.43569082 0.090784423
0.067823678 -0.39449972 0.606951 0.85393894 -0.27158287 -0.44388187 0.092276894
0.06894543 -0.14394778 0.65743852 0.72720236 0.67571992 -0.12074503 0.062547043
