# .PCD v0.7 - Point Cloud Data file format
VERSION 0.7
FIELDS x y z
SIZE 4 4 4
TYPE F F F
COUNT 1 1 1
WIDTH 1396
HEIGHT 1
VIEWPOINT 0 0 0 1 0 0 0
POINTS 1396
DATA ascii
-0.15228841 -0.2109036 0.74243331
-0.14620569 -0.2379051 0.79185742
-0.1489573 -0.1962619 0.73005408
-0.14677431 -0.30348051 0.79665631
-0.1383263 -0.1333058 0.69133091
-0.1132475 -0.1302527 0.6443767
-0.155075 -0.30425459 0.70706183
-0.15265781 -0.28580239 0.72895873
-0.1519053 -0.37475249 0.77903968
-0.1115732 -0.1356333 0.78609377
-0.088723302 -0.12780529 0.70141149
-0.044629011 -0.12924211 0.60198349
-0.1002482 -0.1299905 0.59656882
-0.1133764 -0.12825391 0.5934273
-0.033861101 -0.1268 0.77419382
0.0039745569 -0.1275828 0.76228309
-0.0110625 -0.1285965 0.75842983
-0.01358163 -0.1291402 0.73444599
-0.095729291 -0.1294961 0.79964912
-0.1137624 -0.13417581 0.71763039
-0.048324611 -0.1280825 0.6825428
-0.093057632 -0.1319932 0.68732828
-0.1484976 -0.1262365 0.7008636
-0.1486133 -0.1842318 0.76292372
-0.14025509 -0.13132709 0.68291807
-0.1572983 -0.27912199 0.63709038
-0.15688521 -0.1994281 0.66076177
-0.1505601 -0.22829419 0.72625089
-0.1524802 -0.2383936 0.71661383
-0.15230189 -0.1641054 0.68430078
-0.156066 -0.34270751 0.77119839
-0.1537049 -0.3575176 0.75089848
-0.052731421 -0.1259609 0.73820323
-0.1512502 -0.22950611 0.76361549
-0.068806171 -0.1304439 0.71040469
-0.1545956 -0.34982821 0.74836367
-0.15931331 -0.31654999 0.69173849
0.051921189 -0.23148981 0.57553738
-0.1452169 -0.13766541 0.77907521
-0.160862 -0.1421551 0.60838312
-0.1563607 -0.2051256 0.65987211
-0.15109199 -0.2004804 0.73856962
-0.033445179 -0.12737811 0.60178041
-0.034058481 -0.1274623 0.69112277
-0.096425273 -0.1304916 0.63195032
-0.1547112 -0.156305 0.65775257
-0.13571879 -0.1303248 0.59325039
-0.14759541 -0.2203971 0.79849392
-0.15630271 -0.1623833 0.62245661
-0.1586134 -0.1451479 0.60398901
-0.1566188 -0.3436918 0.7189917
-0.1526513 -0.1803932 0.71536922
-0.1560614 -0.3792772 0.77533442
-0.1240081 -0.127845 0.593687
-0.1522271 -0.13881619 0.60548007
-0.075888284 -0.1298452 0.73603982
-0.1354674 -0.1324897 0.76491702
-0.1366498 -0.370455 0.80746979
-0.14575081 -0.24104179 0.81039208
-0.054810211 -0.1279653 0.79766119
-0.1106726 -0.12775829 0.78506571
-0.1044717 -0.42590529 0.81420451
0.003381222 -0.1316295 0.64923197
-0.145465 -0.3834292 0.79817832
-0.038831551 -0.13080931 0.80354887
-0.02979389 -0.1272337 0.80184323
-0.1375186 -0.29668009 0.80976218
0.047548801 -0.2021139 0.80447203
-0.1163043 -0.3487387 0.81218809
-0.14360569 -0.164676 0.80961841
-0.01148736 -0.4200817 0.81210351
0.051984649 -0.2372306 0.80784541
-0.12938321 -0.29081449 0.81210679
0.05770928 -0.2803008 0.80333948
-0.097812027 -0.4246051 0.82278597
0.0085974783 -0.3002823 0.80938852
0.051050771 -0.3158271 0.80729222
0.0010969189 -0.42501339 0.81958669
-0.1002367 -0.34531629 0.81172878
0.04752326 -0.3631109 0.80654502
-0.083062872 -0.1301477 0.63467199
0.0317006 -0.1364529 0.80200791
-0.13521799 -0.1888136 0.80467921
-0.1423963 -0.1304372 0.71368158
0.025273969 -0.1588459 0.80199158
-0.1350974 -0.159545 0.80830753
0.0043720528 -0.39772081 0.81191552
-0.091758601 -0.29796711 0.81059319
0.0616665 -0.34914431 0.80101413
-0.036928799 -0.4222748 0.80483037
-0.097055018 -0.1747119 0.8090713
-0.1169301 -0.1324669 0.59697503
0.02479009 -0.33180529 0.80348098
0.062882721 -0.263675 0.79873508
0.0396537 -0.1580037 0.80406529
-0.1467175 -0.134186 0.60426289
0.021586791 -0.1287816 0.62943661
0.065434083 -0.1499891 0.79816318
-0.0087079853 -0.1361368 0.80141288
0.044966239 -0.2425985 0.80064237
0.063931987 -0.30844411 0.80016619
-0.1185582 -0.210869 0.80791038
-0.1332406 -0.30674669 0.81259698
-0.036310632 -0.14404041 0.80379069
0.01469441 -0.37135261 0.80683821
-0.02071413 -0.39588699 0.80414069
-0.1447396 -0.33480811 0.80114979
-0.089155398 -0.30018401 0.81594688
-0.098270647 -0.31064919 0.80666667
-0.13078301 -0.37792501 0.79791337
0.068819419 -0.26740611 0.78375381
0.04013041 -0.29715061 0.80600268
-0.02200349 -0.1281171 0.78657722
-0.0060143918 -0.34264871 0.80229843
0.03202666 -0.1686525 0.80202359
-0.1082411 -0.1337674 0.80949461
-0.1321833 -0.35632819 0.809394
0.05648376 -0.31273851 0.81113738
0.039497659 -0.22419821 0.80385208
-0.0057925582 -0.38181829 0.8076213
-0.070124857 -0.4175505 0.81358582
0.049384732 -0.41688851 0.80538338
-0.1189731 -0.184726 0.80768943
-0.081876427 -0.28561309 0.80636537
-0.12661821 -0.1589331 0.81075221
-0.1150727 -0.41403431 0.81042928
-0.1093164 -0.1280764 0.7371735
0.04959546 -0.14113779 0.80827391
-0.1376317 -0.1289127 0.70482707
0.0068536252 -0.1231485 0.79481077
0.040582761 -0.19884969 0.79237682
-0.13018809 -0.2212631 0.80056423
-0.1294983 -0.3158682 0.81148559
-0.05986369 -0.1293842 0.72761482
-0.094737709 -0.399111 0.82328492
-0.085474223 -0.40211731 0.8118034
-0.038977072 -0.12705819 0.78865218
-0.1338584 -0.28640151 0.80898148
-0.0096737593 -0.124366 0.75292432
-0.1185094 -0.2252707 0.8079924
-0.1048454 -0.42142871 0.81433892
-0.091495357 -0.36676279 0.81156957
0.01223285 -0.40490279 0.80694228
0.039709941 -0.1861563 0.80314207
0.0064121191 -0.1301652 0.62815201
-0.1436702 -0.3176215 0.80148828
0.076011524 -0.27003139 0.79725379
0.036072422 -0.42302221 0.80339962
-0.05348308 -0.40031669 0.81129229
0.03021298 -0.1301841 0.64306557
-0.077253111 -0.1264919 0.60562068
-0.14703859 -0.13494819 0.6560685
-0.1587927 -0.1652824 0.57942921
0.01151474 -0.30009189 0.80843228
-0.13715941 -0.17829549 0.81140012
0.054373521 -0.27295521 0.8047266
0.078767732 -0.2059671 0.79304129
-0.1080958 -0.33186561 0.80641252
0.02376412 -0.41282639 0.80122203
0.078939617 -0.25482759 0.79212368
0.077324606 -0.30243719 0.79660052
-0.083978973 -0.13415851 0.80343109
-0.102974 -0.38637951 0.81561261
-0.01716299 -0.14599331 0.80309987
-0.098832987 -0.1288023 0.59323227
-0.1014791 -0.1322753 0.60097039
-0.084742919 -0.1327529 0.60678208
-0.093227282 -0.1358082 0.68241853
0.02257265 -0.1302221 0.70943189
0.01657526 -0.130749 0.72940099
-0.0026336459 -0.1296687 0.60266721
-0.13965701 -0.13188571 0.6960091
-0.06973853 -0.13113061 0.6225487
-0.1390025 -0.1310485 0.76236057
-0.1415955 -0.36631671 0.80058318
0.03074516 -0.1433323 0.80387938
-0.1166813 -0.3018539 0.80576169
-0.083748966 -0.25798619 0.79940361
-0.13250721 -0.1716186 0.8076275
-0.1107911 -0.1329937 0.80721509
-0.095215186 -0.12654249 0.73839831
0.050121401 -0.189145 0.80579978
-0.1103875 -0.2903243 0.80844969
0.02423604 -0.1673758 0.79988217
0.029958891 -0.3680664 0.80948901
-0.080569923 -0.3632454 0.80413687
-0.041077789 -0.38896 0.8195104
0.044561312 -0.3291662 0.80150902
-0.1375284 -0.1434077 0.79703778
-0.1191344 -0.2182944 0.80573893
-0.1521157 -0.42080611 0.71176982
0.04251742 -0.12845621 0.78495169
0.075129732 -0.40274441 0.79982293
0.04218768 -0.29103109 0.80423069
0.0110641 -0.1349667 0.57789987
0.078458004 -0.1583029 0.79386657
0.077415928 -0.3329308 0.79364967
-0.15171009 -0.36677089 0.74154598
-0.1203028 -0.1605881 0.81183368
0.039129179 -0.1344983 0.79621643
0.028036131 -0.1254912 0.74221301
0.077935591 -0.3692337 0.79336709
0.5008682 -0.42384359 0.27787581
-0.123324 -0.42228791 0.81689012
-0.1185093 -0.33769259 0.80879569
0.01169498 -0.13438091 0.65445727
-0.098809429 -0.33801189 0.81072807
-0.1108804 -0.2622306 0.81324208
0.054680541 -0.1404181 0.80997348
0.02196376 -0.1346778 0.77036119
0.03880639 -0.1425239 0.80451202
-0.06434615 -0.1265651 0.71694303
-0.03141579 -0.1310214 0.6251986
0.05710781 -0.1311523 0.71218473
0.063068122 -0.13131391 0.74901551
0.036216941 -0.132696 0.64198709
0.065729678 -0.1312007 0.72115302
0.073138207 -0.1333223 0.66995591
0.07825622 -0.2633853 0.68002331
0.0084533393 -0.1293581 0.79520679
0.078437418 -0.26277819 0.68615252
0.075683147 -0.2618767 0.71887988
0.078906 -0.26334429 0.77980411
0.077181518 -0.1349858 0.77910531
0.076840639 -0.13568009 0.7507844
0.074683577 -0.3752844 0.66926807
0.074282438 -0.4135063 0.67142522
0.075761169 -0.2816706 0.70252752
0.078204326 -0.29233879 0.77918392
0.05530021 -0.1293163 0.72156608
0.069529533 -0.13072491 0.78139198
0.080344588 -0.36285579 0.77346492
0.074160457 -0.1298859 0.77294922
0.080398917 -0.36393511 0.75055557
0.082001269 -0.25863001 0.78096491
0.076491266 -0.37411159 0.69667321
0.074792393 -0.1358178 0.71782762
0.068594128 -0.2382676 0.62709868
0.01744229 -0.1298794 0.69999951
0.073858559 -0.13621961 0.66771603
0.036616411 -0.1307776 0.72260737
0.080226183 -0.26941949 0.78942919
-0.02439362 -0.13057829 0.64171559
0.07956633 -0.36265841 0.77749377
0.07680586 -0.29423219 0.75354338
0.073447168 -0.13436189 0.69291222
0.079994261 -0.1454754 0.74604511
0.074882239 -0.4126716 0.61420351
0.071574964 -0.3316792 0.65833998
0.077920437 -0.27757281 0.7373631
0.075280547 -0.1331251 0.75306302
-0.1288635 -0.1312777 0.60053217
0.074339747 -0.37973359 0.64113468
0.073804349 -0.3357242 0.62011337
0.075958997 -0.41395381 0.74708068
0.079534143 -0.2686471 0.75537801
0.07262826 -0.42461619 0.63147229
-0.03696746 -0.1299047 0.74460143
0.07733798 -0.41092789 0.74486393
0.078223944 -0.29396951 0.71829891
0.078356802 -0.37298131 0.6956538
0.077624768 -0.33753431 0.71810091
0.074522823 -0.34771261 0.71863538
0.019102991 -0.1325012 0.61139578
0.07583335 -0.23794331 0.6597411
0.062991172 -0.4209663 0.58045912
0.0091270208 -0.1296279 0.61338621
0.069573909 -0.27840161 0.64935571
0.069352917 -0.25987479 0.61003709
0.074119747 -0.2550889 0.65054822
0.077548772 -0.36817151 0.68728203
-0.04178011 -0.1302404 0.60076708
0.070953429 -0.24983519 0.61412132
0.079969943 -0.27516109 0.77196991
0.065839954 -0.32194361 0.57491982
0.065797947 -0.1900288 0.69328088
0.071855433 -0.26494709 0.7006253
0.066827632 -0.28143531 0.59068978
0.06495595 -0.29451719 0.58033282
0.066783518 -0.23537441 0.60384041
0.075641632 -0.3414287 0.61704952
0.074955642 -0.35194811 0.68548262
0.07142818 -0.2078993 0.62567312
0.065619826 -0.31566849 0.58531737
0.060722109 -0.36602709 0.5844118
0.062041909 -0.2269204 0.68812191
0.066625237 -0.18223169 0.58077908
0.074652523 -0.3701427 0.65532798
0.064863183 -0.2101035 0.58343202
0.064734697 -0.1670538 0.61680508
0.064196348 -0.39175221 0.58113003
0.0511145 -0.1314642 0.65237552
0.066127688 -0.204863 0.60103631
-0.1248877 -0.13124511 0.72276908
0.079578847 -0.37766999 0.77390969
0.068795949 -0.3080709 0.58358389
0.066864669 -0.4203161 0.5950352
0.073328473 -0.42165041 0.61961848
0.07172066 -0.1339526 0.71631461
0.058897879 -0.35948861 0.59170729
0.01291078 -0.1290631 0.71683443
0.0077421069 -0.13459431 0.62023902
0.078451753 -0.3559967 0.79137409
0.071345903 -0.2742663 0.62383813
0.06526649 -0.1318363 0.59601951
0.057193991 -0.1310986 0.64372158
0.070384137 -0.2023522 0.65874118
-0.096927337 -0.1310287 0.66833401
0.080110133 -0.37996951 0.7948488
0.075705439 -0.36034131 0.75440562
-0.00130406 -0.1283078 0.60662371
-0.12702569 -0.13247789 0.63033992
0.036360949 -0.13126139 0.73422742
0.034457739 -0.1310434 0.59351039
0.081482828 -0.13343459 0.79645008
0.074588753 -0.13814791 0.80248332
0.040950391 -0.1292312 0.80064952
-0.001906276 -0.1288193 0.7111246
-0.1063546 -0.12790111 0.73995531
-0.1309467 -0.1300339 0.7281214
0.076617062 -0.1348139 0.80281109
-0.14175449 -0.1295803 0.60737872
0.069566101 -0.13112891 0.80134141
-0.03970331 -0.1319706 0.64734077
-0.14789049 -0.1337772 0.65398711
0.078779012 -0.36600009 0.75026542
0.069990307 -0.3942717 0.60634619
0.070662737 -0.31886411 0.62118369
0.0675506 -0.3378368 0.60683352
0.081540696 -0.41258839 0.77536339
0.076927513 -0.3397404 0.74630523
0.067345679 -0.29874721 0.58813828
0.072566628 -0.141587 0.65713978
0.078762174 -0.36573571 0.75021929
0.076916903 -0.33938751 0.74619108
0.067676723 -0.3377983 0.60707557
0.071980663 -0.14151651 0.65672028
0.081193537 -0.4124378 0.7753126
0.06955421 -0.39422849 0.60648912
0.069281101 -0.3944124 0.60655469
0.071553953 -0.14158881 0.65691882
0.068065643 -0.1507169 0.58588082
0.072673261 -0.1334134 0.61655438
0.073974848 -0.26369381 0.72251391
0.074512422 -0.28233179 0.70275748
0.0743016 -0.26285601 0.7212584
0.06056517 -0.36430699 0.58456498
0.07458216 -0.3445847 0.61447161
0.069897197 -0.3381573 0.6172716
0.061912 -0.3940548 0.58090508
0.060077339 -0.3654404 0.57910663
0.071851462 -0.3481687 0.61530173
0.073635578 -0.2406884 0.65709752
0.079186887 -0.36526379 0.74872828
-0.1057812 -0.12999099 0.59259647
0.06795305 -0.29826811 0.58909619
0.070307851 -0.25012851 0.61279458
0.062947333 -0.39184389 0.58307892
0.067712009 -0.39369151 0.59231049
0.068817139 -0.2040761 0.60255462
0.069306307 -0.2087253 0.61463612
0.071688063 -0.1769575 0.62361318
0.068050317 -0.3935765 0.59234703
-0.1501577 -0.1329385 0.59431678
0.02574956 -0.131451 0.61577111
-0.0032323599 -0.1301028 0.61176962
0.073398441 -0.1808183 0.58411968
0.07314235 -0.13406751 0.6181584
0.069780409 -0.1911584 0.59356391
0.068239212 -0.21543659 0.58996117
-0.01193351 -0.1316748 0.63895339
0.065864094 -0.32148451 0.57628888
-0.02490503 -0.1303677 0.66774201
0.072717831 -0.13540339 0.66737401
0.07280761 -0.1389693 0.66639012
0.081127733 -0.1443519 0.74443728
0.07734549 -0.13277499 0.77791399
0.077569403 -0.13322181 0.75340909
0.077943563 -0.13173559 0.67114222
0.073417902 -0.1326316 0.65686888
0.075640693 -0.26004079 0.71780908
0.073184192 -0.2317342 0.70007777
0.077571541 -0.2265286 0.72414088
0.082834452 -0.18363459 0.75340402
0.067998894 -0.12953091 0.72062463
0.083867908 -0.2898885 0.70599508
0.068763971 -0.13107879 0.75605989
-0.046320621 -0.37035149 0.81409973
0.051496949 -0.19874839 0.80729789
0.079269052 -0.35047171 0.79133677
0.05176365 -0.3156836 0.80871272
0.080329403 -0.1950886 0.78068137
0.05441409 -0.12985051 0.65410513
-0.0049654841 -0.41606039 0.81605649
0.052341878 -0.31830299 0.80482811
0.04024506 -0.129144 0.73574972
0.062636197 -0.1302696 0.655532
0.051003098 -0.1277196 0.7283839
-0.1377169 -0.1265737 0.64333922
-0.1355771 -0.128033 0.7296735
0.08038944 -0.1345083 0.80445862
-0.04860222 -0.34249049 0.81013119
0.074373841 -0.1299388 0.80251259
0.0037605171 -0.13562889 0.62695652
-0.07306236 -0.1287929 0.72946411
-0.1276053 -0.1251653 0.72146899
-0.078101523 -0.12992211 0.63132292
0.029059051 -0.1330625 0.80465251
-0.090533733 -0.3141351 0.81358838
-0.088591456 -0.25469571 0.81249082
-0.016082641 -0.2688196 0.81187618
-0.009440124 -0.12791739 0.74406952
-0.029261891 -0.127663 0.80611742
-0.083875597 -0.1272012 0.79519439
0.0048235361 -0.1286637 0.75001758
-0.028040741 -0.12873641 0.73534131
-0.03890058 -0.12984601 0.80843019
-0.0562253 -0.1299383 0.8077836
0.074340463 -0.1285332 0.79650241
0.035624921 -0.1908135 0.80022168
0.061908659 -0.26390049 0.80542618
0.067558654 -0.2231375 0.68495321
0.071475133 -0.35403669 0.64617288
0.063657433 -0.1509393 0.80261678
0.076644182 -0.41311821 0.71442038
0.067655981 -0.39511269 0.57466078
0.073971242 -0.33129379 0.7990495
0.05118385 -0.2399424 0.80647981
0.04405934 -0.39098611 0.81136459
0.07374987 -0.3655642 0.80069202
0.080609262 -0.33003891 0.76351029
-0.064489067 -0.37148061 0.81367248
0.062771961 -0.26539981 0.79134703
-0.1200793 -0.12790529 0.80738658
-0.021458769 -0.12632801 0.72761178
-0.1329307 -0.12759259 0.77822512
-0.1007565 -0.12987649 0.79815382
-0.017607059 -0.3500354 0.81675398
-0.061850939 -0.2869902 0.8128646
0.081007749 -0.3878527 0.79236609
-0.006319582 -0.12883461 0.78646982
-0.1188883 -0.1286363 0.79227918
-0.059055571 -0.1428024 0.81452328
-0.070641249 -0.1264887 0.61919481
-0.045241799 -0.12954579 0.68560308
-0.1073985 -0.13221779 0.81264871
0.03858855 -0.2205238 0.80681372
0.01238453 -0.36740741 0.81195492
-0.03872234 -0.1237902 0.79582042
0.02924913 -0.14399999 0.80352879
-0.060685631 -0.23269279 0.80468208
-0.01165065 -0.13171861 0.61127651
0.02365398 -0.40291351 0.81306279
0.004778475 -0.39630699 0.81331748
0.067445964 -0.3133066 0.80480421
0.02390385 -0.32810351 0.80925548
-0.080037586 -0.3005749 0.81441587
0.035159439 -0.35918909 0.80851519
0.081939608 -0.28794301 0.69132471
0.001311868 -0.131184 0.75664759
-0.1382015 -0.4129518 0.81645489
0.054088529 -0.14434791 0.80521297
-0.05046213 -0.1260758 0.81031072
-0.12724359 -0.26156029 0.81516957
0.01235193 -0.1229184 0.74132627
-0.0087092817 -0.41535839 0.81514168
-0.052418891 -0.40166959 0.81562012
-0.1062617 -0.32271111 0.81745273
0.078493387 -0.2110287 0.77899009
-0.02156505 -0.3856113 0.8155849
0.080313563 -0.2077564 0.78605533
0.077831089 -0.13851739 0.75120538
0.084010594 -0.3242929 0.74705207
0.080299467 -0.28788519 0.7340495
0.032667641 -0.1679723 0.80934542
0.062933728 -0.1832865 0.80534643
0.072026357 -0.1296453 0.70764828
0.066272467 -0.1318289 0.80502629
0.01496583 -0.128451 0.71398371
-0.095334709 -0.1751482 0.81097633
0.078952283 -0.15424 0.79257143
-0.128372 -0.20303661 0.81232929
0.083627723 -0.17955171 0.80281532
0.039683972 -0.1433232 0.80739301
0.084527813 -0.1745646 0.75092131
-0.1357245 -0.18106879 0.81465662
-0.070708573 -0.1872372 0.81147468
0.071356982 -0.24309149 0.66873062
0.076090477 -0.21116421 0.72139138
-0.1201881 -0.13240831 0.63328367
0.04491457 -0.1268831 0.7877425
-0.1071191 -0.1312895 0.74077129
0.01948056 -0.1246109 0.75189102
-0.060174409 -0.1300095 0.73265553
-0.059152748 -0.1235577 0.72956401
-0.068066724 -0.131731 0.81339872
-0.054811839 -0.1296964 0.71213698
0.03634515 -0.1323183 0.80918747
-0.1237978 -0.28870001 0.81729072
0.006301403 -0.36577499 0.81069571
0.05784446 -0.27758741 0.80656308
0.06218414 -0.307098 0.80318522
-0.073202342 -0.3477973 0.81555629
-0.053155899 -0.30825239 0.81544578
0.050626341 -0.36364269 0.80741578
0.05120568 -0.1300614 0.75070322
-0.017109159 -0.1286445 0.67479843
0.061292689 -0.13298669 0.74631238
0.03651078 -0.124661 0.7186811
0.0436153 -0.1305607 0.73785251
0.04027994 -0.129779 0.72480512
0.048916768 -0.1185528 0.72063267
-0.074438207 -0.13412119 0.64736342
0.075016618 -0.33546421 0.79465419
-0.05353659 -0.1366412 0.81299651
-0.093018442 -0.127942 0.6672588
0.05543435 -0.1280826 0.59896928
-0.088760547 -0.3610476 0.81977868
0.061893169 -0.34015891 0.81091821
-0.1187495 -0.18366989 0.81495231
0.051268671 -0.41281521 0.810431
-0.079101034 -0.14081261 0.81380492
-0.089711547 -0.2151172 0.81442982
-0.089595139 -0.1267873 0.7865234
-0.1278522 -0.3623583 0.81571138
0.056376189 -0.1989543 0.80903298
0.074937887 -0.1544756 0.80668998
-0.05202866 -0.33286139 0.81882721
-0.091076672 -0.2703217 0.81148708
0.024291569 -0.37258819 0.81367779
0.056203101 -0.27496549 0.80779022
0.079403222 -0.2767275 0.74874562
0.072912201 -0.25719401 0.65906352
0.080030799 -0.29338169 0.77935708
-0.01257676 -0.29921961 0.80874687
-0.099425644 -0.38205019 0.8300733
0.067463577 -0.1233848 0.70541739
-0.076929092 -0.17921899 0.8076914
0.073618293 -0.40232179 0.80316597
-0.11533 -0.2218444 0.81730688
0.070693277 -0.3376404 0.64482582
-0.094181933 -0.3027778 0.82063252
-0.084106803 -0.39694479 0.81717771
0.05261676 -0.36315039 0.80502701
-0.13373031 -0.41154429 0.81978792
-0.081450284 -0.3549355 0.81736088
-0.096910954 -0.37300029 0.82292253
0.070568033 -0.26942161 0.80326682
0.080580592 -0.1676726 0.77070832
0.082942948 -0.19512551 0.77300519
0.065290749 -0.1257408 0.78768349
-0.02615997 -0.1258167 0.71794748
-0.134169 -0.129328 0.74290937
-0.082815833 -0.1321125 0.70157129
-0.1479263 -0.1341584 0.66957867
-0.1087951 -0.13383859 0.7864033
-0.01310015 -0.1234119 0.79838753
-0.1298252 -0.1408561 0.81706059
-0.083250247 -0.30275869 0.81297177
-0.067523926 -0.35506371 0.81722349
-0.1157553 -0.2939108 0.81889868
-0.1176933 -0.25126189 0.81859362
-0.066728354 -0.2698988 0.81714922
-0.040651169 -0.2589266 0.81658232
-0.066230573 -0.27165109 0.81533003
-0.06628114 -0.2955353 0.8169533
-0.067204364 -0.41592869 0.81672502
-0.087470077 -0.29491669 0.81667709
-0.055329319 -0.3324022 0.81778342
-0.1020926 -0.41767091 0.82001072
0.042228419 -0.1319212 0.6619513
0.03264093 -0.12533469 0.61446291
-0.016098499 -0.1356231 0.63604277
0.071582846 -0.23053069 0.65024298
0.084854022 -0.39556471 0.75250429
-0.069043636 -0.14318991 0.81217182
-0.1231918 -0.21580631 0.81786013
0.066294253 -0.3205736 0.80366951
0.034344848 -0.35376179 0.8071698
-0.003474385 -0.3240613 0.8149786
0.088313431 -0.29454571 0.76420718
0.1986215 -0.40159121 0.69031882
0.089835458 -0.42351961 0.71622717
0.074516423 -0.30320549 0.79622501
-0.1028855 -0.2342736 0.81697029
0.052933618 -0.1264571 0.79993051
-0.0044803922 -0.37598941 0.81528437
-0.03487232 -0.13988531 0.81492418
-0.03520659 -0.41539389 0.81312811
0.074247628 -0.3978548 0.80661237
-0.1355624 -0.2751638 0.81450582
-0.14322869 -0.1303139 0.69782013
-0.1362071 -0.1329906 0.81316441
-0.1295117 -0.2097894 0.81707191
-0.04422307 -0.41864911 0.8157438
0.043439399 -0.1565918 0.80903119
-0.009421587 -0.13364761 0.80888402
-0.1172509 -0.2070417 0.81603241
-0.073233902 -0.234413 0.81660992
-0.15361281 -0.37151441 0.81527883
-0.052119881 -0.1462979 0.81291789
-0.065445296 -0.18181249 0.81525838
-0.064776063 -0.1626994 0.81206191
-0.074887931 -0.30700579 0.81757402
0.01164347 -0.40310761 0.81089878
-0.15974329 -0.1325845 0.69368678
-0.031417251 -0.34502271 0.81687587
-0.099629879 -0.38181499 0.82171708
-0.1222157 -0.2132791 0.81730813
0.077692002 -0.2398693 0.80271828
-0.070543647 -0.1543225 0.81180322
-0.078491032 -0.1283651 0.81724161
-0.1124506 -0.13205829 0.74767661
0.076429807 -0.1349487 0.71588469
0.073415101 -0.1837337 0.67617482
0.074764311 -0.13471819 0.6930325
0.081185251 -0.13704009 0.77971232
0.082726963 -0.2131633 0.74794722
0.079386562 -0.21354041 0.75311518
0.074808419 -0.33142421 0.64617258
0.071207941 -0.1394906 0.71798718
0.015823189 -0.1258222 0.76381087
0.079707772 -0.13393959 0.74676442
0.080933332 -0.1737937 0.78210932
0.075882792 -0.35757989 0.64670348
0.085742183 -0.1429704 0.74049759
0.081238091 -0.36436459 0.74902707
0.080817401 -0.35409081 0.76158011
0.075885467 -0.128168 0.77231729
-0.03836441 -0.12853549 0.60312659
0.076083124 -0.4123168 0.64231431
0.07345885 -0.38685739 0.80001038
0.07736969 -0.33041739 0.79734671
0.081354618 -0.15672719 0.77134043
0.01399398 -0.12627859 0.61454242
0.067464463 -0.35815519 0.59114742
0.078120232 -0.26260141 0.78108478
0.075912453 -0.4209398 0.63371563
0.07285583 -0.38005811 0.64235568
0.079218328 -0.35678291 0.7573722
0.08008343 -0.27253389 0.79051799
0.069814153 -0.30134729 0.79891258
0.080002069 -0.202721 0.76657271
0.065693676 -0.34711459 0.58930331
-0.13715971 -0.1291189 0.59692281
0.074426107 -0.1366041 0.69394529
0.082281709 -0.40667889 0.77135152
0.082147479 -0.29019621 0.75058007
0.083504021 -0.36080551 0.77398098
0.086134911 -0.42005679 0.77697653
0.083128393 -0.3776947 0.77385229
0.082256727 -0.34560081 0.77397978
0.079832882 -0.3149581 0.76286918
0.083409972 -0.31308049 0.77540249
0.080532372 -0.35561439 0.76759362
0.084744573 -0.38845301 0.74953401
0.081456482 -0.31525609 0.77019107
0.071105361 -0.3285346 0.60463011
0.079599857 -0.2022846 0.80184448
0.073011696 -0.13469081 0.6818766
0.057295859 -0.1322092 0.71005362
0.07924448 -0.37319949 0.66638881
0.072856218 -0.2196952 0.68379831
0.075657777 -0.1338329 0.67012048
0.08017844 -0.2262425 0.72546798
0.029048 -0.1273631 0.72319943
0.084550977 -0.3612282 0.77712208
0.085159451 -0.4029471 0.74846429
0.081307769 -0.12895881 0.75345528
0.075198047 -0.2689119 0.80536067
0.082080483 -0.2627646 0.7812801
0.073919579 -0.1256116 0.72360718
-0.1221138 -0.13321669 0.60724908
0.08112324 -0.13050459 0.79527402
0.045495719 -0.12655389 0.79415429
0.033091631 -0.1313145 0.73512858
0.083161712 -0.29360601 0.78120321
0.075591803 -0.1263627 0.79711747
0.083790869 -0.1342373 0.80481702
0.087031387 -0.26607081 0.79228067
0.083160177 -0.35043079 0.79323709
0.069576189 -0.2440498 0.60143632
-0.1065053 -0.41620821 0.82977909
0.043650601 -0.1851873 0.80702221
0.074485756 -0.25611141 0.79971439
0.085794777 -0.1933717 0.77033591
0.088509887 -0.18352211 0.76124322
-0.045716181 -0.34460631 0.81303442
-0.037071791 -0.1235646 0.79695481
0.022301439 -0.1375605 0.80166239
0.084428087 -0.15156551 0.79582721
0.065510876 -0.1845364 0.80733442
0.08127901 -0.20904291 0.78157508
-0.046544019 -0.37433711 0.81361729
0.076776743 -0.2394515 0.67728418
-0.0091461241 -0.1895076 0.81501752
0.078743339 -0.32447201 0.66341239
0.067054518 -0.1323884 0.66225421
0.079584457 -0.1279331 0.80588257
0.084220558 -0.1548672 0.77649182
0.072474957 -0.2161065 0.78915441
0.053120319 -0.31770641 0.80544323
0.058420721 -0.27922121 0.80657548
0.05446285 -0.19933631 0.80860609
-0.1155639 -0.2086551 0.81678551
-0.071034491 -0.17602579 0.81294513
0.064553954 -0.26371169 0.80424583
-0.055939659 -0.19271711 0.81635147
-0.128757 -0.1284042 0.71627277
-0.03363261 -0.1309732 0.81199038
0.01604167 -0.370215 0.81168032
0.070838019 -0.3511245 0.57653219
-0.1456676 -0.1305635 0.63159192
0.071704179 -0.2869775 0.80662912
-0.063987002 -0.1639791 0.81262451
0.052690212 -0.36433691 0.81011653
0.076940089 -0.39903501 0.80659193
-0.0025268791 -0.2067588 0.81385452
-0.01270874 -0.26903209 0.81285971
-0.1379061 -0.1309723 0.73963779
-0.079523943 -0.1253012 0.7992816
-0.028041931 -0.1284178 0.80513161
0.01328083 -0.30535299 0.80819511
0.0081968606 -0.36532599 0.81178552
-0.080890179 -0.30278149 0.81382918
0.02265216 -0.2258863 0.81121802
0.056926891 -0.2025812 0.80431592
-0.032070931 -0.19792891 0.81015682
-0.1149234 -0.25056881 0.82104808
-0.1224606 -0.29130059 0.8192929
-0.0038767681 -0.4175534 0.81915212
0.0620597 -0.27771771 0.8092882
0.074329667 -0.39553919 0.63001758
0.065404274 -0.1507408 0.80023468
0.03170174 -0.1442564 0.80268621
0.044388231 -0.29531139 0.8077141
-0.03924866 -0.28613529 0.8111465
-0.07663659 -0.15178099 0.81597602
-0.093416713 -0.1759879 0.81213808
-0.101769 -0.2843937 0.8148883
-0.01702456 -0.35482389 0.81463689
-0.030358659 -0.29048929 0.80875862
0.076663762 -0.3351284 0.79685491
-0.05922934 -0.28787899 0.81422049
-0.02559128 -0.26751119 0.81721091
0.03458688 -0.16959029 0.8096745
0.02659896 -0.15544979 0.81017601
-0.018559961 -0.38738859 0.81834239
0.079572767 -0.2102067 0.72641861
-0.049719781 -0.31098309 0.81991041
-0.059535921 -0.37007251 0.82192028
-0.086636253 -0.40174481 0.81638223
0.07599768 -0.367935 0.79982138
-0.077538677 -0.1410265 0.81631821
0.053665251 -0.2387234 0.8078301
-0.03499046 -0.1304208 0.62735248
0.055214409 -0.12786619 0.73942411
0.081571132 -0.13034409 0.74994028
-0.084487647 -0.1257935 0.79073179
-0.13657489 -0.1282123 0.68297261
0.01658994 -0.12614641 0.79031092
-0.05294174 -0.1393895 0.81769067
-0.053684589 -0.13773 0.81094921
-0.105221 -0.13293269 0.81424928
-0.01986232 -0.12504929 0.72824681
0.08047612 -0.2994692 0.70097858
-0.13607609 -0.3783845 0.809093
0.079957783 -0.2600677 0.72325951
-0.023988839 -0.26007491 0.81451762
-0.1106566 -0.29336739 0.8230356
-0.054119729 -0.16694731 0.81241989
-0.01509589 -0.2193812 0.8111043
0.069269419 -0.2189592 0.68448728
-0.086370051 -0.25621751 0.81278241
-0.055106219 -0.1900228 0.8163625
-0.090769477 -0.27366501 0.81189299
0.069439411 -0.1481498 0.58983308
0.07889995 -0.37460521 0.70004427
0.08204405 -0.29176161 0.69043642
-0.001352947 -0.32459 0.81602448
-0.074299052 -0.13335191 0.64852703
0.02501246 -0.1412846 0.81096733
0.085046053 -0.32797089 0.7681638
-0.065167159 -0.209498 0.81153369
-0.1161669 -0.22521269 0.81659353
-0.1234792 -0.19862761 0.81483197
-0.090470478 -0.36625841 0.81784201
-0.03501226 -0.41989779 0.81133562
-0.040517408 -0.21081831 0.81384403
-0.041015811 -0.23363771 0.81279171
0.043353438 -0.1591427 0.80701637
-0.1337633 -0.1431874 0.81380743
0.02228532 -0.1257766 0.7838465
-0.1305733 -0.15706711 0.81897873
-0.1347132 -0.18088339 0.81540978
0.056705069 -0.1451989 0.8040244
-0.016476899 -0.22373161 0.81361318
-0.041093551 -0.33687639 0.81094122
-0.066814013 -0.35775849 0.8186816
0.031442702 -0.2924948 0.81967461
0.02754586 -0.37533611 0.81697267
-0.1259762 -0.2481136 0.81492978
0.01403373 -0.12635119 0.6145547
-0.097111143 -0.1901869 0.81623429
0.066655472 -0.37019119 0.79656619
0.079286583 -0.39663869 0.57586777
-0.002215412 -0.42489901 0.81608951
-0.091204546 -0.30121219 0.81215721
-0.093246818 -0.13051941 0.74200213
0.049778879 -0.4221094 0.80600548
-0.04923081 -0.1477811 0.81471568
-0.06742458 -0.42345881 0.81411332
-0.0066355732 -0.13300569 0.80982119
0.040350471 -0.1450292 0.80475807
-0.0746857 -0.1588099 0.80577987
0.064464532 -0.31030601 0.80234051
-0.079329588 -0.35605669 0.81811261
-0.002863266 -0.1308843 0.80253458
0.062681563 -0.34505779 0.80966377
-0.082530923 -0.28951529 0.80855721
0.026151599 -0.40550229 0.81406188
0.0061287731 -0.4005982 0.81265432
-0.1214914 -0.23535 0.81905597
-0.065280572 -0.183898 0.81256849
-0.042307299 -0.4241372 0.81551683
-0.023095051 -0.2033828 0.8100456
0.08442387 -0.1769574 0.77349931
-0.05430359 -0.1300053 0.80969381
-0.1306151 -0.1843708 0.81606269
-0.073082767 -0.12856039 0.635921
-0.066782206 -0.1332358 0.8148272
-0.091367006 -0.13243321 0.80590981
-0.01165724 -0.15779971 0.81329298
0.078556053 -0.1533698 0.8094874
-0.03160825 -0.30268559 0.8166225
-0.086912043 -0.31316051 0.81734949
-0.03084984 -0.29576999 0.81619608
-0.063150533 -0.2962186 0.81981421
-0.1036053 -0.42504469 0.81719321
0.077964947 -0.25142559 0.66722912
-0.022058761 -0.2315411 0.81344879
-0.05345333 -0.33553159 0.81934828
0.068195298 -0.40769479 0.57552058
0.078487657 -0.3988449 0.82027191
-0.06511721 -0.1843283 0.81756401
0.02808282 -0.1640991 0.81299758
-0.02756628 -0.169596 0.81496781
0.036912289 -0.2223198 0.81147617
-0.04381841 -0.2925553 0.81796497
0.086333171 -0.17937879 0.80285728
0.081902437 -0.2381721 0.80689943
0.02239034 -0.2520707 0.81282759
0.086490199 -0.1991176 0.80814868
0.071726292 -0.23245551 0.81208748
0.03887162 -0.41627249 0.81400013
-0.088190474 -0.2159851 0.81580752
-0.073216379 -0.30895731 0.81840432
-0.10895 -0.2168486 0.81269658
0.023528401 -0.2551927 0.80956078
-0.1270963 -0.3070173 0.81864178
-0.069606453 -0.2224109 0.81457651
-0.110863 -0.40848061 0.82151657
-0.07744506 -0.2597712 0.81292969
-0.0079294154 -0.1298508 0.78222507
-0.13665131 -0.21943849 0.80636138
-0.114998 -0.1831421 0.81830609
-0.059706811 -0.26716891 0.8255356
0.01620606 -0.2295689 0.81094861
-0.13494299 -0.29688409 0.81457281
0.083633393 -0.27102229 0.75131291
0.076129183 -0.3622618 0.67810071
-0.01389083 -0.14706451 0.81325531
-0.1005096 -0.2358793 0.81831503
0.082671851 -0.41611341 0.78164917
-0.1212224 -0.1916991 0.81900632
-0.030773399 -0.2266482 0.81447518
0.074111611 -0.24173351 0.63828421
0.0861848 -0.38655171 0.79736519
0.085268408 -0.30330649 0.79474461
0.082929254 -0.4056167 0.80807137
-0.1198722 -0.2138413 0.81904179
0.075676188 -0.13639431 0.8053987
0.048210021 -0.32147881 0.81467462
-0.069113702 -0.2000569 0.81464559
-0.058189239 -0.1323868 0.64944369
0.072936483 -0.32882851 0.81688893
-0.090895891 -0.13366251 0.81706423
-0.073801577 -0.2056904 0.81685227
-0.035195351 -0.34432101 0.81485927
-0.037275668 -0.2179888 0.8161968
-0.03007582 -0.34802699 0.81729108
0.07262741 -0.31031501 0.81138259
-0.001395822 -0.1942796 0.81550819
0.058040932 -0.28664371 0.81042939
-0.098819546 -0.38431609 0.82149929
-0.08813113 -0.3972725 0.82110512
0.00087091333 -0.40214121 0.81748909
0.02275628 -0.35478851 0.81166738
0.0238615 -0.2607885 0.81303382
-0.01968563 -0.2977477 0.81499231
0.02023202 -0.29233781 0.81083173
0.082596928 -0.4216899 0.80408841
-0.026080251 -0.32245249 0.81488723
0.067220993 -0.12957831 0.75220633
0.040418211 -0.1292274 0.72454238
0.069891267 -0.1299074 0.7221489
0.07006222 -0.1272195 0.7592485
0.073609047 -0.25673199 0.65363389
0.079512537 -0.1984148 0.7125051
0.078936636 -0.1337256 0.7841273
0.073081277 -0.26448229 0.68173152
0.082750916 -0.22339781 0.72746933
0.05413473 -0.1293641 0.65431631
0.03582406 -0.13016149 0.64252329
0.06001335 -0.13176671 0.71193469
0.070695043 -0.13561299 0.67311221
0.0085810423 -0.1305114 0.74178159
0.066585481 -0.2387405 0.60823852
0.067181587 -0.29398561 0.58312458
0.073922373 -0.2658639 0.68846053
0.078835428 -0.2375478 0.66204327
0.070242047 -0.2244563 0.65643841
0.07471472 -0.2018493 0.66013932
0.077802598 -0.31615359 0.67829603
0.085966587 -0.1813899 0.75594509
0.072612941 -0.183529 0.67865503
0.07826677 -0.37318909 0.67063272
0.072742343 -0.1360092 0.72320771
0.084538192 -0.40678769 0.77453488
0.08310923 -0.1993077 0.76996928
0.086317897 -0.25840431 0.78387642
0.077228129 -0.3289769 0.66008389
0.072990157 -0.13626529 0.69697529
0.070863433 -0.29824141 0.60777581
0.076864898 -0.1835587 0.69117308
0.077454694 -0.4253197 0.6861608
0.070162646 -0.42436269 0.57243419
0.070281453 -0.31083521 0.6540705
0.078762978 -0.21433181 0.75745952
0.018429309 -0.1311574 0.76276499
0.01768798 -0.1259625 0.79817992
0.080595143 -0.1367442 0.78457439
0.081117749 -0.1318472 0.7365467
0.070163824 -0.277839 0.62681282
0.080965042 -0.40886331 0.67425931
0.063065827 -0.42486981 0.58306718
0.06846717 -0.2400499 0.63187861
0.072548933 -0.4160808 0.64261091
0.069548011 -0.42300311 0.59674913
0.071124941 -0.28012019 0.65505761
0.074781388 -0.36139029 0.64550579
0.081056297 -0.232621 0.72573441
0.072653532 -0.18748599 0.69803733
0.081120066 -0.15209579 0.79483849
0.075866222 -0.29526451 0.67883748
0.072468191 -0.29101369 0.65798348
0.077498563 -0.28702649 0.67559612
0.01235431 -0.12777659 0.76384652
0.084594548 -0.1702013 0.78483093
0.077455908 -0.1385628 0.72030348
0.071946017 -0.16473541 0.62130767
0.076157689 -0.149351 0.64481419
0.055385292 -0.36454311 0.58554912
0.065639198 -0.32105589 0.58698499
0.065265328 -0.39352831 0.58584517
0.069952637 -0.28393549 0.67696518
0.073544636 -0.38162529 0.64687419
0.071926802 -0.25261301 0.67573881
0.081139207 -0.1815021 0.7984767
0.07599926 -0.30252451 0.63741982
0.07658875 -0.1275066 0.78574902
0.080582649 -0.1697583 0.75800377
0.067256778 -0.26306799 0.61542559
0.080986321 -0.3372688 0.66162819
0.068826258 -0.40705761 0.59704578
0.069751561 -0.1527275 0.59947252
0.070023477 -0.34972021 0.63071293
0.078208387 -0.31167451 0.64181912
0.069567733 -0.32117841 0.62454063
0.067962378 -0.3362917 0.60482639
0.072619744 -0.27920601 0.59466481
0.076069437 -0.13709681 0.75585872
-0.1233496 -0.13124309 0.63559932
0.056245979 -0.1284861 0.72204828
0.08023572 -0.1467739 0.74931377
0.079294622 -0.1279348 0.77406019
0.084254377 -0.1631007 0.77767992
0.080454648 -0.1968521 0.78612328
0.073162653 -0.13572741 0.66916198
0.026203871 -0.12965889 0.61634219
0.069074184 -0.1681563 0.63113678
0.073245533 -0.13953491 0.62573802
0.064837098 -0.12850849 0.64746642
0.076479077 -0.13432869 0.68322521
0.064197063 -0.3183338 0.58253109
0.066374242 -0.26866099 0.58040059
0.060018461 -0.32758331 0.57463729
0.074170828 -0.42505971 0.63437182
0.06891191 -0.34164679 0.62396502
0.07151033 -0.40366459 0.63070363
0.083807953 -0.2410095 0.7685582
0.058220431 -0.36607769 0.58839321
0.07552731 -0.36816439 0.62639081
0.075365923 -0.37137231 0.68440861
0.076841243 -0.32591751 0.66127813
-0.1422455 -0.1307397 0.59733891
0.079592697 -0.26139191 0.69634271
0.070778459 -0.36188531 0.63966668
0.080538392 -0.33322659 0.68101931
0.076740026 -0.28251281 0.6452378
0.077335119 -0.3699511 0.63813382
0.076038003 -0.3319079 0.64675337
0.066761076 -0.34087631 0.61155391
0.078455031 -0.2441885 0.66203958
0.074180901 -0.3752903 0.60647988
0.085062377 -0.19307379 0.77669191
0.075823128 -0.2117963 0.6625911
0.082297273 -0.1756873 0.75127077
0.084517419 -0.25337759 0.77507132
0.08556056 -0.2740894 0.77434409
0.08384645 -0.3459315 0.77686512
0.085207462 -0.31190199 0.77806717
0.084207714 -0.17287099 0.74615401
0.085034132 -0.212172 0.79759783
0.074774377 -0.219458 0.60814643
0.073855639 -0.2489921 0.61478722
0.082583793 -0.2026062 0.76401317
0.043669041 -0.12805951 0.71661752
0.079788446 -0.1333845 0.75426751
-0.093631864 -0.1300344 0.67147112
-0.02799177 -0.1290977 0.65319419
0.02565736 -0.1231148 0.72108501
0.082074217 -0.1582206 0.77281982
0.083092093 -0.26069209 0.72423601
0.083850503 -0.1549875 0.77718908
0.086917639 -0.2703265 0.79236919
0.083848357 -0.1834863 0.80147541
0.085900009 -0.26935509 0.78785169
-0.037018001 -0.12878481 0.60484731
0.06859386 -0.1523166 0.58656502
0.070475578 -0.17192119 0.60987329
0.074692853 -0.1876075 0.60974717
0.075300932 -0.1735716 0.65004569
0.077125311 -0.1619318 0.61340702
0.074636102 -0.1417585 0.65784311
0.071343116 -0.1364847 0.61927062
0.073244043 -0.14098001 0.61209929
0.073765866 -0.1749347 0.6418525
0.076411843 -0.1578047 0.65608382
0.066797607 -0.2363769 0.60717279
0.069693677 -0.20928539 0.62851173
0.074326336 -0.2010818 0.6612075
0.08172226 -0.3708753 0.66890752
0.074329913 -0.2310126 0.62613362
0.07421875 -0.20077039 0.59767979
0.06137621 -0.26533929 0.59119719
0.077402167 -0.1857705 0.64665872
0.077321827 -0.36994731 0.65738457
-0.063375287 -0.1279628 0.68327898
0.059856359 -0.13095079 0.74114817
0.080980361 -0.2325163 0.71897852
0.071477532 -0.29800799 0.59081799
0.072661102 -0.1772663 0.59867448
0.068277597 -0.2113072 0.59591848
0.0880211 -0.1318274 0.79061162
0.073240519 -0.2083967 0.61617732
0.066795833 -0.34826109 0.5904178
0.083450377 -0.38789079 0.76356041
0.076071501 -0.34053829 0.65090901
0.075010657 -0.31242919 0.62900609
0.076349199 -0.26330891 0.64641559
0.084414117 -0.34357321 0.72587812
0.090269633 -0.41874999 0.77843928
0.074182391 -0.1958877 0.61321878
0.080812342 -0.3513386 0.62608498
0.085617721 -0.1815974 0.791107
0.078962028 -0.2481785 0.72298419
-0.01491207 -0.1300077 0.67229342
-0.021702649 -0.12993211 0.64530897
-0.01493913 -0.1256171 0.752074
0.088039279 -0.27463481 0.75134248
0.082136691 -0.27877101 0.70526361
0.083370388 -0.32738709 0.75292909
0.084126227 -0.32636231 0.75090271
0.08017087 -0.29236591 0.70877987
0.076124549 -0.2179589 0.75664991
0.084021807 -0.36328 0.75207198
0.080755107 -0.409067 0.74457568
0.080097437 -0.24492361 0.68953049
0.078407109 -0.2364635 0.70487827
0.078131966 -0.241469 0.70460677
0.082687259 -0.28979939 0.7547344
0.088401563 -0.258766 0.78127891
0.080123417 -0.37366319 0.70054787
0.079887748 -0.3311587 0.80044758
0.083648503 -0.32331991 0.76638788
0.078797102 -0.41239449 0.70182341
0.077567458 -0.41376251 0.69989252
0.079232156 -0.2188435 0.73760498
0.080021016 -0.3495698 0.79318362
0.08739984 -0.35882509 0.78071767
0.084712453 -0.4074831 0.74891382
0.083700784 -0.3678273 0.71262473
0.076601394 -0.2058102 0.80218232
0.076049797 -0.39649299 0.68748492
0.082849257 -0.35467389 0.79396611
0.086412132 -0.27359939 0.74073303
0.080920517 -0.3723855 0.69689971
0.06770654 -0.26763269 0.58443642
0.076995373 -0.271238 0.62700379
0.07355231 -0.2459805 0.60996401
0.078776658 -0.2197569 0.68070912
0.07588762 -0.2404719 0.67289162
0.079159081 -0.2196101 0.70090961
0.084761679 -0.29423201 0.70339888
0.078291424 -0.2610786 0.70321131
0.080199063 -0.23575 0.72562653
0.086656809 -0.38040471 0.76232553
0.084800929 -0.3439745 0.68842119
0.066524148 -0.1440428 0.59393913
0.079428203 -0.13552541 0.62786329
0.076362908 -0.3710911 0.65253723
0.078010201 -0.3383362 0.72032142
0.08485043 -0.28935099 0.73483998
0.075999379 -0.1379025 0.63622987
0.067172259 -0.40168539 0.59967637
0.078062207 -0.361945 0.69661981
0.093172789 -0.31988481 0.7951529
-0.020294851 -0.1297919 0.66060388
0.079064012 -0.2299643 0.69010419
0.073249727 -0.37501061 0.69041657
0.072073579 -0.42556021 0.6235429
0.082868747 -0.41983241 0.70838612
-0.04176813 -0.12671439 0.64290988
0.078304887 -0.194185 0.69781119
0.078016222 -0.2291515 0.661484
0.073049128 -0.40621939 0.62408358
-0.026172459 -0.1301596 0.69302642
0.085703023 -0.27661821 0.76204258
0.083697379 -0.32756311 0.7078172
0.086093307 -0.3747167 0.77631998
0.08315444 -0.31564581 0.70971161
0.076850347 -0.3005158 0.62591022
0.084480643 -0.32724541 0.70556408
0.086021356 -0.19500899 0.78997749
0.085001707 -0.29207999 0.73052019
0.083928414 -0.35576501 0.77075088
0.077095211 -0.38470879 0.69677538
0.087648571 -0.3269746 0.72954422
-0.065811507 -0.1260016 0.68333012
0.02480638 -0.12826569 0.70248902
0.053907569 -0.1294408 0.75716567
-0.031546649 -0.1292236 0.66442639
-0.0022545459 -0.1288192 0.70200843
-0.1182946 -0.13059419 0.65839052
-0.14764901 -0.1368385 0.59873211
-0.120786 -0.1248284 0.6487959
-0.1508632 -0.13157891 0.68557823
0.075870812 -0.16142771 0.66664952
0.078467071 -0.2113428 0.68017292
0.057241678 -0.31467021 0.80080038
0.077175438 -0.13378879 0.62973678
0.063981771 -0.42246839 0.58621168
0.068507493 -0.30583251 0.57695758
0.072844863 -0.1788339 0.61097741
0.074883282 -0.1642525 0.63691211
0.068566859 -0.28834361 0.60303259
0.070515282 -0.1520825 0.66809601
0.070972078 -0.2049711 0.60364652
0.082963876 -0.31118 0.74798667
0.072537839 -0.1960025 0.62664843
0.077017657 -0.2071218 0.67957538
0.091075838 -0.20195021 0.78323948
-0.04520905 -0.1277855 0.72529447
0.087114163 -0.1490669 0.79306263
0.074746847 -0.20570029 0.63907129
0.077937543 -0.2777212 0.72536778
-0.0096333623 -0.1230682 0.79934818
0.04235911 -0.1289005 0.76310259
0.077770412 -0.25984579 0.71447003
0.085390449 -0.18788411 0.72454947
0.094573259 -0.41097489 0.75795281
0.080185831 -0.3994469 0.76931769
0.080079623 -0.133756 0.7684983
0.067709833 -0.32474941 0.57639861
0.0026576519 -0.2166439 0.57772642
-0.086585224 -0.4014923 0.58273357
0.065173328 -0.39413801 0.58585209
0.068577997 -0.29213011 0.59407628
0.066138983 -0.33728501 0.57592148
0.073445708 -0.3362388 0.62166142
-0.041428741 -0.37414661 0.58484918
0.062846392 -0.42508841 0.58340019
-0.089809664 -0.3328521 0.58825541
0.03916109 -0.42227089 0.57743913
-0.059811652 -0.1867668 0.58844137
-0.02304524 -0.1736782 0.58261752
-0.02872497 -0.37712869 0.57999331
0.061898109 -0.29040581 0.58020627
-0.124066 -0.1326445 0.58866417
-0.045534011 -0.30085641 0.58642453
-0.040349539 -0.4208135 0.57670683
-0.081138432 -0.27177939 0.58657593
-0.1169062 -0.40563071 0.57979918
-0.0044107442 -0.35766029 0.57691109
0.043343749 -0.3959876 0.57524109
-0.02682453 -0.3462739 0.5808484
-0.1083669 -0.42233199 0.57959938
-0.048423622 -0.21152399 0.58492023
-0.096166313 -0.23240291 0.59903699
-0.1479858 -0.31849611 0.59316039
-0.021632129 -0.1750671 0.57794511
-0.072261691 -0.2338098 0.59040332
-0.05092654 -0.37921339 0.57415992
-0.0028321741 -0.4157111 0.57646292
0.05773836 -0.38271081 0.57712263
0.063207448 -0.29716891 0.5825969
0.037926018 -0.38252619 0.5767253
-0.054385189 -0.32588029 0.57778019
0.028457399 -0.33119851 0.57862228
0.01928407 -0.3531065 0.58044952
-0.0044513638 -0.164079 0.58329898
0.0260123 -0.35768601 0.57753009
0.052099589 -0.372868 0.57645112
-0.073446043 -0.3395642 0.58182448
-0.05945703 -0.33785969 0.58185661
-0.1569864 -0.40953401 0.58755022
0.048580378 -0.38935909 0.57826817
-0.082618684 -0.2379384 0.58715749
-0.082120419 -0.16152599 0.58904308
-0.084402651 -0.3899605 0.5866363
-0.116599 -0.2420467 0.5836041
0.024307011 -0.41575551 0.5731982
0.0068858862 -0.35181499 0.57890362
-0.065704882 -0.42251649 0.57514042
0.065351583 -0.338626 0.58429247
-0.1006852 -0.2135995 0.58697832
0.02319652 -0.3499181 0.58091593
-0.057043049 -0.27426249 0.58737898
0.064306349 -0.3060998 0.57666969
-0.059050892 -0.3574332 0.58315599
-0.075940669 -0.40287051 0.5795486
0.047858149 -0.28746971 0.57302707
-0.061951131 -0.3785972 0.5835067
-0.093950301 -0.1817816 0.59005439
-0.0598264 -0.1866952 0.59011149
0.044263091 -0.2391424 0.57642442
-0.50303608 -0.41721341 0.75617409
0.032331109 -0.41875109 0.5776875
-0.002002358 -0.3412413 0.57499993
0.051851269 -0.2437568 0.57201707
-0.03680313 -0.2075773 0.58957589
0.0003640354 -0.2189628 0.57486182
-0.090976767 -0.21264771 0.58466631
-0.1195032 -0.29829389 0.58750409
-0.1267933 -0.35500991 0.58629739
-0.1058067 -0.15923791 0.58438343
-0.093764387 -0.30632421 0.58722842
-0.041087002 -0.21120609 0.59087563
0.00028789041 -0.35393739 0.58285898
0.062548637 -0.39819571 0.57744372
-0.1013005 -0.3991217 0.58204949
0.044623021 -0.30063251 0.57601339
-0.1396821 -0.3777318 0.57839698
-0.131357 -0.3236455 0.58877867
0.002597749 -0.1671745 0.58141148
-0.03743377 -0.41946769 0.57619292
-0.097966187 -0.3742637 0.58205998
-0.035806391 -0.135537 0.58235991
-0.150769 -0.34294379 0.59217799
0.063650914 -0.2346037 0.57484311
-0.1477624 -0.30343479 0.59810281
-0.145219 -0.3454299 0.59154081
-0.1129839 -0.3335903 0.59115028
0.051265571 -0.25423631 0.5740304
-0.092248678 -0.1392016 0.59041911
0.001894236 -0.1747468 0.58025068
0.019149899 -0.2355181 0.5746485
0.03432804 -0.30064791 0.57924342
-0.14755911 -0.41960651 0.59084392
-0.01402482 -0.27834821 0.57729542
0.01246035 -0.16412041 0.58153301
0.045561519 -0.193261 0.57762831
-0.13558421 -0.41595089 0.58715439
-0.071260959 -0.32211301 0.58455688
-0.0033228991 -0.26326591 0.58017331
-0.0137285 -0.3043566 0.58424538
0.071789034 -0.34175321 0.58810782
0.05204523 -0.3987211 0.57317299
0.043841541 -0.3641783 0.57522148
-0.13943981 -0.1940764 0.58858228
0.01707295 -0.2019428 0.58641011
0.01586419 -0.1353351 0.58393192
0.05976972 -0.24931461 0.57705128
-0.047113419 -0.12648121 0.58631909
-0.14843009 -0.17872749 0.59237587
0.044954479 -0.2667248 0.57567042
-0.03685692 -0.26518291 0.59017748
0.062398698 -0.1877154 0.57932347
0.0087230504 -0.13095871 0.66652322
0.06246924 -0.32858759 0.5729202
0.05444634 -0.2804794 0.57949132
0.065716058 -0.32060981 0.58795023
0.060353551 -0.2691558 0.58486468
-0.031577531 -0.25300059 0.59365392
-0.00186193 -0.1985911 0.5822655
0.054430839 -0.2938557 0.57663321
0.05788425 -0.21439651 0.57618147
0.061458711 -0.36181459 0.61853278
0.059182111 -0.23085611 0.57657039
0.066257574 -0.1933576 0.57612717
0.073990703 -0.42160279 0.62942219
0.032264858 -0.38556421 0.56979889
-0.142046 -0.13347889 0.65302098
0.068460852 -0.40070161 0.59730017
0.044079781 -0.1912861 0.59130752
0.07460326 -0.41251561 0.61682749
-0.1102853 -0.1304647 0.70559019
0.067495942 -0.1466185 0.57555628
0.064626403 -0.1601065 0.57466722
0.02877867 -0.1522779 0.57597792
0.071436793 -0.20062821 0.57653117
0.084087908 -0.41009179 0.77523398
0.072086662 -0.20407259 0.66026992
0.02992666 -0.1296737 0.60771608
0.023388419 -0.1295715 0.73075342
0.075520717 -0.1364588 0.69408721
0.082122616 -0.36577389 0.77656668
0.075130343 -0.18160149 0.67803198
0.083393067 -0.2126019 0.75826311
0.073346592 -0.1877919 0.67800212
0.085651986 -0.2117438 0.7530877
-0.021150321 -0.1311287 0.67209339
0.066269547 -0.32499 0.58933407
0.082447708 -0.1959483 0.78333223
0.01708868 -0.1330947 0.62681389
-0.025625139 -0.1312305 0.63321519
0.077271879 -0.24763601 0.68908852
0.064757302 -0.12682571 0.71410322
0.072806187 -0.1297487 0.70774877
0.074280716 -0.13330071 0.67005229
0.02051026 -0.1311304 0.70108199
0.061492 -0.13164841 0.75176001
-0.071767993 -0.133643 0.69122452
0.078369983 -0.13235059 0.73483509
0.083928928 -0.18249279 0.8014828
0.082769327 -0.1760647 0.78471172
-0.0089958757 -0.128993 0.74498612
0.034821879 -0.13243631 0.64320397
0.064610481 -0.2977778 0.5815931
0.06920892 -0.3030321 0.60538232
0.054820109 -0.3201606 0.80966711
0.060730461 -0.27942491 0.80900812
-0.017048631 -0.1275775 0.75372589
0.083325341 -0.13295481 0.79692131
-0.1153769 -0.13242529 0.6421926
-0.14585321 -0.1323581 0.5967949
-0.062204871 -0.13055231 0.61332762
-0.14916401 -0.1309488 0.60800213
0.062619656 -0.27431151 0.58053708
0.069457591 -0.23577809 0.60569543
0.082165241 -0.1823622 0.79935879
0.072313897 -0.1876452 0.64501357
0.086130023 -0.26606461 0.79371709
0.079472989 -0.1485642 0.76452237
0.081593253 -0.15334129 0.79623407
0.0099308491 -0.1317284 0.74369091
0.082311504 -0.1351157 0.80484658
0.063078716 -0.1314445 0.65955651
0.075695038 -0.2409731 0.65965933
0.082038097 -0.29524979 0.78404981
0.084858663 -0.1823376 0.7557767
0.077610269 -0.1592454 0.70813578
0.070703 -0.2634947 0.65198499
-0.046232339 -0.131364 0.68466842
-0.084295496 -0.1281216 0.79520851
-0.0072758789 -0.1284433 0.75860351
-0.14018629 -0.1345892 0.66551793
0.075456262 -0.1310185 0.80404389
0.080086201 -0.1338864 0.7541604
0.081124596 -0.27770641 0.74959481
0.071567297 -0.36223659 0.64234608
0.065498501 -0.4260377 0.59330362
0.068642408 -0.3959446 0.57651758
0.068030357 -0.3508727 0.57569879
0.081581742 -0.2941896 0.77968508
0.080152027 -0.2128737 0.7857362
0.083180793 -0.1823162 0.758425
0.069142491 -0.31454149 0.64622343
0.070364557 -0.1492039 0.6747725
0.083424151 -0.1760191 0.75146872
0.071337432 -0.1855119 0.68817377
-0.1125684 -0.13073111 0.69344717
0.071720392 -0.42572239 0.57219487
-0.1052225 -0.1285772 0.7456845
-0.14557689 -0.1287058 0.72283262
