# .PCD v0.7 - Point Cloud Data file format
VERSION 0.7
FIELDS x y z
SIZE 4 4 4
TYPE F F F
COUNT 1 1 1
WIDTH 1414
HEIGHT 1
VIEWPOINT 0 0 0 1 0 0 0
POINTS 1414
DATA ascii
-0.077441782 -0.1586044 0.69649309
0.0074319541 -0.2229104 0.69900513
-0.082374237 -0.235121 0.73890489
-0.057218071 -0.180793 0.69842112
-0.040690899 -0.25572529 0.69990277
-0.081239223 -0.370922 0.78926778
-0.083175689 -0.31265801 0.74556452
-0.079605401 -0.37084329 0.70000237
-0.0170193 -0.207205 0.70130938
-0.01927584 -0.36748609 0.69239581
-0.03008699 -0.26199621 0.6953944
-0.0055223699 -0.2266988 0.69476843
-0.079421878 -0.29480919 0.90277189
-0.042152349 -0.29274559 0.69591087
0.15697309 -0.1437398 0.83558959
0.01662707 -0.16621961 0.70193988
0.1319426 -0.208777 0.69305837
0.029100951 -0.2206863 0.69735408
0.088387251 -0.2446298 0.68978739
0.03008366 -0.28487059 0.69319379
-0.01284629 -0.1313341 0.69620138
0.007896781 -0.1212701 0.71706343
-0.074642777 -0.1430672 0.81634629
-0.053419769 -0.1323677 0.69978529
-0.046193089 -0.1247252 0.79527849
-0.0030975339 -0.32456431 0.68896937
-0.036883261 -0.1886089 0.69412231
0.092931002 -0.1716366 0.69431031
-0.021025511 -0.1668139 0.69065619
-0.01968017 -0.1240278 0.86739957
-0.037567198 -0.38391659 0.70286572
0.1253005 -0.2206815 0.68790138
-0.078420758 -0.1229735 0.74453282
-0.067333043 -0.2009896 0.69836211
0.02527225 -0.1225154 0.72887218
-0.079604447 -0.19730181 0.71761781
0.049237732 -0.12524401 0.69341338
-0.068272352 -0.12690321 0.80529583
0.096878231 -0.2090023 0.69688457
-0.029269461 -0.1543391 0.70190078
0.1359323 -0.1244723 0.69710529
-0.083240747 -0.33750901 0.75497651
0.03810757 -0.1956422 0.69647199
0.0031553509 -0.1404971 0.69859952
-0.02475852 -0.1237184 0.69602078
-0.05424362 -0.1249738 0.77705401
0.019000201 -0.2962797 0.69343358
-0.070051968 -0.1230516 0.84003007
-0.0780797 -0.2097737 0.86321509
-0.0079816878 -0.1491687 0.69423711
0.042995241 -0.1197179 0.69438362
-0.081685036 -0.4143025 0.84299982
0.085859299 -0.15207221 0.70242888
-0.037173212 -0.1273566 0.72208238
-0.024857219 -0.1506587 0.6996944
-0.02199441 -0.1714706 0.69468951
-0.02581626 -0.13815869 0.69438612
-0.038371891 -0.1201095 0.75413167
0.043162908 -0.1598717 0.69902778
0.01285303 -0.1214025 0.75370049
0.002313226 -0.1238326 0.6982609
0.0082055032 -0.18207631 0.70021522
0.082324363 -0.1282815 0.72478151
0.1108204 -0.22343861 0.6933881
-0.01562059 -0.124128 0.80086482
-0.081322312 -0.25915241 0.84333229
-0.0061758161 -0.3020466 0.69393861
0.1259207 -0.1230834 0.77099597
-0.039632682 -0.1246001 0.86585712
-0.073184788 -0.1223403 0.7072823
0.096677601 -0.1876794 0.69253367
-0.029402349 -0.12544221 0.87824029
-0.077598631 -0.27771679 0.70437539
-0.07265386 -0.2100586 0.85453081
-0.086199023 -0.3897163 0.78215522
-0.081138037 -0.32617939 0.87900001
-0.083531924 -0.201609 0.72765982
-0.061511751 -0.1199182 0.70070678
0.063476257 -0.1709713 0.69489843
0.049803969 -0.3357197 0.69399202
0.1350683 -0.24202789 0.6923998
0.080486417 -0.1625202 0.7017417
-0.076725297 -0.17506909 0.87317753
-0.069690853 -0.1207704 0.71687287
-0.081590377 -0.1954091 0.7692256
-0.081424117 -0.15521879 0.70225108
-0.077053368 -0.1706638 0.78886378
-0.081345499 -0.1660485 0.77793682
-0.083223037 -0.38158941 0.7385745
-0.079367459 -0.219759 0.83418173
-0.079438448 -0.14635579 0.76689172
-0.08606267 -0.30158439 0.86894822
0.02909258 -0.34502581 0.68591899
-0.070946753 -0.190929 0.79552162
-0.084492207 -0.37214431 0.82880038
-0.084981471 -0.3230305 0.77316791
-0.0778023 -0.1574071 0.81232649
0.098730028 -0.19950169 0.68681002
0.13711829 -0.39224491 0.68487477
-0.0132311 -0.1225441 0.69820517
-0.079880357 -0.27568439 0.71132141
-0.086037159 -0.34485269 0.70664638
-0.074416459 -0.2032 0.84748971
-0.079343319 -0.3494924 0.89390272
-0.083526582 -0.2177683 0.86436939
-0.083860733 -0.2390689 0.81674731
0.04365468 -0.1209202 0.76590621
-0.080735363 -0.2555916 0.81173432
-0.079030357 -0.1895557 0.80595899
0.084262669 -0.1188492 0.73755819
0.084158123 -0.1182896 0.73657638
0.0593777 -0.1191625 0.75362867
0.1432582 -0.1272345 0.80030161
0.1027241 -0.1201212 0.78826398
0.1193424 -0.25945899 0.69152248
-0.0039030311 -0.26094311 0.6934464
0.12670261 -0.2669405 0.68900388
0.088415623 -0.41633901 0.68323678
0.034797281 -0.4065778 0.68496603
-0.064285219 -0.1215112 0.73911321
0.059258699 -0.1235944 0.86143887
-0.0004953146 -0.1228711 0.91530043
0.071988761 -0.12837119 0.78364122
0.057979081 -0.1154404 0.89729983
-0.01538992 -0.1182757 0.80685842
-0.023736181 -0.1273431 0.77487868
0.037292991 -0.1234187 0.77748913
0.01394165 -0.1211851 0.91702992
0.0035583379 -0.1209328 0.7555747
0.064533047 -0.1114042 0.86442012
-0.069184177 -0.1207366 0.72527188
-0.075396478 -0.1819903 0.83739299
-0.082685769 -0.310451 0.82028598
-0.080589212 -0.19122469 0.77243912
-0.085407138 -0.31026211 0.79931742
-0.084485531 -0.2858198 0.79840761
-0.02249488 -0.1180954 0.88132453
-0.077565096 -0.15179931 0.72452867
-0.078925133 -0.2975423 0.88333899
-0.07714957 -0.241337 0.72178942
0.1412129 -0.1495581 0.68774188
0.0063683088 -0.4166635 0.68459958
0.001839399 -0.39485499 0.68996131
-0.078329682 -0.1366636 0.79152799
-0.087542377 -0.42189389 0.80357558
0.081695557 -0.1222017 0.85880899
-0.085633643 -0.3479771 0.73815829
-0.083355837 -0.39668331 0.8019172
0.0079408288 -0.166219 0.69766963
0.02552798 -0.37713051 0.68229318
0.033559799 -0.1191591 0.86507851
0.01354671 -0.27085611 0.69546688
-0.07665363 -0.1927208 0.85097682
-0.05747157 -0.2258285 0.70222539
-0.082111903 -0.32430381 0.86249429
0.017189739 -0.27931261 0.68602347
-0.076519974 -0.1266088 0.85547042
-0.08145535 -0.1240893 0.76963091
-0.07652539 -0.1456944 0.80769521
-0.07840842 -0.1212911 0.76305068
-0.006701082 -0.2677238 0.68933409
-0.071830928 -0.2383173 0.90165752
-0.079619937 -0.2739369 0.90076911
-0.08184883 -0.25912669 0.7033
-0.076376908 -0.1666729 0.8282631
0.037977342 -0.1169288 0.80246902
-0.089458443 -0.37027249 0.79748178
0.1403068 -0.26386809 0.68695748
-0.078764737 -0.1484009 0.73411489
0.097807527 -0.41013721 1.074735
0.12753651 -0.1294331 0.71042258
0.1190595 -0.1279366 0.86156279
0.0080684274 -0.1208604 0.86264318
0.05134064 -0.1207563 0.85056978
-0.074397624 -0.3191863 0.89476758
-0.080550186 -0.32649791 0.86319089
-0.077889502 -0.3535009 0.86075979
-0.075571947 -0.37729681 0.88892168
-0.078543417 -0.3264395 0.87611842
-0.04596499 -0.12742519 0.74261451
-0.075906217 -0.29592681 0.89948452
0.046600979 -0.126535 0.74668431
-0.07156992 -0.12817261 0.78055322
-0.071637511 -0.18013939 0.88134432
-0.071612783 -0.19977809 0.87150472
-0.073901363 -0.1257377 0.74518442
-0.075079203 -0.3060908 0.9127354
-0.057608008 -0.12662371 0.77642733
0.072445571 -0.1240666 0.86644012
-0.040280279 -0.1261974 0.90175062
0.040309548 -0.1251592 0.71462327
0.00045658651 -0.1255976 0.71314561
-0.069382071 -0.1837635 0.90958279
0.146091 -0.13053641 0.88383722
-0.066225708 -0.1472519 0.89305371
0.1349539 -0.1275062 0.71984547
-0.071566463 -0.134399 0.79607928
-0.073800683 -0.1652455 0.7799114
-0.062320951 -0.1240738 0.81131053
-0.076998413 -0.38093439 0.89358783
-0.077278733 -0.33768001 0.87904477
0.1078173 -0.1245192 0.91957498
-0.076791823 -0.30411121 0.8891291
0.056591991 -0.1228614 0.70963639
-0.077579379 -0.32615241 0.8015812
-0.072939098 -0.3236092 0.90583658
-0.07453841 -0.1900519 0.78086072
-0.07900846 -0.134774 0.74134588
0.1193618 -0.1188144 0.82681239
-0.01793367 -0.125011 0.70581818
-0.071713567 -0.1806803 0.87412828
-0.076136172 -0.3020961 0.86598098
-0.074234657 -0.29754159 0.86208928
-0.070056677 -0.2380524 0.9039008
-0.069956057 -0.221063 0.90948057
-0.070699386 -0.2202882 0.90744281
-0.076423757 -0.35688049 0.9025858
-0.074778318 -0.3031998 0.90582299
-0.074439883 -0.29492599 0.8833515
0.1038278 -0.3954308 1.069575
0.21843299 -0.40611449 1.14824
0.041503429 -0.1216357 0.89209771
-0.077508628 -0.1278048 0.71010113
0.02463627 -0.1200338 0.80362332
-0.051783081 -0.12817711 0.76547933
-0.058611449 -0.1263143 0.9045887
-0.079254389 -0.2385022 0.72324908
-0.079152577 -0.3176637 0.83060199
0.097273827 -0.42247489 1.10683
0.099766672 -0.4114216 1.0662529
-0.071279228 -0.1508681 0.88281888
0.1303616 -0.1198656 0.85758299
-0.022458199 -0.12619761 0.81480628
-0.071819313 -0.1645225 0.78948772
0.049900949 -0.1259504 0.78962058
-0.076185517 -0.33447611 0.88514483
-0.07378006 -0.38477021 0.91372567
0.056214869 -0.12653551 0.86488909
-0.078294873 -0.3398315 0.87147778
-0.01857364 -0.1232317 0.88154107
-0.082349896 -0.33079451 0.82734019
0.074988663 -0.1176803 0.88667268
-0.074015617 -0.1538628 0.76735502
-0.070551626 -0.1329059 0.89174843
-0.059723049 -0.1220949 0.7074399
-0.041387621 -0.1230349 0.70596993
-0.075190127 -0.14365 0.7243154
-0.07556361 -0.2025308 0.70422882
-0.084679723 -0.2015499 0.73075843
-0.068165541 -0.181532 0.86733288
-0.080820501 -0.2400365 0.72202063
-0.04732633 -0.1231112 0.88347858
-0.08324033 -0.30916101 0.81599301
-0.052065071 -0.1250079 0.88558632
0.1097678 -0.1249606 0.7397275
-0.071255676 -0.1870244 0.76611382
0.085218906 -0.1274485 0.74856848
-0.074086189 -0.20626029 0.87374753
-0.079651773 -0.38170919 0.87499201
-0.078917153 -0.19858681 0.71878409
-0.070958197 -0.1210654 0.89103371
-0.075336583 -0.2135047 0.87956291
0.037535369 -0.12558749 0.75507492
-0.074206106 -0.2622503 0.91089642
0.039119359 -0.1253424 0.70166308
-0.071522951 -0.1299887 0.87121153
0.0092412829 -0.12670641 0.84767503
0.1187797 -0.1238755 0.78252029
-0.033469498 -0.12637781 0.85224491
0.0127055 -0.1305372 0.7389158
-0.071607769 -0.1390917 0.92293501
-0.0055337548 -0.12573621 0.80975211
0.031031011 -0.13143121 0.92523777
0.1434058 -0.12728541 0.83678818
0.091717057 -0.1225462 0.73679888
-0.07253629 -0.1213221 0.70564812
-0.040084179 -0.1254697 0.90320861
0.1325331 -0.12617999 0.77450389
-0.027073501 -0.1220518 0.82702929
-0.03120452 -0.1343779 0.92704523
-0.074313343 -0.153763 0.76730371
0.084886909 -0.1225755 0.81552118
0.1230643 -0.1199941 0.79921091
0.03011572 -0.1278231 0.70350462
-0.021204051 -0.1226621 0.86578119
0.1031064 -0.1161789 0.74656612
0.093677461 -0.1256554 0.91297269
-0.048734009 -0.1259906 0.86656171
-0.075795293 -0.206545 0.85998827
-0.07161355 -0.2092896 0.85573173
-0.081542611 -0.20393419 0.7279923
-0.067602687 -0.32259849 0.80538082
-0.076670289 -0.22729179 0.8770541
-0.078226916 -0.3514612 0.86187762
-0.080536313 -0.32977149 0.77176231
-0.081457503 -0.34295559 0.83177477
-0.077064693 -0.22304811 0.87518412
-0.076899052 -0.2068218 0.7070061
-0.070182137 -0.1709393 0.8541708
0.040807009 -0.40121111 1.030495
-0.0766114 -0.18361101 0.77784508
-0.080215871 -0.40798429 0.87084001
0.1042097 -0.1237608 0.85831481
-0.075657837 -0.30236381 0.81376368
-0.076298714 -0.1554051 0.70976448
-0.076683521 -0.29485169 0.87810498
-0.036589801 -0.1227763 0.83967441
-0.072918087 -0.1605908 0.75646782
-0.037367702 -0.36340359 0.92631447
-0.05174851 -0.1245027 0.78324062
0.055992842 -0.1290103 0.77564329
0.01126122 -0.1268588 0.83729142
-0.075413696 -0.1405243 0.71250302
-0.071631372 -0.20265891 0.87453729
0.099384189 -0.1209937 0.74734569
-0.074791066 -0.22103851 0.85893762
0.1290257 -0.1209831 0.75922632
-0.02892727 -0.2547614 0.93111187
-0.07065016 -0.1209755 0.88043737
-0.068749487 -0.1269941 0.7335825
-0.07575345 -0.19402459 0.85778499
-0.078722358 -0.25817779 0.71224409
0.1392646 -0.1227507 0.70802838
-0.062159121 -0.1216809 0.79240668
0.066580892 -0.1402078 0.93102908
0.036988381 -0.1340172 0.83353108
-0.072933547 -0.1319242 0.8606692
-0.071601093 -0.1538884 0.77770472
-0.078055978 -0.3004013 0.85358012
0.042660419 -0.13230561 0.72746742
-0.072503567 -0.31461099 0.90206993
-0.07523942 -0.12606721 0.72482371
-0.071543694 -0.1381997 0.8789649
-0.073486447 -0.2220573 0.88623112
-0.081404693 -0.3744987 0.7804299
-0.067563593 -0.28709891 0.93076742
-0.024512289 -0.1224753 0.9110328
-0.075162411 -0.3533529 0.9022795
0.039202511 -0.12768111 0.91166002
-0.074771523 -0.41481629 0.90421587
0.077055037 -0.1208959 0.71474028
-0.070873901 -0.1206649 0.8104316
0.053454161 -0.12829749 0.691311
-0.02143986 -0.1234792 0.8361696
0.01242436 -0.1210562 0.84354711
0.076752692 -0.1657277 0.69027209
0.0025642661 -0.1391671 0.69429129
0.091434933 -0.1699336 0.68880367
0.095903113 -0.2063693 0.6921491
-0.042101 -0.1221715 0.81697857
0.087480687 -0.1530475 0.69126219
0.077293098 -0.1576027 0.69281888
-0.020182369 -0.1216081 0.8571949
0.090910271 -0.1877033 0.68742353
0.1028533 -0.2343913 0.68782687
0.097704731 -0.1884241 0.69031638
0.1232665 -0.2389638 0.69055259
0.1025623 -0.2140384 0.68764353
0.096472897 -0.2268336 0.69003397
0.086048707 -0.120511 0.82211763
0.083250262 -0.1207725 0.75035667
-0.0332467 -0.1203657 0.86022061
0.00278357 -0.1225669 0.82302213
0.040342201 -0.1178818 0.84222949
0.1157966 -0.1199769 0.70449781
-0.04199909 -0.1257547 0.75009191
0.1193279 -0.25705901 0.68840808
0.1011038 -0.4035022 0.68209428
0.1045925 -0.3182213 0.68746573
0.1185575 -0.40478009 0.68289101
0.13353901 -0.3749893 0.68746293
0.1325752 -0.32101569 0.68989372
-0.048452619 -0.1243627 0.75518101
-0.075273089 -0.1217446 0.7442773
0.067280456 -0.124927 0.72895139
0.0016151241 -0.1196483 0.80377293
0.048664741 -0.1164402 0.7062248
-0.02326531 -0.124006 0.80387467
-0.024906071 -0.1242223 0.76179677
-0.017949751 -0.1231034 0.77221978
-0.03830285 -0.1228029 0.76822609
0.088377923 -0.41431049 0.68050301
0.1152397 -0.1206786 0.77583402
-0.033556651 -0.1207426 0.70674938
0.083214059 -0.34050271 0.68770021
0.1109 -0.22441369 0.68993843
0.1339642 -0.2393391 0.68899357
0.1087794 -0.28627941 0.68568528
0.1137844 -0.37205711 0.68734252
0.087371707 -0.36209089 0.68351752
0.075579546 -0.40299949 0.68428999
0.089813963 -0.2224647 0.68936503
0.1093345 -0.3690792 0.6839236
-0.052977949 -0.1237338 0.90672088
-0.021268239 -0.1211621 0.88935691
-0.036702219 -0.1220878 0.90778792
-0.02473877 -0.1217346 0.8381955
-0.061441991 -0.1222392 0.77599323
-0.07415095 -0.1240253 0.71829218
-0.052990641 -0.1299262 0.69353873
0.088925757 -0.25096819 0.68716723
0.132036 -0.2065755 0.69120711
0.1191409 -0.36810249 0.68768477
0.1183541 -0.2400324 0.68555027
0.04728394 -0.1231718 0.83521068
0.1193701 -0.38467249 0.68492019
0.109618 -0.40277559 0.68590462
0.053566281 -0.2122971 0.69478321
0.072991557 -0.1533666 0.69606131
0.080909602 -0.14512581 0.69237202
0.1040803 -0.1220233 0.69283909
0.078820594 -0.35711971 0.68376201
0.1392321 -0.25479329 0.68886489
0.1089215 -0.3347384 0.68620729
0.1204689 -0.4009198 0.68917012
0.13222989 -0.34680039 0.68760592
0.097349197 -0.33913201 0.68867242
0.086158693 -0.1233141 0.85797358
-0.236203 -0.41887239 0.60885477
0.1186077 -0.410824 0.68763471
-0.043771561 -0.12523261 0.76235729
-0.033275891 -0.1229497 0.71074069
0.086511932 -0.1231331 0.85907692
-0.068131886 -0.2198073 0.69293141
-0.032991111 -0.1224311 0.71051461
0.01256718 -0.1216409 0.84662008
0.1091482 -0.1217472 0.71260548
0.1166299 -0.1234524 0.71302462
0.1006097 -0.1216728 0.71280128
0.1013927 -0.1228137 0.76554722
0.1026907 -0.1207698 0.85506678
-0.010774 -0.12625469 0.8250342
0.094293267 -0.1216498 0.73746371
-0.2149244 -0.41425559 0.58723158
0.1103271 -0.2266497 0.69338572
0.1115415 -0.29270941 0.6927405
0.1198353 -0.25733161 0.68805331
0.1194025 -0.1837406 0.69264108
0.1208322 -0.2452458 0.69282901
0.1338485 -0.3237628 0.69381279
0.1156795 -0.1807863 0.69090039
0.1229737 -0.2421864 0.69140261
0.1364056 -0.22593489 0.70468628
0.092026472 -0.16965219 0.69089139
0.1288968 -0.1786056 0.69189018
0.1020865 -0.40518889 0.68440098
0.1345287 -0.34548089 0.68723571
0.068532713 -0.35703769 0.68355721
0.088730283 -0.36045519 0.68138307
0.075294301 -0.4088383 0.68999892
0.1322145 -0.4220424 0.68586022
0.071167953 -0.34486869 0.68478793
0.1205345 -0.38830751 0.69008583
0.1175987 -0.36604071 0.68608612
0.066627033 -0.34439331 0.6927892
0.0981379 -0.34006 0.69128972
0.1107561 -0.40725741 0.68995953
0.080746166 -0.35938519 0.68735689
0.089540631 -0.41460609 0.6811617
0.06919755 -0.30609161 0.6949873
0.097694173 -0.1915811 0.69446802
0.1142133 -0.3721042 0.68910283
0.1206965 -0.41304839 0.69078958
0.1104153 -0.40897959 0.69333398
0.14320441 -0.1249182 0.70662391
0.1352022 -0.1256831 0.69893157
0.13969921 -0.1850027 0.69357598
-0.054095179 -0.2266175 0.70233649
0.1382715 -0.25167719 0.68877518
0.1172282 -0.13307101 0.69524771
0.087645538 -0.1526145 0.69505012
0.095912047 -0.190409 0.69441998
0.1190524 -0.26018721 0.69319499
0.091197371 -0.12978961 0.69820261
0.1344797 -0.34998429 0.69183302
0.090316303 -0.1262044 0.68609589
0.1036389 -0.2392682 0.69522011
0.075483933 -0.166714 0.6932506
0.072883539 -0.2098846 0.69208479
-0.016284401 -0.2186432 0.69613802
0.1192481 -0.18353841 0.69293088
0.01723809 -0.1767824 0.70491242
0.1162173 -0.18083119 0.68967372
-0.017753251 -0.17007791 0.69889063
-0.023755411 -0.12533259 0.69778663
0.0003565643 -0.1366559 0.69709778
-0.04808915 -0.242047 0.69471449
-0.056868508 -0.2111513 0.70049542
0.048485089 -0.1702932 0.6971336
-0.0062317699 -0.31737879 0.67188931
0.1036107 -0.2193843 0.69579601
-0.04346434 -0.23203351 0.69204259
0.075941414 -0.205962 0.69305372
-0.01315874 -0.32288429 0.6900723
0.028279711 -0.201088 0.69548267
0.0162299 -0.1762149 0.69595999
0.1024645 -0.41165909 0.69157028
0.1138038 -0.3748956 0.69220239
0.1200561 -0.38675201 0.68810511
0.064884298 -0.36274979 0.68440151
0.01715333 -0.40587041 0.69456381
0.16488691 -0.39243299 0.87716508
0.2202933 -0.39731371 1.128091
0.1195135 -0.4094153 0.68692589
0.110464 -0.40811059 0.69177169
-0.017428201 -0.2963804 0.69722527
0.1358283 -0.2269139 0.69894087
0.1410805 -0.2314139 0.69987351
0.1326953 -0.3015449 0.69697279
0.1440258 -0.3122583 0.69726789
0.11723 -0.18323059 0.69179893
0.1159763 -0.1215386 0.70708841
-0.023768621 -0.1257599 0.70076579
0.1156703 -0.1834242 0.69589138
0.1009048 -0.1220763 0.71519119
-0.044569399 -0.1243677 0.75963658
-0.02237675 -0.1231068 0.87074423
-0.062389839 -0.18286461 0.69927162
-0.024074599 -0.1220617 0.72561407
-0.021660609 -0.1223563 0.71107531
-0.0293981 -0.15217599 0.69719541
0.086893827 -0.12656949 0.72756588
0.1169449 -0.13442589 0.69744468
-0.02416116 -0.14175031 0.69786823
-0.057047609 -0.1834891 0.69669569
-0.0039489418 -0.1210889 0.76311952
0.1547959 -0.4155919 0.69792622
-0.02596995 -0.14908551 0.69625008
-0.026092689 -0.16097739 0.69807827
-0.059811041 -0.1804236 0.70556098
0.090078548 -0.1178398 0.72212201
-0.070877753 -0.1227644 0.89848763
-0.0523252 -0.1272672 0.70086962
-0.072806813 -0.1236304 0.83242369
-0.050410289 -0.1242558 0.70171893
0.127123 -0.1364717 0.69381112
-0.06097455 -0.21917491 0.70027483
0.076533273 -0.1247402 0.70089889
-0.0178902 -0.1243561 0.77559
-0.071989097 -0.117552 0.77242309
-0.068130441 -0.2012395 0.70156032
-0.061083231 -0.1213266 0.70515889
-0.056475971 -0.19342691 0.69956791
0.1021547 -0.1229373 0.69472432
-0.044692699 -0.1248648 0.72725862
-0.05899705 -0.1715996 0.70242661
-0.074841417 -0.1786149 0.70107102
0.1097415 -0.1755065 0.6997208
0.101755 -0.18192349 0.70962769
-0.080870278 -0.1197329 0.78053463
-0.070253253 -0.1259698 0.77227998
-0.02534781 -0.2026666 0.69448239
-0.019077441 -0.2033336 0.69469762
0.1364672 -0.41273049 0.69473982
0.13665479 -0.41054839 0.69200343
-0.057070509 -0.2119927 0.69796711
-0.04414418 -0.1228324 0.88237542
-0.054746769 -0.1764648 0.69801998
-0.069708742 -0.2013381 0.69846171
-0.049199101 -0.1432572 0.6998865
-0.048393819 -0.1852448 0.69785559
0.1193403 -0.4096337 0.68808979
0.1102958 -0.4078207 0.69215351
-0.01766878 -0.2740598 0.6985113
0.0095909983 -0.1395642 0.69994342
-0.077936143 -0.39496401 0.6943599
-0.078933522 -0.40118909 0.69388348
0.0097563937 -0.1395366 0.69989109
-0.02086856 -0.1234852 0.71354783
-0.002337493 -0.1225497 0.71489948
-0.028645189 -0.1183108 0.7012412
0.0019813401 -0.1403513 0.70408022
-0.017870249 -0.170688 0.69764709
-0.006496869 -0.15165611 0.69004518
-0.024489811 -0.1258553 0.69770128
-0.02739219 -0.1532432 0.70186043
0.01354575 -0.1217653 0.71229422
-0.036180221 -0.1255503 0.86946583
-0.060348421 -0.1840066 0.7034843
-0.070508033 -0.1713194 0.70451337
-0.059854709 -0.1248809 0.71657592
-0.050496511 -0.1306489 0.70918781
-0.077021167 -0.1600156 0.69674063
-0.079649717 -0.1950272 0.70907837
-0.057433739 -0.1813924 0.69429272
-0.046721339 -0.1293657 0.71502209
-0.066440597 -0.20284919 0.70562661
-0.068127558 -0.2028835 0.70224237
-0.055311829 -0.1342663 0.70081693
0.001627155 -0.1231878 0.81677508
-0.0072979932 -0.1513494 0.70028788
-0.025288681 -0.1604169 0.69873261
-0.024350321 -0.1405078 0.6980778
-0.023792051 -0.15229639 0.70428813
-0.02205871 -0.1749455 0.69693512
-0.055057321 -0.19699509 0.70596403
0.02169349 -0.4217681 0.69340831
-0.01198862 -0.40338209 0.68501312
0.075530186 -0.1682311 0.69562727
-0.015940569 -0.2201163 0.6977123
0.102957 -0.2379373 0.69422859
0.01792952 -0.1773171 0.70149529
-0.043560829 -0.2319691 0.69537121
0.068193592 -0.25650209 0.69634688
0.05143955 -0.16700161 0.6974389
0.087713704 -0.1539588 0.69487822
0.02863314 -0.20088249 0.69669402
0.1159098 -0.1835051 0.69440961
0.097665057 -0.191304 0.69487661
0.1313296 -0.32010531 0.69225663
0.018373949 -0.18125901 0.70460647
-0.00763246 -0.15242741 0.69655669
0.1205259 -0.187223 0.69683778
-0.024834391 -0.12891421 0.70099157
0.04988483 -0.1675694 0.6951201
-0.0050679669 -0.15467981 0.69609839
0.01611783 -0.1800084 0.69935799
0.091481887 -0.1315513 0.70594949
0.00077573402 -0.1369178 0.69446748
-0.020893911 -0.1221733 0.89614558
-0.020597709 -0.118886 0.69867373
0.12812831 -0.22755571 0.69321138
0.076656871 -0.1682514 0.69636381
0.040204082 -0.18083701 0.69645011
0.01634763 -0.1610792 0.69827747
0.12716959 -0.2095416 0.69435191
0.091213003 -0.17411759 0.6963287
0.083562419 -0.1200105 0.70510221
-0.0057215001 -0.1226274 0.70748401
0.079860903 -0.1193315 0.70658582
0.078804523 -0.1193323 0.89592642
0.0044099782 -0.1290676 0.83199787
-0.046879198 -0.12972631 0.77684528
0.03401145 -0.1231799 0.70164019
0.02963086 -0.1230332 0.803738
0.13892099 -0.22805411 0.69436491
0.094025306 -0.120588 0.73607332
0.13887849 -0.28415209 0.69367957
0.1193955 -0.2254716 0.69367921
0.0034664371 -0.1198067 0.73771387
-0.022246759 -0.117238 0.70512968
-0.001420436 -0.1242944 0.71737289
0.00179469 -0.20285819 0.69890207
0.1091349 -0.337699 0.69309199
-0.0085197454 -0.1184294 0.73618102
-0.063251667 -0.18564419 0.69887412
0.030942781 -0.1213449 0.73954058
-0.075378723 -0.1143973 0.71559131
0.037757792 -0.1198364 0.75398117
0.051961679 -0.1187331 0.7811054
0.1410818 -0.26227739 0.69820303
-0.0044555501 -0.1116654 0.83329779
-0.035289031 -0.124542 0.87017518
-0.03605786 -0.115994 0.89592952
0.01182324 -0.1232022 0.85031372
0.02978413 -0.1223805 0.71611178
0.1281065 -0.1800938 0.69247758
0.1330269 -0.2080393 0.69546151
0.1127924 -0.1839194 0.69761097
-0.04639994 -0.1148457 0.74029601
-0.042593312 -0.1051111 0.88139188
0.1191815 -0.40956429 0.68704039
0.02203252 -0.3750737 0.68921918
-0.079988107 -0.2821508 0.69917113
0.01355835 -0.2827211 0.69410431
0.1101141 -0.4075202 0.69076258
0.0027407371 -0.1292184 0.84425873
0.0066905022 -0.1121387 0.85959423
0.1074548 -0.1220069 0.8583349
0.060175989 -0.1227074 0.86141419
-0.001379885 -0.31846279 0.68609732
0.096069887 -0.33290291 0.6948849
-0.080025181 -0.28306431 0.70144129
0.072069883 -0.1184702 0.87456822
0.096802667 -0.1899346 0.69497198
0.0615106 -0.1240053 0.8671397
0.048546359 -0.1307122 0.84292978
-0.02054563 -0.1157142 0.82479709
-0.071208358 -0.1756476 0.70667499
-0.024450179 -0.1186011 0.83357602
-0.018874491 -0.127847 0.91023493
0.078764841 -0.1180326 0.89089268
0.04989725 -0.1168687 0.87183201
-0.033992231 -0.1297199 0.72606969
-0.0012192019 -0.121404 0.71158648
-0.046213541 -0.12634329 0.7251488
0.017489409 -0.1661782 0.70639843
-0.068730533 -0.1427757 0.70227587
-0.074608468 -0.18051019 0.70279503
-0.05744816 -0.17193189 0.70292193
-0.020963879 -0.1334879 0.78524661
0.017465141 -0.1764461 0.70210069
0.07704936 -0.15764099 0.70199192
-0.02458434 -0.1207187 0.71074879
0.04508777 -0.1219009 0.74461591
0.036588781 -0.1224928 0.72904652
-0.02226533 -0.1236203 0.70874792
-0.0053501758 -0.12546369 0.71082753
-0.04837434 -0.121182 0.8745386
-0.067757107 -0.1239744 0.77538192
-0.0119566 -0.1366066 0.70318502
-0.03772011 -0.1567395 0.69733572
0.00073968619 -0.1390631 0.70131981
-0.0046643661 -0.1529361 0.69497693
0.087996617 -0.1523847 0.69409662
-0.07340695 -0.1379368 0.70294189
-0.018197309 -0.17087241 0.70231658
-0.029182499 -0.15534019 0.70141017
0.02688659 -0.1201909 0.78371328
0.067905188 -0.1342525 0.70531952
0.016602829 -0.18261459 0.70270258
-0.0070456299 -0.1545752 0.70095932
-0.02490552 -0.15589871 0.70369071
-0.02410841 -0.1404648 0.69904637
0.02731082 -0.1144436 0.70853549
0.007117603 -0.129155 0.82891637
-0.075945184 -0.1244975 0.81370699
-0.01506711 -0.1722136 0.69832289
-0.43174279 -0.41842091 1.4423749
0.074692897 -0.1675664 0.6953283
-0.04766142 -0.14076871 0.6978789
0.092634648 -0.1146323 0.88835561
0.112347 -0.1830913 0.696567
-0.046550579 -0.18594471 0.69931519
0.084237203 -0.1241788 0.7082656
-0.06468337 -0.17777871 0.70473778
0.028141679 -0.1999926 0.69562858
-0.020776181 -0.1717747 0.69512469
-0.04144454 -0.1385626 0.70595479
0.086253136 -0.1863938 0.69551522
0.0084479339 -0.1856416 0.70289588
0.080441304 -0.1331294 0.71109611
-0.04029686 -0.1210621 0.81983763
0.03626553 -0.1259287 0.78131747
0.03904571 -0.1216547 0.75493848
0.1016191 -0.40899599 0.68747222
0.1300198 -0.42289469 0.68564308
0.1397904 -0.3881661 0.69044667
0.1183416 -0.40806231 0.68537933
0.0168414 -0.408631 0.69694883
0.13325711 -0.36560559 0.67911702
0.1198997 -0.2577652 0.68939972
0.00346218 -0.1439008 0.70848632
0.1345996 -0.37692729 0.69276911
0.03972052 -0.41443881 0.69152677
0.088062458 -0.41976389 0.68554091
0.33258951 -0.41013801 1.0673831
0.1107302 -0.4085235 0.69186962
0.1124508 -0.4026432 0.69161028
0.14059439 -0.36521029 0.68911111
0.1197472 -0.3874976 0.68884331
0.066072889 -0.40969369 0.70275557
0.1206219 -0.40551761 0.69683069
0.1098804 -0.3820672 0.68278283
0.050552849 -0.1820593 0.70533413
0.073353827 -0.4147667 0.68529391
-0.074409813 -0.17629831 0.69680929
0.1312369 -0.34479389 0.69681001
0.077579781 -0.2249306 0.69643068
-0.023518279 -0.37427601 0.7545501
0.1172252 -0.25977099 0.68919063
0.1314287 -0.2248631 0.69163871
0.1030954 -0.41103929 0.69212168
0.1282229 -0.204632 0.69044012
0.1117784 -0.2896423 0.6929785
0.2198139 -0.40656561 1.1589839
0.2250064 -0.412229 1.161415
0.104562 -0.1502997 0.69406778
0.11306 -0.27286851 0.68996543
-0.005021445 -0.2650193 0.69631582
-0.01186229 -0.1660026 0.67797828
0.111822 -0.40253621 0.69216412
0.1328108 -0.29911849 0.69440049
-0.02979756 -0.1530351 0.69861442
-0.056716722 -0.1833058 0.70187283
0.082608953 -0.1467955 0.6983068
-0.01730085 -0.1324621 0.79124409
0.079700477 -0.1201177 0.71188182
0.0020735711 -0.1207349 0.81615072
-0.07129398 -0.16784801 0.697263
-0.065995753 -0.186707 0.69796032
-0.0321608 -0.1983379 0.702456
0.032280762 -0.35201231 0.6853115
-0.038361911 -0.157187 0.69937962
-0.068044327 -0.200064 0.69833642
0.115316 -0.1213047 0.78026527
0.1395461 -0.1218161 0.89997751
0.088493049 -0.155957 0.69797778
-0.03926662 -0.124252 0.7739265
-0.051184408 -0.12581819 0.70144868
0.090090737 -0.1353994 0.69866008
-0.070999041 -0.121482 0.72207463
0.085188963 -0.1221812 0.75837988
-0.02006376 -0.1306483 0.70772809
-0.023025131 -0.1205499 0.70585072
0.0110744 -0.1191082 0.84438348
0.064057663 -0.31291091 0.69559002
-0.043308239 -0.1217483 0.82135868
-0.0263258 -0.121514 0.83626992
0.085345253 -0.1218595 0.82572609
-0.04128287 -0.1293191 0.75798118
0.1019807 -0.123171 0.72358859
-0.033009861 -0.12644909 0.72075927
-0.001370117 -0.12565739 0.72521412
0.04892052 -0.1243437 0.7506215
0.02453343 -0.1218898 0.80199099
0.028964849 -0.1227381 0.71896303
0.0542689 -0.12739541 0.79806209
-0.003525153 -0.1255361 0.71321189
-0.048855439 -0.1276505 0.76243073
-0.001140326 -0.12568121 0.76821601
0.037581392 -0.1227505 0.72984493
0.02790438 -0.1215436 0.80239528
-0.0019601509 -0.16094349 0.70355022
0.03692412 -0.1221307 0.71557969
-0.029530279 -0.1529168 0.69915098
0.0094433948 -0.119329 0.87456942
0.083134443 -0.3545343 0.701294
0.085885733 -0.33821031 0.6894201
0.01874073 -0.32622549 0.69701427
0.049373601 -0.37660271 0.69875377
0.1196556 -0.38780159 0.69062722
-0.05306682 -0.135547 0.703592
0.05048145 -0.2125438 0.69997799
0.03866712 -0.122253 0.75920159
0.04175932 -0.37097171 0.70085108
0.1040526 -0.1227786 0.8570503
0.1232435 -0.4102864 0.69974452
-0.054090951 -0.1376947 0.73950481
0.05222645 -0.1268654 0.72584802
0.050463129 -0.40680301 0.69218522
0.038746409 -0.1197543 0.75920367
0.1288207 -0.1161153 0.85951293
0.034850981 -0.1241544 0.77961469
0.1181409 -0.25937989 0.69034213
0.1390807 -0.27984631 0.68879098
0.040725369 -0.1208553 0.85151768
0.00061837578 -0.1394732 0.70016801
-0.01589182 -0.2204943 0.70030028
0.07714951 -0.2036338 0.69237912
-0.056193199 -0.2113824 0.69914949
0.1029954 -0.30009571 0.69525039
0.09089049 -0.1925512 0.69707477
0.01711994 -0.1779222 0.69858217
-0.0096715949 -0.1261573 0.75548398
-0.01206735 -0.1358937 0.6994611
0.1141828 -0.3744258 0.69197768
0.119939 -0.18491361 0.69559932
0.077550933 -0.16773181 0.69743931
0.103402 -0.2182111 0.6974991
0.1027203 -0.23939469 0.69487262
0.1219452 -0.41170841 0.69069493
0.088005923 -0.1544518 0.6962918
0.1201295 -0.26030859 0.69342703
0.1021466 -0.40994599 0.68911278
0.1164824 -0.183461 0.6963864
0.1201448 -0.38927379 0.69174218
0.1345036 -0.35142189 0.69421172
0.075045884 -0.15566491 0.69963461
-0.037487499 -0.40000671 0.69179982
0.050608441 -0.1686527 0.69870633
0.097166844 -0.1914629 0.69669777
0.1401245 -0.39105731 0.69565737
-0.05173957 -0.31240171 0.69616908
-0.02390955 -0.12662239 0.70511848
-0.003867649 -0.3701607 0.69363987
0.051215749 -0.2103681 0.69970268
0.1392101 -0.3675642 0.69403738
-0.0026771871 -0.26483339 0.69906372
0.074375622 -0.2107119 0.69757408
0.0425811 -0.25659451 0.69683248
0.075252011 -0.1687362 0.6976316
0.047628161 -0.36924601 0.69582772
0.018528391 -0.40430689 0.69040787
-0.040403329 -0.40053749 0.69023949
0.02224838 -0.3770653 0.69621032
0.018129259 -0.17651971 0.70142061
0.072116628 -0.35254741 0.69557297
0.068420343 -0.2566539 0.69707698
-0.01186185 -0.3289814 0.69929338
0.078726523 -0.16041809 0.70179158
-0.01147633 -0.39143261 0.69287241
0.069086827 -0.30312461 0.69474399
0.059453469 -0.2732209 0.6965757
-0.0050295522 -0.2317868 0.69574302
0.066476613 -0.34899199 0.69512808
-0.0085321143 -0.3903707 0.69431412
0.1088346 -0.2912755 0.69379902
0.1386926 -0.41544569 0.69945192
0.01294567 -0.3618052 0.69002652
0.083717108 -0.3430568 0.69250548
0.1084136 -0.3734391 0.69143963
0.089604743 -0.42028981 0.68565059
0.1000078 -0.3376773 0.69361311
0.1282727 -0.1374753 0.69536072
-0.005877078 -0.30629969 0.69871312
0.0085784718 -0.18136381 0.70049173
0.041094631 -0.41380501 0.69165349
0.13154671 -0.32144409 0.69623399
0.1038829 -0.1267958 0.70224857
0.037143391 -0.41704881 0.6908766
0.1031326 -0.35281289 0.69851452
-0.019553879 -0.39064631 0.69623601
0.01504082 -0.32550859 0.6943683
0.072642803 -0.1880886 0.69493979
0.03118429 -0.33040071 0.69253248
-0.025199231 -0.39090249 0.69513488
0.0088532045 -0.41854319 0.68643957
-0.0047442168 -0.2275907 0.7017917
0.078087144 -0.3623355 0.6907658
0.1268546 -0.3374171 0.69500238
0.024807179 -0.2080047 0.69335562
-0.025535161 -0.34507129 0.69094259
-0.025696291 -0.41871181 0.69176561
-0.049735021 -0.41496399 0.69159311
0.084486522 -0.2140851 0.69023317
0.1282696 -0.36321181 0.69032341
0.1109558 -0.18930051 0.69132072
-0.030293699 -0.3915363 0.69092542
0.0015942981 -0.3992596 0.6989671
0.053182129 -0.1798397 0.69227427
0.0073452741 -0.3412264 0.68436241
0.01105274 -0.4148111 0.68802768
0.055968139 -0.3810457 0.70385742
0.0508761 -0.2964088 0.7049228
0.2086336 -0.40573359 0.89789289
0.097953238 -0.1315814 0.70428479
0.1338353 -0.37191021 0.68804783
0.30425659 -0.4171555 1.0485981
0.0663708 -0.37889501 0.6946876
0.058859069 -0.3189483 0.68591291
0.12884121 -0.1803561 0.69003987
0.032939561 -0.39152139 0.69154841
0.067291617 -0.38802749 0.66786247
0.1287331 -0.42123729 0.55147368
0.028925531 -0.38552591 0.69738901
0.064265169 -0.29537401 0.69693118
-0.02273776 -0.28034171 0.69556379
0.027671609 -0.36645049 0.69342709
-0.03368308 -0.2928746 0.69360828
0.099408656 -0.1750481 0.68306011
0.07104186 -0.2311787 0.69677931
0.1386286 -0.1783421 0.69398481
0.2681883 -0.4218722 0.96790773
0.29666269 -0.409587 1.022964
0.106656 -0.3230471 0.70057482
0.1114753 -0.29301661 0.69473892
0.00523717 -0.2241464 0.70053738
0.1860854 -0.41945511 0.70375788
0.1288242 -0.1822287 0.69810581
0.1295007 -0.13887399 0.69633979
0.1201987 -0.1861528 0.69768357
0.20361459 -0.42297679 0.68506879
0.1172883 -0.1861618 0.70355588
-0.02142491 -0.12652031 0.73121142
-0.022362789 -0.13857689 0.69085538
-0.0567756 -0.2011981 0.71394008
-0.05934782 -0.1788536 0.72362131
-0.056743231 -0.1813502 0.69627893
0.077905923 -0.12668949 0.7050575
-0.05419993 -0.1340701 0.69981182
-0.059579398 -0.1223883 0.71206892
0.1044788 -0.1233875 0.72280991
0.090435483 -0.1226763 0.6962958
0.004560113 -0.1237749 0.75098932
0.085544348 -0.1258124 0.80520278
0.086830109 -0.1252379 0.86215073
0.109826 -0.1235798 0.71209139
0.085775264 -0.1251059 0.76560271
0.061268151 -0.1223566 0.86527592
0.050666451 -0.1217693 0.78716338
0.040902819 -0.121744 0.7637974
0.0519129 -0.119473 0.87820202
0.064286143 -0.1199411 0.9067688
-0.070822887 -0.1694961 0.69880462
0.076904833 -0.1184493 0.89128882
0.050101101 -0.1222438 0.84265882
0.038479209 -0.1224872 0.74028218
-0.073670954 -0.1796151 0.7036618
-0.079144247 -0.3637327 0.72186512
-0.069325887 -0.1415665 0.69861448
-0.07141678 -0.1359448 0.70431578
0.1106133 -0.1200041 0.73693699
-0.039417218 -0.12540381 0.83065063
0.045896322 -0.1245825 0.86495799
-0.073484302 -0.12798031 0.76228511
-0.075963408 -0.1620221 0.69884282
-0.078425556 -0.2475744 0.83421862
-0.066151507 -0.1898686 0.70467073
-0.078002542 -0.1298531 0.76734072
-0.076301433 -0.1231071 0.71905929
-0.071974553 -0.1208788 0.71131188
0.029374691 -0.1231633 0.76265651
-0.078433543 -0.1709474 0.70818663
0.03739417 -0.1238906 0.69737917
0.115204 -0.1242496 0.7091347
-0.0028444531 -0.1211416 0.72723299
-0.001891166 -0.1200636 0.7029565
-0.0078212321 -0.1211145 0.7394098
-0.040599849 -0.1219929 0.84899771
-0.08382991 -0.19879019 0.84746432
0.00075194048 -0.1192311 0.82736641
0.00283879 -0.1181741 0.85857308
-0.0031071899 -0.1217361 0.75908053
-0.077582628 -0.122786 0.81013793
-0.082976371 -0.19557279 0.76711643
-0.097482197 -0.41010061 0.91023308
-0.076068312 -0.2288705 0.87815708
-0.077473491 -0.2688722 0.84938228
0.079299599 -0.1211195 0.8565172
-0.069259606 -0.1227119 0.7711513
-0.059386581 -0.1219401 0.70164722
0.043983519 -0.1223683 0.69601381
0.01208109 -0.12383 0.75423652
-0.075776957 -0.17188799 0.7858088
0.1224543 -0.1171074 0.78593242
0.1206659 -0.1227194 0.76562172
0.073096313 -0.1182516 0.70219189
0.040384319 -0.1228045 0.72732311
0.053148359 -0.1668814 0.69591987
-0.083504833 -0.19053569 0.76736188
-0.074641436 -0.1232231 0.87286103
-0.079384297 -0.2386954 0.74300468
-0.081426263 -0.2725395 0.7855404
-0.076867968 -0.2971724 0.88512683
-0.080319487 -0.32716671 0.86447549
-0.085473627 -0.32031149 0.87404031
-0.077990167 -0.33705479 0.83109748
-0.07712546 -0.2305079 0.89876997
-0.083390921 -0.30056041 0.71755981
0.0055096452 -0.12784889 0.78941631
0.003554225 -0.1245179 0.69921231
-0.039412439 -0.1219 0.75221813
-0.046239201 -0.1205912 0.85719359
0.0197154 -0.1218154 0.75460827
0.1130002 -0.1255089 0.8344301
-0.082562417 -0.19392809 0.78513777
0.1218118 -0.12648439 0.78808647
0.092637539 -0.1162001 0.74758631
0.1309581 -0.1196367 0.86622542
0.097491503 -0.1250266 0.81975007
0.12629449 -0.1195953 0.78544009
0.1125772 -0.1141755 0.79226887
0.1076793 -0.1220727 0.75502408
0.065334409 -0.1079138 0.73593062
0.09035185 -0.1265309 0.73118228
0.073200613 -0.1207124 0.79290599
-0.033849921 -0.123017 0.70591748
0.019016949 -0.1789266 0.6987415
-0.0036676531 -0.2281 0.69584608
-0.01348886 -0.2087044 0.70197397
0.044438299 -0.1247188 0.90300423
0.03365612 -0.1252107 0.80761403
0.028560581 -0.1218318 0.80097377
0.008017391 -0.1196568 0.84330028
-0.033934738 -0.121982 0.87077582
-0.01198751 -0.1217201 0.81281328
0.093785413 -0.1235376 0.84508342
-0.078291088 -0.148424 0.73848349
0.0057846899 -0.1227758 0.79329062
0.1038599 -0.1201641 0.84845018
-0.024629621 -0.1161748 0.87586242
-0.074974209 -0.18254431 0.83766919
-0.079911172 -0.23837601 0.74107331
-0.083999664 -0.36629179 0.83321428
-0.082060367 -0.20391139 0.72793019
-0.077353418 -0.33050501 0.83813852
0.13063671 -0.1269341 0.81576139
-0.00059261918 -0.2153917 0.69850099
-0.08875674 -0.21032541 0.74737108
0.0059759622 -0.1238099 0.75774699
-0.076328494 -0.32148421 0.83989388
-0.02164337 -0.1527493 0.70126802
-0.0065062339 -0.1503983 0.6959455
0.1003495 -0.1207702 0.78525537
0.120329 -0.1220055 0.84604162
-0.025706019 -0.14072379 0.6950894
-0.082528979 -0.2118261 0.7030288
-0.078443199 -0.2641125 0.78913063
-0.076276988 -0.29037941 0.89007509
0.1665711 -0.1334471 0.93511462
-0.082462519 -0.2202107 0.78628308
0.079446852 -0.1218371 0.74469012
0.04118612 -0.1187173 0.71399391
0.14759991 -0.15406211 0.69151992
-0.077148803 -0.1746846 0.79207069
0.15161771 -0.1205472 0.9014613
-0.01937905 -0.1229521 0.74291509
0.01417419 -0.1210699 0.79460788
-0.082999803 -0.15810061 0.72036421
0.04530048 -0.1237248 0.78683442
0.049082961 -0.1200005 0.78094012
-0.074516237 -0.17884371 0.69881701
0.01324549 -0.1213074 0.70450097
-0.079729252 -0.4209778 0.91130638
-0.067761809 -0.1185087 0.88199568
-0.038363989 -0.41622999 0.92468792
0.1125808 -0.1191508 0.85281658
0.1163923 -0.13432071 0.91929591
0.1280555 -0.1239939 0.86037791
-0.077378631 -0.1231265 0.79845327
0.1230917 -0.27057931 0.92003697
0.084939882 -0.1210281 0.84986639
0.1171017 -0.3047047 0.92473662
0.079909921 -0.1212309 0.74536192
0.1166512 -0.23340181 0.91971618
0.1056544 -0.41182071 1.062853
-0.02968939 -0.41808119 0.93054301
0.0948897 -0.1227989 0.91596651
0.1157958 -0.192228 0.91892868
-0.0078979135 -0.1225412 0.83419758
-0.02313265 -0.1158108 0.89253879
-0.065252431 -0.36352199 0.91731411
0.1176549 -0.1349459 0.91902149
0.1162262 -0.35033631 0.92538577
0.1306888 -0.25309369 0.92036098
0.1044715 -0.1203661 0.83767992
0.083077908 -0.1141222 0.8526504
0.1038033 -0.1497516 0.91855079
0.1172967 -0.31020659 0.91848111
0.1109328 -0.2330921 0.92045861
0.1278372 -0.3375012 0.92124981
-0.073343433 -0.1224906 0.82547343
-0.02631535 -0.12510291 0.70673531
0.1123679 -0.40197021 1.066761
-0.073932797 -0.1230858 0.78614759
-0.034931321 -0.1223105 0.85912538
-0.066263817 -0.1235714 0.89341551
0.1216097 -0.2696771 0.91889173
0.1456203 -0.1985677 0.91020489
0.1205389 -0.1923057 0.9189167
0.12772539 -0.29899979 0.91799319
0.1155809 -0.4041172 0.92533702
-0.023851439 -0.1221122 0.70121038
-0.074009418 -0.1228487 0.87592262
-0.075315163 -0.35453239 0.91598338
-0.065605037 -0.34779349 0.92001581
-0.055662662 -0.1191584 0.90009731
0.079213172 -0.1170976 0.89801598
0.13318831 -0.25586969 0.90616637
-0.035193671 -0.1193815 0.91476601
0.1449293 -0.2463975 0.91140372
0.1312543 -0.12686729 0.7170313
0.090630978 -0.4046497 0.91843849
-0.001722589 -0.40316501 0.92545938
0.0025852099 -0.1222711 0.73721337
-0.076674201 -0.15632591 0.91935581
0.1363457 -0.1199693 0.83674228
0.1088613 -0.1190587 0.89677888
0.085015029 -0.1170201 0.90536118
0.20706999 -0.42223209 0.86148399
-0.0022809729 -0.1223155 0.75634772
0.1441277 -0.29428431 0.91318709
0.1293081 -0.1742447 0.9177556
0.14166351 -0.1167624 0.91207522
0.1416218 -0.1206264 0.87493771
-0.02535883 -0.35634521 0.92566228
0.093216851 -0.12679259 0.9323144
0.1084227 -0.28883681 0.91735911
0.1156264 -0.1206733 0.90320909
0.1433606 -0.32573029 0.9121809
0.1210885 -0.2325113 0.92051142
0.099898688 -0.24917351 0.91991538
-0.03620347 -0.38185301 0.92391747
-0.022956491 -0.39661539 0.92104292
0.1011611 -0.1199815 0.81913573
-0.003368244 -0.1213911 0.70511031
-0.051445041 -0.34073061 0.92507702
-0.03941733 -0.41489881 0.92479122
-0.06093521 -0.1216549 0.91918617
0.1023957 -0.1203546 0.90019941
0.043863591 -0.1187659 0.74460942
0.1347851 -0.116422 0.8564105
0.090465143 -0.36917511 0.92326462
0.13896909 -0.1153305 0.90952653
0.1320142 -0.12820099 0.78360331
0.13171621 -0.14411689 0.9158603
0.061963379 -0.41207141 1.023922
0.1043105 -0.2625145 0.92016292
0.1151616 -0.1208373 0.77686059
0.075300902 -0.1204181 0.71130753
-0.047619689 -0.1202526 0.90658182
-0.086754821 -0.1267961 0.7037518
-0.048473381 -0.121957 0.86951971
-0.066565387 -0.1220625 0.85886991
-0.069481373 -0.13778681 0.91810042
0.093550697 -0.1226005 0.82717568
0.1013752 -0.1194025 0.76113588
0.1037558 -0.1185008 0.766599
-0.062698819 -0.1200313 0.87397349
0.01455206 -0.1186468 0.72776592
0.1336748 -0.317976 0.91488951
0.1285346 -0.40602341 0.9868632
0.1113126 -0.2668587 0.91739422
0.082907051 -0.1185444 0.82430518
0.091482028 -0.32226101 0.92029732
-0.02877019 -0.1178659 0.89421642
0.060483068 -0.1138249 0.86329222
-0.076328181 -0.12627511 0.72909862
-0.04415549 -0.1273548 0.80700481
0.00106445 -0.13028631 0.69013357
-0.078973703 -0.1250912 0.72378099
-0.0091169775 -0.1241314 0.73657238
-0.01672307 -0.1217762 0.89547533
-0.049963441 -0.1237748 0.74937087
-0.038260151 -0.121199 0.89783192
-0.02521253 -0.1215073 0.83724242
-0.0149269 -0.1202028 0.81492293
-0.092138663 -0.12749469 0.70219839
-0.046683639 -0.1164616 0.76096731
-0.04062444 -0.1169668 0.86263669
-0.018370841 -0.1223921 0.76794863
-0.00029693541 -0.1223606 0.80007458
-0.01929054 -0.1230093 0.74333411
0.1065181 -0.1178151 0.71328813
0.1160118 -0.1222192 0.86230618
0.34517199 -0.42157641 0.2370629
0.1158903 -0.1231381 0.70152599
0.1013914 -0.1199885 0.71116161
0.051809561 -0.1208253 0.78039879
0.090583831 -0.1258658 0.72636539
0.1106432 -0.1222141 0.72989571
0.1336932 -0.1198924 0.87001783
0.083009347 -0.1221153 0.70339912
0.13956919 -0.19345319 0.9160893
0.1000017 -0.1235059 0.9210391
-0.067242473 -0.1239342 0.72176993
-0.0386802 -0.17804059 0.92025
-0.08806967 -0.42134631 0.90477341
0.065986663 -0.1167862 0.72419143
0.077559859 -0.1156363 0.9041127
-0.04484212 -0.12767319 0.90896529
0.1425979 -0.2486804 0.91120851
-0.055113569 -0.1302658 0.77540898
0.095497087 -0.1236428 0.92160118
0.035630278 -0.121296 0.72088492
0.14456519 -0.1479333 0.91460782
-0.059879001 -0.1212222 0.77971369
0.048496399 -0.1223907 0.7068001
0.03782025 -0.1213624 0.75149292
0.1053451 -0.1161441 0.81556368
0.1288403 -0.2556583 0.92014182
0.1412535 -0.25511321 0.91935921
-0.052238349 -0.1199232 0.83327162
0.1448952 -0.28553581 0.91687411
0.1401712 -0.25680971 0.70151848
0.1457345 -0.12658291 0.86872703
0.1518597 -0.2375889 0.90987438
0.1467364 -0.177018 0.79106861
0.050600711 -0.1153026 0.86216861
0.1465921 -0.1217803 0.78556448
0.141105 -0.2012362 0.70081103
0.1450927 -0.1231875 0.83378363
0.1412309 -0.30804431 0.7034539
0.1497454 -0.2009086 0.87132633
0.1449331 -0.2474476 0.76923341
0.1462767 -0.1229981 0.8095299
0.14470831 -0.19127759 0.77503341
0.1460267 -0.1693017 0.79141217
0.14799801 -0.3475987 0.76124859
0.1360911 -0.35792401 0.70024961
0.14238811 -0.28233159 0.69705921
0.1477436 -0.26123849 0.74230063
0.1198817 -0.1167988 0.83591348
0.1427229 -0.1735182 0.69736218
0.1507421 -0.20120239 0.86837208
0.085903823 -0.1171028 0.72644472
0.14379831 -0.116226 0.88672978
0.1393048 -0.38318649 0.69812822
0.14995269 -0.16093931 0.89855659
0.14025129 -0.41218579 0.69841349
0.15049709 -0.3992646 0.78785199
0.1504937 -0.2775358 0.86859763
0.1503567 -0.36114889 0.78578109
0.1508933 -0.3960734 0.88906562
0.1501897 -0.3499749 0.89318919
0.1463764 -0.20999791 0.76737207
0.1435152 -0.1193651 0.71487403
0.1450846 -0.1286114 0.83358878
0.1458434 -0.26510039 0.76721299
0.1473012 -0.40284091 0.75780398
0.14684591 -0.17653491 0.72326922
0.14738829 -0.36901391 0.75936592
0.145676 -0.1591322 0.72460431
0.1373242 -0.27443331 0.70235473
0.1469036 -0.1221329 0.88306868
0.14319891 -0.38996679 0.71227431
-0.04742014 -0.1186195 0.84636009
0.1468166 -0.1216694 0.89561307
-0.064095907 -0.1182795 0.79377401
0.1489521 -0.26919511 0.8647185
0.1436483 -0.1665711 0.74720818
0.1433668 -0.1406759 0.70009202
0.14076839 -0.30549791 0.69863099
0.1436349 -0.31131059 0.69172388
0.1403441 -0.25811449 0.69731641
0.14943589 -0.41570169 0.82589233
0.1478844 -0.2389425 0.787507
0.1420619 -0.33534431 0.71329701
-0.04824793 -0.118916 0.85839379
0.147829 -0.1441936 0.88541973
0.14332999 -0.219106 0.71835887
-0.069598079 -0.1289791 0.8042832
0.14749371 -0.39728379 0.85681587
0.1445155 -0.31853071 0.71456492
0.15243229 -0.3483907 0.89694428
0.0088202357 -0.119551 0.7985236
0.1517172 -0.33106771 0.90851372
0.1519697 -0.31272161 0.87673908
0.14985099 -0.35353351 0.86657351
0.02684534 -0.4171198 0.9836219
-0.0044762492 -0.1208624 0.84211612
0.050756451 -0.119585 0.75592631
0.1498051 -0.3165673 0.86732632
0.033684071 -0.1186724 0.71347219
0.1434647 -0.1572651 0.74495459
0.1483753 -0.41324109 0.74947089
0.145669 -0.2688075 0.78927022
0.1457932 -0.2249168 0.74458522
0.1449611 -0.28476551 0.72112411
0.1466109 -0.2489817 0.72806293
0.14340819 -0.33532199 0.70481682
0.14949571 -0.18828049 0.88298303
0.1500297 -0.3556771 0.77247292
0.123777 -0.1204238 0.85558659
-0.070999026 -0.1213232 0.70191038
-0.064639151 -0.1187583 0.75146228
0.14957429 -0.37522459 0.87726033
0.1430158 -0.40428671 0.91916752
0.097094662 -0.1178051 0.83587962
0.067486517 -0.1196528 0.81268221
0.1315103 -0.1169119 0.79472411
0.1489135 -0.31691849 0.86472142
0.110056 -0.1200184 0.70524919
0.1424491 -0.1550201 0.73558968
0.1480293 -0.4031105 0.73039502
0.14946871 -0.2358353 0.72798193
0.1482247 -0.41305351 0.73879141
0.073059082 -0.1280885 0.73487669
0.14016131 -0.21379291 0.84932828
0.1482908 -0.2610245 0.86989152
0.15197399 -0.25987199 0.9035452
0.14988799 -0.2673859 0.87807143
0.088210046 -0.1191507 0.87101048
0.1461276 -0.2869291 0.70496798
0.1478308 -0.29808569 0.7552157
0.14961191 -0.30601731 0.88196492
0.031780541 -0.41887221 0.97876501
0.2191058 -0.4188109 0.8978613
0.15037391 -0.4072907 0.74455482
0.1181924 -0.39808571 1.05556
0.056262609 -0.41735479 1.0718
0.076776393 -0.41922709 1.089594
0.081145287 -0.40430439 1.0329649
0.1018195 -0.39930949 1.045258
0.071359038 -0.41256341 1.0899071
0.1490567 -0.14584699 0.86875677
0.04173952 -0.121281 0.72581857
0.1468288 -0.1239514 0.74264812
0.1457774 -0.1990501 0.7413131
0.14715619 -0.2965554 0.74787182
0.1435997 -0.3891266 0.71046913
0.149694 -0.31297371 0.77645129
0.1495931 -0.30000189 0.74537081
0.1467952 -0.2972855 0.76572108
0.1454341 -0.27380061 0.74787402
0.1478744 -0.25114799 0.76063633
0.1459758 -0.2809397 0.7699185
0.1499662 -0.32770589 0.77535778
-0.025684539 -0.1197051 0.79572612
0.1436474 -0.2202646 0.776344
0.036378618 -0.1229714 0.79810441
0.148064 -0.39957699 0.86371952
0.14731009 -0.35631329 0.75231051
0.059256081 -0.39357829 1.033208
0.1490089 -0.2669726 0.8557291
0.1472483 -0.3656798 0.72327352
0.062166572 -0.41511571 1.0827219
0.044277489 -0.1195298 0.84870249
-0.01021904 -0.1198624 0.81365299
0.044260621 -0.1167732 0.78492862
0.1349664 -0.39886221 1.0824831
0.1210009 -0.41809639 1.106392
0.1509956 -0.3086358 0.88054198
0.1147184 -0.1207812 0.77917713
0.036294341 -0.1225157 0.73990399
-0.054448899 -0.1225079 0.76220798
0.02617627 -0.1179442 0.75015962
0.1471477 -0.1525261 0.75154412
0.1410069 -0.31498939 0.68838322
0.1398813 -0.2602782 0.71010828
0.1464345 -0.2320894 0.75590998
0.16781449 -0.39551511 0.80052578
0.1537424 -0.24778371 0.72863758
0.14048021 -0.13652541 0.86687028
0.23609599 -0.41642249 0.91615748
0.067074299 -0.4144654 1.1106499
0.14766771 -0.33922529 0.90845913
0.1080536 -0.1172011 0.87591922
0.1488875 -0.2188945 0.91402191
0.0050948262 -0.1251086 0.78274632
0.1543805 -0.41967541 0.91157568
-0.046252731 -0.1230887 0.82053739
0.068088412 -0.1170124 0.86248869
0.1438441 -0.1283197 0.89811558
0.087512732 -0.42208099 1.043761
0.1090792 -0.4061873 1.084273
0.14725401 -0.25179479 0.83822262
0.1470329 -0.25235039 0.81743479
0.1494958 -0.34935749 0.91442108
0.1470568 -0.22580551 0.84017152
0.1476175 -0.402899 0.81625491
0.1472663 -0.27254269 0.8208223
0.1457552 -0.27952489 0.70920563
