# .PCD v0.7 - Point Cloud Data file format
VERSION 0.7
FIELDS x y z normal_x normal_y normal_z curvature
SIZE 4 4 4 4 4 4 4
TYPE F F F F F F F
COUNT 1 1 1 1 1 1 1
WIDTH 584
HEIGHT 1
VIEWPOINT 0 0 0 1 0 0 0
POINTS 584
DATA ascii
0.072069883 -0.42802551 0.87456822 1.0121717e-06 -1 -8.2202903e-05 5.4955708e-06
0.088210046 -0.42802551 0.87101048 -4.9905898e-06 -1 -8.778958e-09 2.7660632e-05
0.1080536 -0.42802551 0.87591922 -7.0492197e-06 -1 -7.8264478e-05 0
0.1336932 -0.42802551 0.87001783 0.0073318817 -0.99995416 -0.0061622201 0.00013555535
0.14586964 -0.42802551 0.87585616 0.0078190099 -0.9999513 -0.0060206871 0.00012543617
-0.082401067 -0.42802554 0.88572741 -0.7779063 -0.59700525 0.19607747 0.12188291
-0.074484713 -0.42802551 0.88474029 -0.75122982 -0.62845063 0.20175107 0.11953857
-0.066919342 -0.42802551 0.88425159 -0.62876379 -0.74831951 0.21136212 0.13337277
-0.052065071 -0.42802551 0.88558632 -0.32918164 -0.92523295 0.1886358 0.1225196
-0.044687942 -0.42802551 0.88241529 -0.25721791 -0.95547009 0.14462359 0.10617846
-0.02188156 -0.42802551 0.88534069 -0.088482849 -0.99078083 0.10258676 0.055216268
-0.01857364 -0.42802551 0.88154107 -0.070388675 -0.99648976 0.045315381 0.03341629
0.037289411 -0.42802551 0.88969851 -3.2930035e-07 -1 7.3467738e-05 0
0.052874483 -0.42802551 0.88431728 1.5398226e-06 -1 6.2994841e-05 0
0.0747234 -0.42802551 0.88391483 9.5277283e-06 -1 -0.00012310347 5.5080532e-06
0.092634648 -0.42802551 0.88835561 3.2563555e-06 -1 -8.6440799e-05 0
0.1291267 -0.42802551 0.88834733 3.4644392e-05 -1 0.0001617753 0
0.14613843 -0.42802551 0.88495821 0.0060534836 -0.99996954 -0.0049133161 0.00017087316
-0.081101239 -0.42802554 0.89511985 -0.77172327 -0.57441723 0.27292511 0.13110468
-0.075687803 -0.42802551 0.89519358 -0.72718537 -0.63583332 0.25868401 0.1345426
-0.066244766 -0.42802551 0.89323461 -0.63002092 -0.73090321 0.26240069 0.13934091
-0.035028651 -0.42802551 0.89523262 -0.17490402 -0.97002542 0.16869859 0.09326575
-0.023774657 -0.42802551 0.89411318 -0.12133384 -0.98198223 0.144876 0.07304211
-0.01672307 -0.42802551 0.89547533 -0.062565766 -0.99200451 0.10960197 0.04861756
0.041503429 -0.42802551 0.89209771 0 -1 0 0
0.057979081 -0.42802551 0.89729983 -6.4886008e-06 -1 0.00010490563 0
0.078421846 -0.42802551 0.89403099 1.052316e-05 -1 -6.5900247e-05 0
0.10790353 -0.42802551 0.89743584 2.9319952e-05 -1 0.00018332507 0
0.1395461 -0.42802551 0.89997751 8.1377169e-05 -1 0.00018509387 0
0.14720774 -0.42802551 0.89740098 9.066856e-05 -1 0.00024031282 0
-0.075765066 -0.42802554 0.90375078 -0.72874528 -0.58975518 0.34802181 0.14513823
-0.066503465 -0.42802551 0.90696621 -0.71922123 -0.5895437 0.36763972 0.15291816
-0.055750687 -0.42802551 0.90380234 -0.48316473 -0.8081609 0.33679029 0.15899812
-0.042665765 -0.42802551 0.9042902 -0.30550298 -0.91469187 0.2645877 0.14035475
-0.036702219 -0.42802551 0.90778792 -0.2159584 -0.94998163 0.22560339 0.1174958
-0.01114666 -0.42802551 0.90319192 -0.026714701 -0.99688321 0.074229926 0.02977602
0.044438299 -0.42802551 0.90300423 -9.4565439e-06 -1 0.0001941407 0
0.053354021 -0.42802551 0.90763742 -4.5792872e-06 -1 0.00018726784 0
0.064286143 -0.42802551 0.9067688 2.8278639e-06 -1 0.00010871708 0
0.077559859 -0.42802551 0.9041127 5.6231966e-06 -1 0.00018618324 0
0.084657505 -0.42802551 0.90603077 1.2536262e-05 -1 0.00015209064 0
0.1023957 -0.42802551 0.90019941 5.1024072e-06 -1 0.00016287361 0
0.11574625 -0.42802551 0.90590417 3.3258955e-05 -0.99999994 0.00027652227 0
0.1360787 -0.42802551 0.90784645 6.7651519e-05 -0.99999994 0.00024215905 0
0.14726 -0.42802551 0.90704381 7.1623668e-05 -1 0.00017694496 0
0.15181713 -0.42802551 0.90496033 7.1763672e-05 -1 0.00018063866 0
-0.075239211 -0.42802554 0.91550767 -0.66845214 -0.57670116 0.4696674 0.16212468
-0.066286132 -0.42802551 0.91793567 -0.67230642 -0.54962111 0.49590394 0.16085576
-0.057370011 -0.42802551 0.9166525 -0.54194778 -0.6250037 0.56183892 0.16241305
-0.047462165 -0.42802551 0.91480637 -0.39248735 -0.83290273 0.3901625 0.16638328
-0.035193671 -0.42802551 0.91476601 -0.20897369 -0.93715596 0.27940765 0.12499399
-0.024512289 -0.42802551 0.9110328 -0.1397759 -0.96251208 0.23245052 0.098092422
-0.018874491 -0.42802551 0.91023493 -0.067778431 -0.98441333 0.16228518 0.062937506
-0.0004953146 -0.42802551 0.91530043 -0.0066554975 -0.99873638 0.049812611 0.02096992
0.01394165 -0.42802551 0.91702992 3.6882037e-05 -0.99999994 0.00041581775 0
0.020498039 -0.42802551 0.91901308 7.8868325e-06 -0.99999988 0.00041584496 0
0.039202511 -0.42802551 0.91166002 -1.1013161e-05 -0.99999994 0.00043198667 0
0.094283581 -0.42802551 0.9144696 2.1739947e-05 -1 0.00020242498 0
0.1058103 -0.42802551 0.91906285 5.9233562e-06 -0.99999988 0.00039569387 0
0.11662354 -0.42802551 0.91924059 3.1005504e-05 -0.99999988 0.00043934555 0
0.123463 -0.42802551 0.91886538 3.0678551e-05 -0.99999994 0.00038725449 0
0.13526103 -0.42802551 0.91655159 5.9554724e-05 -0.99999994 0.00025488128 0
0.14372662 -0.42802551 0.91319436 9.150125e-05 -1 0.00023605747 0
-0.074718982 -0.42802554 0.924591 -0.65866631 -0.54182434 0.52209681 0.16274133
-0.067102119 -0.42802551 0.92058736 -0.67230642 -0.54962111 0.49590394 0.16085576
-0.052124158 -0.42802551 0.92326629 -0.48989353 -0.72267294 0.48759437 0.16727881
-0.035750806 -0.42802551 0.92453653 -0.22112687 -0.91277862 0.3434211 0.13811186
0.033374697 -0.42802551 0.92505705 -3.840355e-06 -1 0.00035856964 0
0.096594192 -0.42802551 0.92127323 2.2496339e-05 -1 0.00017516542 0
0.1000017 -0.42802551 0.9210391 2.2211383e-05 -1 0.00017506398 0
0.1126053 -0.42802551 0.92412388 3.0892916e-05 -0.99999988 0.00041062894 0
0.12618898 -0.42802551 0.92100906 4.0009614e-05 -0.99999994 0.00039284726 0
0.13037536 -0.42802551 0.92174268 5.2308405e-05 -0.99999994 0.00035510634 0
-0.067563593 -0.42802551 0.93076742 -0.57552058 -0.60493457 0.55030006 0.17681898
-0.018275591 -0.42802554 0.93406439 -0.071797743 -0.97027498 0.23110935 0.086423062
0.066580892 -0.42802551 0.93102908 9.1642386e-07 -1 5.920585e-05 0
0.093216851 -0.42802551 0.9323144 1.0975205e-05 -1 0.00017355324 0
0.1665711 -0.42802554 0.93511462 -4.8177808e-05 -1 -0.00016915904 0
0.13037808 -0.42269844 0.70413142 0.45039326 -0.67285466 -0.58686662 0.12895945
0.1234364 -0.42150378 0.70771402 0.35953227 -0.69920129 -0.61794347 0.12953956
0.1094118 -0.40716618 0.69121623 0.11331154 -0.38672528 -0.91520709 0.09744928
0.10306814 -0.40892088 0.69176185 0.10440449 -0.40512672 -0.90827972 0.095143594
0.061916083 -0.37526497 0.69212663 -0.029373642 -0.18417911 -0.9824537 0.040335398
0.12109971 -0.3946906 0.69184583 0.24493784 -0.25306231 -0.93593001 0.10471817
0.13789003 -0.12511985 0.81177771 0.25488976 0.96610218 -0.040961023 0.030998981
0.065972298 -0.35049352 0.69174546 -0.0036610416 -0.01877187 -0.99981707 0.0045134728
0.084768109 -0.34506163 0.69090277 0.046211652 0.010572216 -0.9988758 0.0063861883
0.10488616 -0.2336406 0.6916129 0.14999796 0.015795255 -0.98856014 0.030886484
0.077598073 -0.40500146 0.69056004 0.0012324655 -0.36019504 -0.93287623 0.063883983
0.01255649 -0.39818248 0.69237244 -0.042674307 -0.37285987 -0.92690587 0.06819284
0.063532054 -0.37102225 0.69070977 -0.024277449 -0.14330433 -0.98938084 0.030374557
0.11086714 -0.37176248 0.69006246 0.18931596 -0.096171021 -0.97719526 0.050488852
0.012495575 -0.32913592 0.69123471 -0.021137649 0.020777892 -0.99956065 0.00037566177
0.10997222 -0.28983554 0.69117308 0.21712361 0.013716824 -0.97604769 0.035012823
0.13312654 -0.38412037 0.69411153 0.35163 -0.16652271 -0.92120922 0.089928478
-0.048103914 -0.24842013 0.70042986 -0.3138932 -0.046930015 -0.94829774 0.02699876
0.13827577 -0.41293773 0.69920653 0.53895795 -0.54428935 -0.64286339 0.13564792
0.07001397 -0.3069241 0.69395447 0.030354263 0.017595356 -0.99938428 0.0032130175
-0.044622134 -0.1245818 0.74457765 -0.30364525 0.91330647 -0.27142379 0.077632554
-0.065134302 -0.19043644 0.70345271 -0.4686836 0.10881994 -0.87663782 0.074785583
0.064311117 -0.3809894 0.69042003 -0.024955187 -0.20589286 -0.97825634 0.042871326
0.03611137 -0.1219807 0.72350281 -0.024796836 0.90017122 -0.43482968 0.055475533
0.088432439 -0.36982423 0.68943352 0.05096544 -0.11001961 -0.99262196 0.033151932
-0.039877281 -0.1222082 0.82648385 -0.2092998 0.9777441 -0.01449401 0.029681075
-0.043539777 -0.36101407 0.69451398 -0.18545611 -0.077480711 -0.97959316 0.02337716
0.13408172 -0.35524395 0.69537044 0.4112784 -0.026828002 -0.91111493 0.051325873
0.11883589 -0.398691 0.69092518 0.23696283 -0.26340783 -0.93512827 0.10380028
-0.062193666 -0.1274492 0.76543194 -0.38850689 0.91483897 -0.11014588 0.062959991
0.090881169 -0.35595766 0.69040978 0.066454522 -0.034898192 -0.99717891 0.016182141
0.087776482 -0.39806557 0.69016689 0.024845477 -0.32142869 -0.94660777 0.067868002
-0.062260374 -0.3118521 0.69895977 -0.43549207 0.03296712 -0.8995887 0.050984427
0.047844663 -0.40068448 0.69202888 -0.034495484 -0.38296065 -0.92312038 0.058273993
0.13007668 -0.29724151 0.69559038 0.34617767 0.018777585 -0.93798101 0.048979826
0.036442697 -0.12289627 0.7150712 -0.018464491 0.83819968 -0.54505074 0.05532103
0.088225134 -0.15511136 0.69751048 0.031386618 0.4293752 -0.90258062 0.061742324
0.10415025 -0.31904447 0.69265336 0.13661602 0.025477897 -0.99029636 0.025023617
0.10501074 -0.12621945 0.70875186 0.21400207 0.71859199 -0.66168624 0.08494398
0.10268801 -0.12367069 0.72180706 0.19159591 0.81666625 -0.54437792 0.087265521
0.11702602 -0.12711357 0.71003646 0.27579024 0.70071 -0.65798569 0.09702985
0.12216245 -0.12157298 0.76584607 0.19212218 0.97821391 -0.07865566 0.026547447
0.052158233 -0.12228275 0.74016869 -0.018282313 0.94003326 -0.34059259 0.04840754
0.038596336 -0.12178433 0.7393043 -0.016167477 0.94147956 -0.33668214 0.05049843
0.089062311 -0.12112397 0.84114206 0.049317293 0.99870431 0.012550567 0.0027572829
0.076469488 -0.1680813 0.69628775 -0.0022858733 0.34090105 -0.94009638 0.041024815
0.070760354 -0.12897244 0.70899361 0.025275968 0.70248622 -0.71124828 0.067658737
0.088861324 -0.12177554 0.81521338 0.044518244 0.99897844 -0.0077566453 0.0039007177
0.046437316 -0.12228269 0.7704041 -0.012846085 0.99894446 -0.044100501 0.0017719162
0.087296061 -0.12297232 0.72748768 0.13501672 0.85608965 -0.49887988 0.085464321
0.097334199 -0.12256536 0.73022294 0.15533206 0.85679591 -0.49170384 0.086733177
0.099815741 -0.13110128 0.70521504 0.15964065 0.66305381 -0.73135108 0.084086306
0.10029581 -0.12174539 0.83887964 0.063039154 0.9978525 0.017790655 0.0028286616
0.11523288 -0.18192701 0.6944012 0.16252103 0.20870709 -0.96437973 0.03980232
0.13338473 -0.14930454 0.7005471 0.37916791 0.46760577 -0.79848391 0.091356374
0.11446167 -0.13819163 0.69790882 0.23389575 0.58105361 -0.77953166 0.090195879
0.11223769 -0.12225683 0.83244246 0.095939673 0.99538487 0.0021437304 0.010794359
0.078378461 -0.211493 0.693887 0.0086874617 0.037458822 -0.99926037 0.006670332
0.025623867 -0.12651633 0.70638376 0.0086659193 0.79764152 -0.6030696 0.05446136
0.033556495 -0.18542825 0.69785345 -0.012432681 0.23101002 -0.97287184 0.019174302
0.016578017 -0.1761018 0.69772089 -0.018303756 0.32425681 -0.94579202 0.035859808
0.085491702 -0.12219032 0.74928081 0.063921481 0.96515942 -0.25373474 0.052355576
0.036976904 -0.12726377 0.70297712 -0.0095540863 0.75810057 -0.65206766 0.052838698
0.11727408 -0.12285768 0.73055613 0.27121624 0.81732178 -0.50835723 0.093350761
0.051061276 -0.16465233 0.69798732 0.0062854998 0.41074196 -0.91172993 0.038402878
0.022936707 -0.38004696 0.69240469 -0.026812397 -0.25026023 -0.96780723 0.049598929
0.069691025 -0.25847164 0.6940788 0.0079891058 0.0069446517 -0.99994397 0.0026266321
0.063439146 -0.30630955 0.69385743 0.013381687 0.018538084 -0.99973863 0.0010830237
0.019265927 -0.40723222 0.69295603 -0.034428678 -0.4892911 -0.87144077 0.075896285
0.090252899 -0.22051111 0.69226462 0.072119065 0.032124575 -0.9968785 0.018933592
0.096092306 -0.33816952 0.6914674 0.088719964 0.034208518 -0.99546897 0.010934715
0.019432513 -0.32583669 0.69197285 -0.016909732 0.024462856 -0.99955773 0.00032069726
0.05580895 -0.26591098 0.69507831 -0.025615336 0.020116067 -0.99946946 0.00027474892
0.06900683 -0.34948343 0.69192463 0.0070646619 -0.010860056 -0.99991608 0.0051603382
0.065298088 -0.33163673 0.69203287 0.017944591 0.029818228 -0.99939424 0.0017403694
0.089523338 -0.32438985 0.69227976 0.058548864 0.026922638 -0.99792147 0.0064767278
0.013472976 -0.36477041 0.69237328 -0.031666782 -0.12738904 -0.99134719 0.021517238
0.019407308 -0.21172124 0.69715732 -0.041664101 0.041896477 -0.99825287 0.00045491286
0.075684108 -0.34096947 0.69171578 0.037278518 0.030042326 -0.99885327 0.0045718695
0.011108641 -0.41533688 0.69419837 -0.065366447 -0.66178131 -0.74684185 0.073634505
0.064016938 -0.24184805 0.6944595 -0.012296329 0.020021114 -0.99972397 0.0013209068
0.042152632 -0.12172381 0.84895349 -0.00099378685 0.99998045 -0.0061790799 0.00032245784
-0.0093923267 -0.1228537 0.73918319 -0.059544552 0.96228927 -0.26543152 0.050752733
0.011036922 -0.12146812 0.84790516 -0.014430464 0.99985969 -0.0085067805 0.0003055975
0.0018263119 -0.12284732 0.73817742 0.0035034565 0.9593628 -0.2821539 0.046802767
-0.052985974 -0.12591581 0.75361574 -0.35400748 0.9075923 -0.2257321 0.078161195
-0.038776282 -0.12216648 0.8500883 -0.23989609 0.97021967 0.033519458 0.043480806
-0.0040006577 -0.12400033 0.72634435 -0.021895101 0.92474532 -0.37995619 0.058876563
-0.036043063 -0.12354432 0.71011364 -0.19184826 0.79672605 -0.57308108 0.088125154
-0.052280918 -0.1257284 0.74066681 -0.37127069 0.87427533 -0.31273106 0.091244265
-0.023798559 -0.12176351 0.84925294 -0.12265817 0.99243295 0.0056411205 0.01824953
-0.0076941629 -0.1225564 0.79123706 -0.072910309 0.99695963 -0.027486539 0.0055937362
-0.070581727 -0.13690777 0.79640466 -0.45525584 0.89036041 -0.0005198326 0.065348096
0.0021332661 -0.12319949 0.76665545 -0.061324187 0.99304813 -0.10047335 0.011663795
0.010474179 -0.12032054 0.86113179 -0.022456679 0.9997139 0.0082372138 0.00072282617
0.0043558935 -0.12290584 0.76981008 -0.048150975 0.99553496 -0.081188709 0.0081082154
-0.062269427 -0.12414267 0.8328191 -0.35665375 0.93410009 0.015974011 0.055522997
0.0084090549 -0.12209007 0.81438226 -0.023491699 0.99952394 -0.020000517 0.00033266749
0.0078941816 -0.12224064 0.78557253 -0.034027673 0.99907482 -0.026296077 0.0005460183
0.00075249828 -0.12602207 0.71222216 -0.0046731192 0.85728264 -0.51482487 0.062963694
-0.062397029 -0.12702613 0.75520462 -0.42528328 0.8870827 -0.17949463 0.075736284
0.0015923224 -0.12153067 0.8311649 -0.034103163 0.99918896 -0.021408539 0.0011259755
-0.062779568 -0.12969306 0.70621437 -0.44267383 0.64366436 -0.62428856 0.10266086
-0.028624721 -0.12197787 0.82989776 -0.14253595 0.9897669 -0.0067073395 0.021121494
0.0093900347 -0.12217807 0.80403876 -0.024747895 0.99950403 -0.019474667 0.00034089072
-0.069944255 -0.1247141 0.85783213 -0.54811007 0.83015484 0.10207055 0.085740015
-0.016801847 -0.12386644 0.78212047 -0.11398173 0.99277383 -0.037525956 0.013074067
0.049030729 -0.12150033 0.84197253 0.0018865176 0.99992043 -0.012471709 0.00020215873
-0.0024204361 -0.26449516 0.69495147 -0.072000496 0.03763698 -0.99669421 0.002142075
-0.018746369 -0.21893436 0.69759619 -0.14680557 0.0043766024 -0.98915571 0.012002199
-0.069857411 -0.39983758 0.6975013 -0.31807747 -0.53601211 -0.78199595 0.10295639
-0.017684735 -0.29470018 0.69377416 -0.10402434 0.037890822 -0.99385267 0.0032323508
-0.037810437 -0.36571053 0.69283801 -0.15032266 -0.11984248 -0.98134643 0.02351797
-0.073641837 -0.20599927 0.71200567 -0.6566956 0.0082724392 -0.75411034 0.073899314
-0.039040647 -0.34342664 0.69401175 -0.16403894 0.022539692 -0.98619634 0.014206092
-0.052259244 -0.37556934 0.69432116 -0.26014292 -0.20165712 -0.94427752 0.059960436
-0.055971973 -0.20938264 0.70126754 -0.32461783 0.020095566 -0.94563174 0.044796366
-0.04293786 -0.23780465 0.69783473 -0.26072678 -0.025504621 -0.96507573 0.024092758
-0.038441889 -0.40104842 0.69494236 -0.19581603 -0.53666914 -0.82075715 0.085421234
-0.060502548 -0.346057 0.69936633 -0.28254041 0.031693868 -0.95873165 0.02749861
-0.063718915 -0.17807007 0.70187628 -0.48182166 0.2048151 -0.8519969 0.090809114
-0.01078378 -0.38726836 0.69215548 -0.058432739 -0.32432479 -0.94413936 0.062987879
-0.072637886 -0.28390068 0.70362204 -0.46740198 -0.025511725 -0.88367671 0.045296531
-0.068372592 -0.16864684 0.70454395 -0.55581665 0.30965281 -0.7714811 0.10678139
-0.063670672 -0.28669077 0.70056295 -0.42217103 -0.006138653 -0.90649545 0.043434866
-0.0043047415 -0.23689884 0.69646984 -0.088531636 0.017417835 -0.99592113 0.0041931304
-0.081820071 -0.27241367 0.74785209 -0.94600391 -0.095852666 -0.30965939 0.041061442
-0.014631633 -0.32220367 0.69232243 -0.079082839 0.030542877 -0.99640006 0.002870485
-0.01395294 -0.34618863 0.69157672 -0.080842368 -0.015831055 -0.9966011 0.0042337826
-0.051027585 -0.31305027 0.69644755 -0.28172618 0.056269519 -0.95784348 0.030262986
-0.073208302 -0.15891396 0.7062518 -0.60145169 0.42760512 -0.67484051 0.10963421
0.007308878 -0.22277543 0.69644856 -0.050180253 0.031155238 -0.99825406 0.00050679233
-0.082187921 -0.23510733 0.73893249 -0.93238986 -0.018324021 -0.3609893 0.063916668
-0.056779236 -0.18073516 0.7014634 -0.35452756 0.17969052 -0.91761732 0.07609497
-0.040915292 -0.25566742 0.69732141 -0.29946327 -0.026125764 -0.95375013 0.02473731
-0.083364427 -0.37092903 0.78920448 -0.98722225 -0.15598713 -0.032561481 0.044374261
-0.078018218 -0.37142029 0.70318091 -0.54377252 -0.13969943 -0.82752377 0.079343617
-0.017149355 -0.2071144 0.69797266 -0.11979685 0.035158612 -0.9921757 0.0088049434
-0.019268267 -0.36748916 0.69257945 -0.099223591 -0.14449188 -0.98451853 0.030340923
-0.030053075 -0.26198679 0.69612414 -0.21783859 0.0093326522 -0.97594023 0.018313289
-0.0054838741 -0.22679605 0.69664073 -0.086170249 0.015445546 -0.99616075 0.0037871413
-0.075609803 -0.29481733 0.9021253 -0.98795283 -0.020403503 0.15340489 0.004517321
-0.042067397 -0.29283255 0.69730014 -0.24144073 0.047475219 -0.96925354 0.018714344
0.15884198 -0.14099099 0.83626944 0.57112342 0.82086414 -0.00033453724 0.080858238
0.016732419 -0.16617294 0.69831038 -0.0014984431 0.40800986 -0.91297632 0.04835229
0.13165154 -0.20884819 0.69546056 0.33851853 0.063942477 -0.93878466 0.048934385
0.029087812 -0.2206791 0.69641906 -0.039086729 0.037383147 -0.99853629 0.00014457684
0.088479407 -0.24464417 0.69212282 0.063382111 -0.0022622242 -0.99798679 0.013353034
0.030119285 -0.2848042 0.69503319 -0.015541148 0.032840516 -0.99933982 0.00029747796
-0.01292763 -0.13488235 0.70433879 -0.071910866 0.68237573 -0.72745591 0.077266112
0.0079524219 -0.12483492 0.71784323 0.013447661 0.89704078 -0.44174311 0.054753225
-0.072611548 -0.14396487 0.81612915 -0.68365037 0.72828907 0.047087848 0.080117509
-0.052362084 -0.13485946 0.70689869 -0.37829402 0.63430291 -0.67420584 0.10937537
-0.046204217 -0.12413606 0.79525149 -0.25675875 0.96636152 -0.014842948 0.043622948
-0.0031666984 -0.32486051 0.69109285 -0.029982857 0.023584217 -0.99927223 0.00082070119
-0.036464721 -0.18869878 0.69913447 -0.19443303 0.13400836 -0.97171885 0.034001797
0.09294264 -0.17167933 0.69520789 0.076323509 0.28993741 -0.95399743 0.04430186
-0.020884709 -0.16706499 0.69820309 -0.12734257 0.33307317 -0.93426245 0.060825065
-0.019697787 -0.12090576 0.86731976 -0.11874811 0.99157488 0.051751144 0.022142984
-0.037814531 -0.38315016 0.69312102 -0.18861173 -0.26643279 -0.94521916 0.060964037
0.12450223 -0.22110444 0.69403052 0.31210867 0.051862068 -0.9486298 0.047499996
-0.072653577 -0.13199118 0.74387062 -0.6171869 0.73076099 -0.29166549 0.10149638
-0.063922487 -0.20008592 0.70422524 -0.45669296 0.043395124 -0.88856542 0.065656029
0.025274744 -0.12264723 0.7288782 -0.013003886 0.92233241 -0.38617837 0.051338863
-0.079267301 -0.19726297 0.7179513 -0.81598228 0.057339385 -0.57522613 0.083765194
0.049399815 -0.13282309 0.6994161 0.0020918695 0.61944771 -0.78503513 0.051543843
-0.068364978 -0.12652943 0.80530673 -0.38244539 0.92378265 -0.019006174 0.061435934
0.096878454 -0.20876999 0.69287562 0.077075638 0.043341868 -0.99608278 0.019009508
-0.029424002 -0.15396415 0.69983369 -0.16475374 0.41480234 -0.89487159 0.080628298
0.13361731 -0.13304779 0.70261276 0.37115103 0.60700613 -0.70270228 0.10397996
-0.083240747 -0.33750901 0.75497651 -0.98433554 -0.087233052 -0.15321194 0.018148448
0.038141869 -0.19566952 0.69688541 -0.030029474 0.11982469 -0.9923408 0.0054839202
0.002793927 -0.1417318 0.70344853 -0.018636873 0.6317004 -0.77498859 0.061116286
-0.024988998 -0.12856469 0.70655268 -0.16044407 0.76999152 -0.61755222 0.084982626
-0.054208957 -0.12566341 0.77707112 -0.31537777 0.94875968 -0.019798469 0.043812267
0.018750081 -0.29642898 0.69525343 -0.013135191 0.035014618 -0.99930042 0.00028774809
-0.069955848 -0.12418679 0.84000683 -0.45410764 0.89057016 0.02590514 0.064460099
-0.076436833 -0.20986323 0.86316395 -0.99215257 0.071901336 0.10229096 0.0067785466
-0.0085500116 -0.15047491 0.70073617 -0.054658543 0.49423081 -0.86761069 0.072159201
0.043434087 -0.126076 0.69558048 -0.011449913 0.68184948 -0.73140287 0.044642296
0.085550785 -0.15117991 0.6999467 0.032426957 0.46161988 -0.88648498 0.064209126
-0.037144259 -0.12653647 0.72185344 -0.2215061 0.84679556 -0.48360351 0.088132046
-0.024853947 -0.15067735 0.6997686 -0.12963934 0.4790872 -0.86814117 0.080809146
-0.021935949 -0.17152914 0.69853497 -0.13777967 0.31066799 -0.9404797 0.057995673
-0.025621112 -0.14044212 0.7020328 -0.17051704 0.60090762 -0.7809186 0.089109801
-0.03830776 -0.12445346 0.75404954 -0.21919797 0.95507264 -0.19947052 0.057513416
0.043182347 -0.15989222 0.69929516 0.0095825829 0.45853072 -0.88862693 0.043092061
0.01287442 -0.12233247 0.75368017 -0.05587456 0.9776997 -0.20243879 0.034956366
0.0020628604 -0.13086703 0.70595849 -0.0092107048 0.75139755 -0.65978551 0.071362257
0.0083325403 -0.18199416 0.69796938 -0.036457501 0.23380584 -0.97159964 0.023192842
0.081944674 -0.12537992 0.72376788 0.12625231 0.84709448 -0.51622802 0.08267156
0.11087251 -0.22338243 0.69272476 0.16335015 0.029317087 -0.9861325 0.028573191
-0.015672509 -0.12275685 0.8008045 -0.10167743 0.994317 -0.031551011 0.013495212
-0.081058107 -0.25916639 0.84332716 -0.99836987 0.022157906 0.052598126 0.00024508219
-0.0061828285 -0.30201182 0.69333899 -0.056829076 0.037102278 -0.99769425 0.0019117171
0.1260187 -0.12216654 0.77097058 0.21315615 0.97427326 -0.073184602 0.025629409
-0.039833326 -0.1218719 0.86580324 -0.28556994 0.95598447 0.067405649 0.05515825
-0.066657923 -0.13206334 0.71201181 -0.48182845 0.64681011 -0.59116662 0.1072243
0.09667629 -0.18778956 0.69397795 0.086172149 0.19880764 -0.97624278 0.033594284
-0.029440381 -0.12139542 0.87825215 -0.20668235 0.97217649 0.11025169 0.050173167
-0.077083588 -0.27768254 0.70540428 -0.49256998 -0.040511951 -0.86932945 0.040672701
-0.076934434 -0.2097185 0.85492504 -0.99486089 0.067328282 0.075621963 0.0023316583
-0.078774348 -0.32623398 0.87883461 -0.98933041 -0.016743714 0.14472379 0.011792183
-0.080902934 -0.20148362 0.72909468 -0.86197978 0.028941358 -0.50611585 0.07541959
-0.060082082 -0.12940945 0.7033096 -0.42040229 0.65017116 -0.63288188 0.1006701
0.063586496 -0.17108631 0.6964705 -0.0038295365 0.3372401 -0.9414109 0.036153998
0.049755462 -0.33565092 0.69264239 -0.012679784 0.015987316 -0.9997918 0.00053466269
0.13276574 -0.24247076 0.69774979 0.49108216 0.020756878 -0.87086588 0.066693395
0.080402568 -0.16190335 0.69728595 0.0043772096 0.39481372 -0.9187507 0.051685024
-0.074113213 -0.17516267 0.87308884 -0.92015743 0.35149515 0.17251521 0.056842584
-0.066668443 -0.12998912 0.71814579 -0.49227127 0.7054047 -0.50997382 0.10821184
-0.080887496 -0.19553724 0.76916283 -0.98712409 0.11954374 -0.10627965 0.024390569
-0.0727752 -0.15618439 0.71044666 -0.61672217 0.49734682 -0.61016381 0.11489376
-0.076626934 -0.17070054 0.78886139 -0.89807165 0.43632278 0.055585764 0.063897006
-0.07645344 -0.16642427 0.77782285 -0.9073326 0.42024314 -0.011967144 0.063305631
-0.079073653 -0.21977983 0.83416557 -0.9973067 0.056657325 0.046574313 0.00034841403
-0.073814541 -0.14823923 0.76636541 -0.73889083 0.66091233 -0.13128302 0.084608361
-0.079100579 -0.30182639 0.86846036 -0.99423522 -0.0011337318 0.10721474 0.0045927726
0.028987342 -0.34489855 0.69177997 -0.012887551 -0.0049776891 -0.99990457 0.00099110568
-0.078159541 -0.19012579 0.79577076 -0.98241442 0.18505391 0.024838094 0.017211866
-0.085865378 -0.37189487 0.8288303 -0.98866212 -0.14819792 0.024179032 0.035917103
-0.085792519 -0.32372278 0.77353543 -0.99950832 0.010666288 -0.029485367 0.0035907952
-0.074824169 -0.15758957 0.81235528 -0.81779999 0.57177782 0.065371148 0.077813096
0.098696254 -0.19989443 0.69319111 0.10709977 0.097879402 -0.98941869 0.022439895
0.13539173 -0.39213952 0.6934557 0.38869339 -0.20843251 -0.89748174 0.099916786
-0.013475441 -0.1288604 0.70805979 -0.087430574 0.75839913 -0.64590001 0.076868862
-0.078265682 -0.27569944 0.71161032 -0.64877963 -0.092483021 -0.75533563 0.061299428
-0.079903364 -0.34495154 0.710473 -0.59402061 0.044284027 -0.80323005 0.060288694
-0.077008314 -0.20298307 0.84770453 -0.99591005 0.061811965 0.065896876 0.002079586
-0.076653093 -0.34955707 0.89334548 -0.98465836 -0.0093876002 0.17424075 0.010976378
-0.077093109 -0.21827288 0.86428148 -0.99195957 0.066298127 0.10779925 0.0065143728
-0.080820099 -0.23896313 0.81671423 -0.99859893 0.03150085 0.0425185 0.00024509116
0.043649442 -0.12171397 0.76588058 -0.019364024 0.99761152 -0.066304363 0.0042858734
-0.08101517 -0.25557861 0.81173217 -0.99881554 0.023960801 0.042347196 0.00023782424
-0.077781633 -0.1896826 0.80588764 -0.97817051 0.20194471 0.048998035 0.021710474
0.084247626 -0.12220068 0.73768216 0.081247158 0.92983937 -0.35888386 0.070701599
0.0841396 -0.12223322 0.73672247 0.089120023 0.92438644 -0.37090066 0.072222769
0.05929292 -0.12220149 0.75355601 0.01526419 0.97882527 -0.20412777 0.029452758
0.14359432 -0.12559921 0.80029142 0.29209533 0.95467311 -0.057267521 0.031650022
0.10279663 -0.12217726 0.78826892 0.088180445 0.99574143 -0.026893688 0.01170073
0.11922016 -0.25947022 0.69225907 0.28890225 -0.020549739 -0.95713806 0.044119086
-0.0037154795 -0.2610347 0.69522464 -0.072748527 0.036913026 -0.99666697 0.0021086498
0.1259027 -0.26692516 0.6933409 0.37133086 0.021074286 -0.9282614 0.059749976
0.087783299 -0.413277 0.68858188 0.03065272 -0.42370504 -0.90528136 0.074580468
0.034208786 -0.40602931 0.69402438 -0.038567849 -0.47380766 -0.87978333 0.067880459
-0.063071631 -0.12656829 0.73918688 -0.45256799 0.82817185 -0.33062595 0.099164031
0.059299104 -0.12064759 0.86115134 0.013229291 0.99964052 0.023320291 0.0019844803
-0.0004798428 -0.12247483 0.91531318 -0.068254322 0.98519623 0.15725704 0.021926116
0.071965039 -0.12245212 0.78367388 0.011074801 0.99966466 -0.023407141 0.0009837579
0.058566093 -0.12003415 0.89721322 0.035936683 0.99362397 0.10686455 0.0072921417
-0.015246836 -0.12270544 0.80708516 -0.086721234 0.99574018 -0.031319916 0.0092144841
-0.023874737 -0.12402508 0.77487445 -0.11525124 0.99150985 -0.060210735 0.014823922
0.03730369 -0.12223263 0.77750021 -0.011851137 0.99939805 -0.032605242 0.00091942307
0.013902468 -0.12206741 0.91709626 -0.034420878 0.99367386 0.10689859 0.013626806
0.0036720883 -0.12286316 0.75552589 -0.045382041 0.98158967 -0.18553203 0.031297833
0.064433761 -0.12012784 0.86511618 0.02294369 0.99837291 0.052202247 0.0050002057
-0.067353904 -0.12858482 0.72594577 -0.52040935 0.72746015 -0.4471865 0.10783861
-0.076657563 -0.18194743 0.83750063 -0.95820796 0.27633333 0.074009083 0.039470945
-0.079486355 -0.31039971 0.82012379 -0.99891382 0.027380122 0.037702892 0.00086094352
-0.079963483 -0.1913389 0.77237469 -0.98448735 0.14727756 -0.095362 0.027582323
-0.081390589 -0.30982167 0.79912066 -0.99910307 0.026565127 0.032974571 0.00098202971
-0.082172841 -0.28600135 0.798132 -0.99939084 0.0074010426 0.034105748 0.00038760671
-0.022394523 -0.12097455 0.88134378 -0.17638779 0.97738856 0.11661463 0.045280199
-0.074287139 -0.1522757 0.72529703 -0.67130482 0.54511857 -0.50219083 0.11229614
-0.078470245 -0.29754505 0.88329083 -0.9926725 -0.017205553 0.11960457 0.0045565227
-0.077464931 -0.24135758 0.72157961 -0.73553413 -0.096910901 -0.67052048 0.083865844
0.13517062 -0.15199131 0.69977683 0.39836574 0.45463628 -0.79662454 0.090161063
0.0067029633 -0.41476977 0.69335067 -0.044030484 -0.65885258 -0.7509824 0.073522098
0.001842189 -0.39485988 0.69167632 -0.044868335 -0.32660413 -0.94409561 0.060601249
-0.071687326 -0.1385791 0.79218167 -0.45474568 0.8906039 0.0055655828 0.063887313
0.08171156 -0.12065072 0.85874033 0.050755724 0.99710172 0.056675453 0.0064025084
-0.082163349 -0.39646256 0.80207908 -0.91744214 -0.39623424 -0.036033165 0.10596208
0.0079041114 -0.166235 0.69893068 -0.001516395 0.3637085 -0.93151158 0.046827476
0.025335662 -0.37685594 0.69217241 -0.033484489 -0.23174021 -0.97220129 0.04394225
0.033564217 -0.12027558 0.86515242 -0.00018899732 0.99997598 0.0069301841 0.00099771691
0.013493397 -0.27083778 0.69397837 -0.02806041 0.036124401 -0.99895322 0.00039036694
-0.076186709 -0.19275315 0.85093272 -0.98470801 0.15592621 0.077699989 0.015195507
-0.057098363 -0.22576331 0.70306015 -0.35848844 -0.029117152 -0.9330799 0.048192829
-0.079872586 -0.32435668 0.86240315 -0.99329031 -0.0023412779 0.11562405 0.0061677592
0.017524211 -0.27925876 0.6940273 -0.02380204 0.038627602 -0.99897021 0.00041500904
-0.075358793 -0.12955974 0.85527706 -0.70991498 0.69765997 0.096391454 0.082789488
-0.075190589 -0.13296938 0.77044529 -0.5487197 0.83356273 -0.063873827 0.068675429
-0.073247425 -0.14637668 0.80770183 -0.71596348 0.69603002 0.054208398 0.079687774
-0.074352831 -0.13090612 0.76343596 -0.5473038 0.8294453 -0.11170978 0.074780054
-0.006209895 -0.26768467 0.69481117 -0.071585394 0.040805902 -0.99659938 0.0022412592
-0.075602122 -0.23806265 0.90194005 -0.98969215 0.051696043 0.13355531 0.0061645438
-0.075646423 -0.2740252 0.90023595 -0.98883218 0.011392646 0.14859678 0.0051142271
-0.077503823 -0.26207173 0.71044952 -0.56273401 -0.096328825 -0.82100612 0.063882619
-0.0762356 -0.166684 0.82826364 -0.90724844 0.41250288 0.082107402 0.064004026
0.037850011 -0.12212516 0.8024826 -0.0092317751 0.99986774 -0.01338903 9.4257295e-05
-0.083717138 -0.37164891 0.79803115 -0.98570472 -0.16744423 -0.01867559 0.042802092
0.13712539 -0.26378906 0.69593513 0.55786967 0.018628994 -0.82971948 0.079652578
-0.074582018 -0.1489082 0.73396254 -0.69825858 0.57880431 -0.42121303 0.10926201
0.12690455 -0.13127248 0.71100062 0.43129557 0.64136523 -0.63453501 0.097532965
0.11958482 -0.12318714 0.86145878 0.14821999 0.98271519 0.11091267 0.025614062
0.0080495821 -0.12036861 0.8626129 -0.025855104 0.99961895 0.0096660759 0.0010504921
0.051330119 -0.12140758 0.85065061 0.0041259276 0.99998838 -0.0025030943 0.00050302438
-0.076368645 -0.31915972 0.89510643 -0.98725998 -0.023092952 0.15743053 0.012823879
-0.07989841 -0.32651356 0.8631646 -0.99309099 0.00065099326 0.1173454 0.0061470708
-0.081608951 -0.35333651 0.86092508 -0.98945421 -0.029224006 0.14186716 0.010665294
-0.078255489 -0.37728012 0.88937086 -0.95056802 -0.19803831 0.23916776 0.057810031
-0.078831136 -0.32643086 0.8761369 -0.99005336 -0.015594791 0.13982548 0.011662712
-0.046108685 -0.12533185 0.74262857 -0.31433469 0.90890074 -0.27403125 0.080777146
-0.076101825 -0.29592735 0.89951497 -0.98845035 -0.020892428 0.15009795 0.00446642
0.046548847 -0.12182189 0.74671763 -0.019834446 0.95855528 -0.28421551 0.04071369
-0.068945847 -0.13095526 0.78103054 -0.403954 0.91477567 -0.0025723171 0.052445449
-0.074269749 -0.18000475 0.88134634 -0.93400031 0.30645666 0.18365154 0.047629543
-0.075485289 -0.19953157 0.87157595 -0.98809785 0.095316738 0.1207367 0.0071952082
-0.070933305 -0.13090767 0.74480575 -0.57676971 0.76787549 -0.27875429 0.1001674
-0.073974937 -0.30607626 0.91258597 -0.97785527 -0.038875125 0.20564015 0.010434846
-0.057637505 -0.12575534 0.77641183 -0.32661462 0.94494677 -0.019962465 0.045529094
0.072512746 -0.12010261 0.86608237 0.042832866 0.99715441 0.062036131 0.0059542572
-0.040533334 -0.12436149 0.90203512 -0.35710257 0.91022342 0.20969281 0.096099667
0.040276937 -0.12378686 0.71445113 -0.01925827 0.83679211 -0.54718202 0.054942846
0.00049293204 -0.1265713 0.71369344 -0.010300959 0.86576229 -0.5003494 0.063451126
-0.069092117 -0.18374902 0.90950668 -0.93072563 0.23043899 0.28398532 0.03510746
0.13990781 -0.13287966 0.88509881 0.34043676 0.90953416 0.23843308 0.089169174
-0.068014942 -0.14642358 0.89336765 -0.86979085 0.4705919 0.14834796 0.080393739
0.13145827 -0.13374293 0.72035265 0.47797397 0.65086818 -0.58984023 0.098974325
-0.070118256 -0.13512291 0.7961278 -0.43625212 0.89980352 -0.0061261998 0.065265864
-0.074601382 -0.16511178 0.77988869 -0.88644141 0.46283731 0.0017655325 0.064842343
-0.062192865 -0.12489168 0.81131005 -0.34049624 0.94001979 -0.020621516 0.055756856
-0.077367157 -0.38096902 0.89369315 -0.93847567 -0.22778396 0.25957236 0.070074975
-0.079736359 -0.33758491 0.87936455 -0.98887247 -0.011941859 0.14828588 0.012440971
0.10780805 -0.12950584 0.91492766 0.19889128 0.92140841 0.3338396 0.076439098
-0.077749081 -0.30411109 0.88925219 -0.99266672 -0.012558288 0.12022951 0.0049303649
0.056467969 -0.12506053 0.71010262 -0.015855333 0.79350674 -0.60835475 0.065184787
-0.080475882 -0.32601479 0.80171335 -0.9986124 0.03916138 0.035209808 0.0014947322
-0.07289958 -0.32360914 0.90582418 -0.98339009 -0.027091457 0.1794714 0.0138289
-0.078457035 -0.18941927 0.78110605 -0.98421651 0.1736926 -0.033892561 0.018652366
-0.075879827 -0.13773042 0.74097353 -0.67379731 0.66003847 -0.33218426 0.10352053
0.11913244 -0.12229797 0.82675135 0.10865089 0.99407411 0.0034170432 0.012238597
-0.018333467 -0.12981902 0.7105372 -0.12582439 0.76935804 -0.62630373 0.081211358
-0.074347287 -0.18060477 0.8742221 -0.94612616 0.28737903 0.14919341 0.042342059
-0.078939818 -0.30201942 0.8661319 -0.99446738 0.0049921745 0.10492707 0.004605602
-0.078756377 -0.29719907 0.86222786 -0.99630857 0.0066540907 0.085585736 0.0020747003
-0.075400166 -0.23769158 0.90430117 -0.98931128 0.053062513 0.13582143 0.0062668473
-0.07267189 -0.22077431 0.90981299 -0.9867062 0.066747308 0.14817473 0.0070518069
-0.072853722 -0.22005919 0.9077065 -0.9877153 0.066880815 0.14122827 0.0067473184
-0.074386187 -0.3570157 0.90187609 -0.97800529 -0.063968517 0.19852886 0.017143076
-0.074825659 -0.30319986 0.90583128 -0.98254031 -0.035002872 0.18272749 0.0099230204
-0.078429572 -0.29498222 0.8837834 -0.99294996 -0.012510974 0.11787234 0.0039645699
0.041466378 -0.12112379 0.89212888 0.020659614 0.99773109 0.06407629 0.0053686574
-0.069703422 -0.13483503 0.71431345 -0.52002567 0.62827384 -0.57865804 0.10621196
0.024541866 -0.12242927 0.80346823 -0.014611563 0.99976856 -0.015790381 0.00026194082
-0.051923241 -0.1267809 0.76553595 -0.32996786 0.93872833 -0.099550091 0.056968205
-0.056253426 -0.13094543 0.90294302 -0.59011233 0.77634972 0.22146907 0.11422006
-0.079251304 -0.2385022 0.72325039 -0.77508491 -0.090167984 -0.62539047 0.084854305
-0.079560973 -0.31763518 0.83058655 -0.99794579 0.033622034 0.054531787 0.0013968695
-0.070113152 -0.15115766 0.88274264 -0.88881969 0.43360698 0.14827177 0.072931468
0.12973659 -0.12432362 0.85766226 0.21191616 0.97024101 0.11714961 0.036752652
-0.022502514 -0.12270477 0.81468046 -0.12195931 0.99196941 -0.033506721 0.016882775
-0.074841663 -0.16398753 0.78929001 -0.83221036 0.55182797 0.05396121 0.074424133
0.050017942 -0.12234879 0.78963244 -0.0078514079 0.99988878 -0.01268149 9.5708674e-05
-0.078104772 -0.3344498 0.8854804 -0.98742747 -0.018769559 0.15695426 0.01220327
-0.071254671 -0.38467363 0.91282147 -0.88509274 -0.22907017 0.40513927 0.081873916
0.056236342 -0.12052245 0.86443442 0.013146237 0.99961716 0.024343478 0.0018424332
-0.08027786 -0.33975726 0.87163228 -0.98904437 -0.0042016609 0.14755856 0.012586871
-0.018653976 -0.12102582 0.88155431 -0.13047349 0.98688084 0.095093712 0.030838231
-0.080405489 -0.33096802 0.82740182 -0.99800843 0.029965101 0.0555089 0.00164755
0.07499548 -0.11978178 0.8866753 0.053185638 0.99278474 0.10746942 0.0082341218
-0.073199309 -0.15406683 0.7672348 -0.78726095 0.60035229 -0.14070337 0.086731307
-0.068500847 -0.13525493 0.89081144 -0.81937182 0.55528069 0.14245407 0.087441154
-0.058606476 -0.12865491 0.70884067 -0.40585783 0.69545448 -0.59297758 0.10429539
-0.040980127 -0.12777136 0.71061814 -0.24240053 0.75277227 -0.61202615 0.097730331
-0.073037043 -0.14433059 0.72497445 -0.63313514 0.59221238 -0.49842191 0.1126632
-0.071874857 -0.20179795 0.709553 -0.62456149 0.023789058 -0.7806133 0.076614119
-0.07884714 -0.20189962 0.73223698 -0.86522782 0.028113073 -0.50059009 0.077085793
-0.07507661 -0.18127623 0.86737919 -0.95069802 0.27650037 0.14043085 0.039286204
-0.079049803 -0.24003616 0.72278333 -0.77508491 -0.090167984 -0.62539047 0.084854305
-0.04733514 -0.12304253 0.88347894 -0.31493068 0.94251603 0.11172456 0.068762004
-0.079725549 -0.30910465 0.81581485 -0.99893397 0.02793452 0.036749922 0.00083919306
-0.052190892 -0.12432988 0.88560045 -0.42399377 0.89726985 0.12302905 0.09077327
0.10977317 -0.12267512 0.73964006 0.21791883 0.90092129 -0.375303 0.078403138
-0.079591513 -0.18550321 0.76720232 -0.98367751 0.1516571 -0.096842982 0.03388568
0.085217312 -0.12234846 0.7486937 0.065045655 0.96523583 -0.253158 0.05172484
-0.075666837 -0.20618007 0.87383801 -0.99096388 0.066839293 0.11628865 0.0061882325
-0.080670327 -0.38168225 0.87511343 -0.95888871 -0.23639269 0.15700583 0.068300627
-0.079436637 -0.19864225 0.71827048 -0.81771559 0.034916125 -0.57456249 0.081319556
-0.065853059 -0.1295677 0.88914865 -0.68217182 0.71147937 0.16863795 0.09989845
-0.075202078 -0.21351141 0.87955278 -0.98955864 0.074845426 0.12317374 0.0072875232
0.037486751 -0.12188715 0.7550835 -0.022557892 0.98598498 -0.16530184 0.023194712
-0.075187817 -0.26224443 0.91105348 -0.99303764 0.03509587 0.11244807 0.0024871703
0.039165858 -0.12681267 0.70205188 -0.020486085 0.74875689 -0.66252804 0.050210059
-0.071082145 -0.1309247 0.87121254 -0.72827482 0.66916764 0.14775154 0.09211161
0.0092311986 -0.12144449 0.8475613 -0.015793189 0.99983364 -0.0091176927 0.00031041328
0.11892808 -0.12157775 0.78248304 0.15826795 0.98660362 -0.039555855 0.019239713
-0.033514373 -0.12171038 0.85212666 -0.21245359 0.97674668 0.028800545 0.039513696
0.012501519 -0.12262253 0.73879892 -0.025202304 0.9544614 -0.29726812 0.049818188
-0.063216999 -0.14524971 0.91720814 -0.81231678 0.50494403 0.2918438 0.096489012
-0.0055819578 -0.12252042 0.80962026 -0.054138947 0.99827802 -0.022581639 0.0029996999
0.031393971 -0.1285546 0.92622423 0.028579362 0.99138165 0.12784988 0.0076303789
0.14299664 -0.12849748 0.83674651 0.25042319 0.96728492 0.040597614 0.028617337
0.091733351 -0.12199648 0.73677671 0.13333003 0.90903372 -0.39481732 0.075950325
-0.066288583 -0.1320834 0.71092224 -0.48299742 0.64299291 -0.59436816 0.10611976
-0.040214781 -0.12452219 0.90335542 -0.3570964 0.90933335 0.21352971 0.09674722
0.13283239 -0.12488148 0.77433419 0.28150597 0.95700401 -0.069983445 0.026222844
-0.027073467 -0.1220885 0.82702976 -0.14223267 0.98977125 -0.011083549 0.021676974
-0.032468162 -0.12810758 0.92866552 -0.32384074 0.83879429 0.4376657 0.089689106
-0.07320638 -0.15403967 0.76714069 -0.78577721 0.60197306 -0.14206533 0.086612314
0.0848253 -0.12189629 0.81551331 0.028497064 0.99958277 -0.0047068405 0.0010158167
0.12290743 -0.12215215 0.79918015 0.19335113 0.98025703 -0.041370723 0.023216646
0.030141123 -0.12854454 0.7037794 0.0030922024 0.74738216 -0.66438717 0.054030217
-0.021220904 -0.12098059 0.86573011 -0.12706161 0.99054557 0.05171809 0.025048951
0.1031946 -0.12201326 0.74666142 0.13630442 0.9541772 -0.26639643 0.059139155
0.093822643 -0.12702364 0.91203058 0.14354531 0.94946241 0.2791343 0.055082943
-0.049080983 -0.12332845 0.86657858 -0.3540903 0.93116385 0.086913683 0.069119632
-0.076238602 -0.2065154 0.86001235 -0.99317104 0.06557034 0.096497215 0.0059401593
-0.076756984 -0.20887342 0.85621578 -0.99517483 0.063214771 0.075039648 0.0022668289
-0.082828686 -0.20414561 0.72700256 -0.85022908 0.015187957 -0.5261938 0.077937827
-0.08009211 -0.32200512 0.80595052 -0.9987154 0.037128631 0.03448379 0.0013695033
-0.076492406 -0.22731031 0.8770383 -0.99203932 0.05350494 0.11399668 0.0054841251
-0.081502117 -0.35133207 0.86202383 -0.98912668 -0.025901005 0.14476731 0.010967356
-0.080999956 -0.33016723 0.77197242 -0.99828833 -0.00077131757 -0.058478516 0.0062869503
-0.081261985 -0.3429755 0.83177716 -0.99776518 0.037995044 0.054964371 0.0019148097
-0.076272227 -0.22307537 0.87512964 -0.99208844 0.057854954 0.11141496 0.005690936
-0.07323011 -0.20616066 0.71170706 -0.65542245 0.0070071076 -0.75522995 0.074122779
-0.074450627 -0.17079163 0.85458267 -0.92242104 0.36734664 0.11914692 0.054474894
-0.077856928 -0.18344454 0.77794415 -0.97910845 0.19263713 -0.065097548 0.026263651
0.10431851 -0.12181816 0.85828394 0.10526685 0.9915446 0.075882219 0.010600671
-0.080358811 -0.30272353 0.81401753 -0.99900693 0.026796196 0.035596531 0.00083151215
-0.073448054 -0.15596163 0.71265209 -0.62124753 0.49749774 -0.60543168 0.11458085
-0.078716852 -0.2947799 0.87827349 -0.99395788 -0.013460346 0.10893372 0.0042694951
-0.036611669 -0.12181132 0.83968478 -0.19351862 0.98103523 0.010971632 0.032403219
-0.075093545 -0.16021998 0.75672972 -0.81487441 0.51942652 -0.25724652 0.092899777
-0.037291836 -0.3633607 0.92607605 -0.74506748 -0.15111801 0.64964432 0.072833113
-0.051744677 -0.12486318 0.78325593 -0.29853985 0.95430249 -0.013445242 0.041936409
0.056181051 -0.12259822 0.77560872 -0.0016683365 0.9994266 -0.033816956 0.0011032702
0.011328124 -0.12141871 0.83716238 -0.015293718 0.99974769 -0.016454557 0.00013879714
-0.071223304 -0.14240503 0.71515965 -0.60086584 0.57219177 -0.55817276 0.11267263
-0.075142756 -0.20239896 0.87476581 -0.98885512 0.083910547 0.12298189 0.006461428
0.099369802 -0.12179758 0.74736786 0.11478083 0.96371537 -0.24099362 0.053747099
-0.077073894 -0.22092766 0.85914534 -0.9951427 0.052846894 0.083055176 0.0022649874
0.12820315 -0.12473594 0.75962216 0.2571685 0.95765728 -0.12944838 0.043100234
-0.068251044 -0.12793179 0.87988359 -0.66618866 0.73022288 0.15154925 0.09500213
-0.067960173 -0.12935789 0.73365116 -0.54035074 0.74303979 -0.39485815 0.10706245
-0.075745992 -0.19402504 0.85778463 -0.98588109 0.14118676 0.090026975 0.013403755
-0.074674234 -0.25994101 0.71517903 -0.52637774 -0.11661991 -0.84221506 0.062603951
0.13675101 -0.13063674 0.71155238 0.45880467 0.63450021 -0.62201923 0.10244443
-0.061707839 -0.12451991 0.79254895 -0.35180944 0.93601114 -0.01063359 0.056057081
0.066572577 -0.14139292 0.92973065 0.14203611 0.9246332 0.35338238 0.06579715
0.036842149 -0.12191568 0.83362156 -0.0038808754 0.99986845 -0.01574637 0.00014169911
-0.072235964 -0.13314083 0.86062741 -0.71137255 0.69484675 0.10553253 0.090051442
-0.072113536 -0.15377684 0.77762043 -0.73534131 0.67727274 -0.023976637 0.07543838
-0.079106763 -0.30033371 0.85358453 -0.99730712 0.025320863 0.0688283 0.0010775538
0.042868346 -0.12270686 0.72676438 -0.014632057 0.90706491 -0.42073634 0.056813769
-0.074646115 -0.31460938 0.90254682 -0.98445863 -0.033244371 0.17244127 0.011035775
-0.071780771 -0.13207151 0.72567117 -0.57175446 0.68948323 -0.44464552 0.10842711
-0.07029888 -0.13908659 0.87897956 -0.8083027 0.56716269 0.15802924 0.089487948
-0.075583182 -0.2219826 0.88633728 -0.98959929 0.059891608 0.13079073 0.0060318671
-0.079990096 -0.3741509 0.78103983 -0.97964388 -0.19968961 -0.020540826 0.057984818
-0.067825042 -0.28709778 0.9308579 -0.97960097 -0.033272285 0.19817905 0.0050698877
-0.024530375 -0.12153576 0.91109538 -0.17086579 0.96436566 0.20199957 0.047233626
-0.074171513 -0.35342866 0.90192932 -0.98049152 -0.027347662 0.1946499 0.011233241
0.039650757 -0.12468439 0.91245878 0.030053135 0.99502075 0.095029175 0.0068721902
0.077106632 -0.1255164 0.71613723 0.095949151 0.82195687 -0.56140959 0.073696584
-0.069634117 -0.12631196 0.810193 -0.4170911 0.90884793 -0.0055170697 0.060794134
0.055275444 -0.13348964 0.70450294 0.006338811 0.6497044 -0.76016051 0.060983952
-0.021456465 -0.1218524 0.83617067 -0.10623598 0.9943381 -0.0023571716 0.012547157
0.012418292 -0.12139055 0.84356272 -0.014130029 0.99982274 -0.012444112 0.00021933946
0.077028759 -0.16630791 0.69641137 0.00044481122 0.34487715 -0.93864781 0.041929089
0.0022905883 -0.14157231 0.70234072 -0.021846956 0.62828207 -0.77767879 0.061089344
0.091521397 -0.17029758 0.69516355 0.078396738 0.3052955 -0.94902509 0.046801932
0.095892355 -0.20640226 0.69297719 0.073919222 0.049144309 -0.9960525 0.019315951
-0.042097356 -0.12292111 0.81701362 -0.22311929 0.97454631 -0.021847472 0.034396525
0.088075928 -0.15380789 0.69736522 0.03379868 0.42896545 -0.90268832 0.06144293
0.077380978 -0.15807451 0.69727677 0.0093737319 0.4147028 -0.90990865 0.050121199
-0.020184427 -0.12123965 0.85717899 -0.11928379 0.992733 0.01589299 0.019647915
0.090902105 -0.18822856 0.69384974 0.056727722 0.19739257 -0.97868186 0.027197339
0.10267109 -0.23462489 0.69147921 0.14721076 0.012552481 -0.98902547 0.030191958
0.097692929 -0.18866529 0.69382894 0.10231493 0.18611355 -0.9771865 0.035066109
0.12274709 -0.23907547 0.69344789 0.3036347 0.0061729369 -0.9527685 0.056342673
0.10235826 -0.2142314 0.69271392 0.098826505 0.031524204 -0.99460524 0.022978043
0.096492402 -0.22691008 0.69170791 0.086223938 0.02392005 -0.99598867 0.021344718
0.086090684 -0.12162878 0.82210141 0.030367566 0.99952477 -0.0052912799 0.0010966971
0.083240122 -0.12227015 0.75030321 0.051078197 0.96852309 -0.24362707 0.048647944
-0.033225309 -0.12115844 0.86024517 -0.23010901 0.97214377 0.044568066 0.044287905
0.0027959973 -0.12187165 0.82300735 -0.034299664 0.99914032 -0.023285406 0.00104277
0.040440999 -0.12177254 0.84261775 -0.0017445431 0.99994707 -0.010146825 0.00025220585
0.11498277 -0.1277246 0.7063815 0.24129421 0.67719525 -0.69511425 0.091739304
-0.042003784 -0.12473526 0.75010109 -0.27313727 0.9333443 -0.23294722 0.070625521
0.11880911 -0.25714481 0.6920957 0.26042086 -0.018966163 -0.9653089 0.041213367
0.10025114 -0.40267485 0.68877476 0.075056247 -0.33203331 -0.94027674 0.082234077
0.10448882 -0.31819442 0.69272822 0.14484845 0.025828892 -0.98911673 0.02605086
0.11717422 -0.40372559 0.6911087 0.17810449 -0.33648828 -0.92469156 0.10830048
0.13103828 -0.37494722 0.69390434 0.34045592 -0.12297603 -0.9321838 0.072085708
0.13163111 -0.32091784 0.69575757 0.35736203 0.025066104 -0.93362951 0.05873559
-0.04845091 -0.12538305 0.75519538 -0.31029335 0.92802864 -0.20610884 0.070147134
-0.071041755 -0.13015518 0.74379277 -0.57592022 0.76618856 -0.28508049 0.10027122
0.06732066 -0.12262168 0.72882122 0.011965616 0.91592622 -0.40116814 0.054314256
0.001705542 -0.12224064 0.80388224 -0.045235243 0.99874026 -0.02171885 0.0016589186
0.048661321 -0.12292621 0.70673758 -0.0054729758 0.80518728 -0.59299541 0.054127503
-0.023296665 -0.12299546 0.80381936 -0.12225243 0.99190718 -0.034269411 0.016871493
-0.024903014 -0.12428408 0.76179487 -0.11928775 0.98462683 -0.12759493 0.029984428
-0.017892372 -0.12387712 0.77220613 -0.10560007 0.99041784 -0.08900056 0.017985789
-0.038309228 -0.12453604 0.76820552 -0.17494203 0.9799453 -0.095407166 0.034700494
0.08756233 -0.41069075 0.68728513 0.024032099 -0.37825239 -0.92539048 0.069392808
0.11520096 -0.12144943 0.77584451 0.15707316 0.98581791 -0.059084836 0.021712974
-0.033747572 -0.1267107 0.71138388 -0.19831693 0.78094679 -0.59227735 0.088608466
0.083235875 -0.3408249 0.69079489 0.044054717 0.029356832 -0.99859774 0.0047964393
0.11072222 -0.22460936 0.6925742 0.16419663 0.028609531 -0.98601264 0.028836682
0.13260372 -0.23967969 0.69545865 0.51766092 0.036070395 -0.8548252 0.067720391
0.10829036 -0.28583276 0.69115394 0.21592414 0.0085585769 -0.97637266 0.035953317
0.11361806 -0.37214023 0.6901446 0.19518483 -0.093910426 -0.97626007 0.051024973
0.087444931 -0.36260104 0.68936533 0.053345177 -0.059032939 -0.99682969 0.018159866
0.075909302 -0.40267566 0.69089526 -0.0046177511 -0.35078657 -0.93644404 0.062583588
