# .PCD v0.7 - Point Cloud Data file format
VERSION 0.7
FIELDS x y z normal_x normal_y normal_z curvature
SIZE 4 4 4 4 4 4 4
TYPE F F F F F F F
COUNT 1 1 1 1 1 1 1
WIDTH 596
HEIGHT 1
VIEWPOINT 0 0 0 1 0 0 0
POINTS 596
DATA ascii
-0.37870085 -0.31902581 0.4342753 -0.077082187 -0.99650455 -0.032201823 0.046494924
-0.35100019 -0.31902581 0.4383862 7.60479e-06 -1 1.2024229e-05 2.9843241e-05
-0.34678051 -0.31902581 0.4330194 -6.9788971e-06 -1 -7.622919e-07 2.1335856e-05
-0.31457785 -0.31902581 0.43688434 -6.827918e-05 -1 1.9455509e-05 0
-0.30494598 -0.31902581 0.43634471 -9.1835485e-05 -1 8.0014586e-05 0
-0.41519651 -0.31902581 0.44144991 -0.31985477 -0.93448788 -0.15628637 0.083708435
-0.40496907 -0.31902581 0.44557184 -0.26443619 -0.95634168 -0.12443544 0.074523538
-0.3948364 -0.31902581 0.4447706 -0.1217492 -0.99035943 -0.066070393 0.051273059
-0.38817036 -0.31902581 0.44354111 -0.086039312 -0.99496943 -0.051314041 0.046909556
-0.35559949 -0.31902581 0.44559535 -0.02904718 -0.9995628 -0.0055211755 0.013528069
-0.31153971 -0.31902581 0.4418689 -3.0330475e-05 -1 3.8990285e-05 0
-0.42543101 -0.31902581 0.45309901 -0.16061832 -0.98353297 -0.082852527 0.056299977
-0.41420233 -0.31902581 0.45742321 -0.13439979 -0.98832208 -0.071805455 0.053686369
-0.40219223 -0.31902581 0.45612729 -0.18549266 -0.97793239 -0.096128434 0.069660127
-0.39154387 -0.31902581 0.4515478 -0.090333283 -0.99427134 -0.057134904 0.04679732
-0.35519901 -0.31902581 0.45322111 -0.028532846 -0.99954402 -0.0098746708 0.014118467
-0.30716521 -0.31902581 0.45536581 -4.389714e-05 -1 4.7450325e-05 0
-0.092717469 -0.31902581 0.45165721 1.0160337e-05 -1 -9.6605063e-06 1.3629086e-05
-0.41533819 -0.31902581 0.46416619 -0.11811381 -0.99066788 -0.068016931 0.054960638
-0.3947286 -0.31902581 0.46143818 -0.09402065 -0.99484658 -0.03795293 0.042470478
-0.36133185 -0.31902581 0.46826047 -0.026162555 -0.99953336 -0.015767895 0.012578823
-0.35875359 -0.31902581 0.46906731 -0.022829328 -0.99965119 -0.013274997 0.011737411
-0.33954129 -0.31902581 0.46689779 5.0028589e-06 -1 1.2251679e-05 1.4045469e-05
-0.42417449 -0.31902581 0.47870749 -0.47630894 -0.85333329 -0.21201885 0.099990644
-0.41885954 -0.31902581 0.47593576 -0.40580821 -0.90404963 -0.13421592 0.11094864
-0.3965852 -0.31902581 0.47446129 -0.078673802 -0.99603367 -0.041561458 0.045812525
-0.36551675 -0.31902581 0.47131026 -0.026341658 -0.99944746 -0.020272555 0.012657478
-0.32182691 -0.31902581 0.47843689 -4.5833262e-05 -1 2.208234e-05 0
-0.30660921 -0.31902581 0.47295079 -4.6055808e-05 -1 1.3194166e-05 0
-0.2996496 -0.31902581 0.4757387 5.3365734e-06 -1 4.308049e-05 0
-0.064048648 -0.31902581 0.47816211 0.00030625807 -0.99999988 -0.00030400511 1.3218166e-05
-0.43092859 -0.31902581 0.4822695 -0.64732802 -0.7007603 -0.29983559 0.10139828
-0.42213649 -0.31902581 0.48041329 -0.41741529 -0.89210576 -0.17294995 0.10149732
-0.41381311 -0.31902581 0.48432487 -0.35423002 -0.92275429 -0.15180789 0.099385791
-0.40748262 -0.31902581 0.48263079 -0.2921147 -0.95336759 -0.075890236 0.082602784
-0.3961114 -0.31902581 0.48367801 -0.073472403 -0.99629641 -0.044668764 0.04367324
-0.058416098 -0.31902581 0.4809134 0.00029425602 -0.99999994 -0.00029665127 1.9014311e-05
-0.049173359 -0.31902581 0.48084399 0.0011320265 -0.99999809 -0.0015813886 2.5700589e-05
-0.43170011 -0.31902581 0.49652022 -0.57149154 -0.77932376 -0.25700548 0.10765277
-0.41448578 -0.31902581 0.49379161 -0.3767204 -0.91338247 -0.15431875 0.10201343
-0.43343961 -0.31902581 0.5046671 -0.36778632 -0.924299 -0.10200304 0.077658288
-0.41351986 -0.31902581 0.50256634 -0.25575566 -0.96349591 -0.079149753 0.072632462
-0.37512401 -0.31902581 0.50286162 -1.8990768e-05 -1 -5.2447007e-07 1.9646413e-05
-0.3500087 -0.31902581 0.50562358 -2.3352006e-05 -1 4.0468658e-05 0
-0.02691835 -0.31902581 0.5036757 0.0011525085 -0.99999774 -0.0017805817 0
-0.019078551 -0.31902581 0.50400859 0.0011525085 -0.99999774 -0.0017805817 0
-0.454916 -0.31902581 0.51212382 -0.47771111 -0.85514009 -0.20131478 0.091992043
-0.44706541 -0.31902581 0.51112741 -0.39700556 -0.9108789 -0.11263306 0.089545086
-0.43792671 -0.31902581 0.51181579 -0.39552203 -0.91135019 -0.11403086 0.082106829
-0.42355436 -0.31902581 0.51490676 -0.22368276 -0.97292 -0.058247142 0.067524254
-0.4166846 -0.31902581 0.51421368 -0.22368276 -0.97292 -0.058247142 0.067524254
-0.3946588 -0.31902581 0.51134551 -2.5901973e-05 -1 -3.5790905e-05 1.9465408e-05
-0.38183796 -0.31902581 0.51520985 -1.0396799e-05 -1 3.2687647e-05 2.8896029e-06
-0.35368079 -0.31902581 0.51957119 -3.1506777e-05 -1 2.7535625e-05 0
-0.33116689 -0.31902581 0.51428717 -2.1443326e-05 -1 2.5965495e-05 0
-0.29442525 -0.31902581 0.51597899 -3.1315369e-05 -1 1.9690235e-05 0
-0.2861774 -0.31902581 0.51407582 -2.2684617e-05 -1 9.1092652e-06 0
-0.45316181 -0.31902581 0.52176648 -0.35341886 -0.92095733 -0.16411187 0.086973988
-0.43574524 -0.31902581 0.52600837 -0.29309815 -0.95115405 -0.096950479 0.083445877
-0.426375 -0.31902581 0.52238941 -0.24362813 -0.96750063 -0.067733556 0.079196103
-0.38540521 -0.31902581 0.52204698 1.4837426e-06 -1 1.0374624e-05 1.3368695e-05
-0.3185814 -0.31902581 0.53739679 -2.8702863e-05 -1 2.2918162e-05 0
-0.2880331 -0.31902581 0.53382647 -1.4288838e-05 -1 1.2946894e-05 0
-0.46477139 -0.31902581 0.54523188 -0.63760203 -0.71010303 -0.29869264 0.073672444
-0.45547405 -0.31902581 0.54771948 -0.44729096 -0.86498499 -0.22744602 0.078154892
-0.43993071 -0.31902581 0.5437392 -0.30486712 -0.93865991 -0.16116361 0.073659316
-0.40407649 -0.31902581 0.54963148 -6.2567837e-05 -1 1.6916809e-05 0
-0.39304289 -0.31902581 0.54078788 -1.6788987e-06 -1 4.4484819e-05 0
-0.37810069 -0.31902581 0.54913992 -1.9643339e-05 -1 7.3781921e-05 0
-0.46396649 -0.31902581 0.55806297 -0.63884479 -0.71704072 -0.2788007 0.087160602
-0.45369339 -0.31902581 0.55216938 -0.43194884 -0.87691671 -0.2108018 0.076465823
-0.44610161 -0.31902581 0.55896372 -0.385268 -0.89915979 -0.20755795 0.076410361
-0.40566659 -0.31902581 0.5564689 -2.0846381e-05 -1 3.610288e-05 0
-0.3639386 -0.31902581 0.55263293 -2.7486825e-05 -1 5.0177903e-05 0
-0.31504911 -0.31902581 0.55497283 3.5456148e-06 -1 -1.4993574e-05 0
-0.45205569 -0.31902581 0.56357563 -0.53986192 -0.80289501 -0.25280175 0.08346381
-0.31610668 -0.31902581 0.56308222 0 -1 0 0
-0.456462 -0.31902581 0.57787532 -0.45186311 -0.88371927 -0.12190172 0.077905461
-0.41640741 -0.31902581 0.57386202 -3.1189102e-05 -1 4.1510604e-05 0
-0.36256161 -0.31902581 0.57542032 -1.1739842e-05 -1 8.2731049e-06 0
-0.2898891 -0.31902581 0.57987088 2.0046284e-05 -1 -3.0544445e-05 1.3849201e-05
-0.48807651 -0.31902581 0.58323371 -0.57872373 -0.79377955 -0.18706386 0.10358799
-0.45434019 -0.31902581 0.58470112 -0.37822548 -0.91990775 -0.10351475 0.079694286
-0.2994566 -0.31902581 0.58734453 2.0046284e-05 -1 -3.0544445e-05 1.3849201e-05
-0.49452022 -0.31902581 0.5955646 -0.58164948 -0.78442603 -0.21531288 0.117773
-0.4864763 -0.31902581 0.59251177 -0.55950159 -0.80474395 -0.1983563 0.10976215
-0.47181988 -0.31902581 0.59800059 -0.46363506 -0.86702889 -0.1824922 0.10515391
-0.42013231 -0.31902581 0.59198672 -2.7459269e-05 -1 2.7095597e-05 0
-0.45435661 -0.31902581 0.60726732 -0.38483131 -0.90162551 -0.19742413 0.10057501
-0.42713308 -0.31902581 0.60356355 2.226126e-05 -1 6.7487563e-05 0
-0.49522799 -0.31902581 0.61622334 -0.55935478 -0.78770041 -0.25816709 0.091824636
-0.48643601 -0.31902581 0.61771852 -0.55935478 -0.78770041 -0.25816709 0.091824636
-0.47939461 -0.31902581 0.61123902 -0.45137015 -0.86750865 -0.2090302 0.089109346
-0.46549043 -0.31902581 0.61183411 -0.40479788 -0.89680541 -0.17854632 0.09730047
-0.45184952 -0.31902581 0.61245 -0.26389885 -0.95442259 -0.13940904 0.080076642
-0.29896501 -0.31902581 0.61481529 2.6895916e-05 -1 -3.6137208e-05 2.9423878e-05
-0.49193823 -0.31902581 0.62529129 -0.46934614 -0.83171326 -0.29659259 0.087385617
-0.47437745 -0.31902581 0.62199211 -0.49158007 -0.84128052 -0.22493598 0.092287168
-0.4375281 -0.31902581 0.62695348 -5.4728667e-07 -1 5.1591596e-05 0
-0.42449439 -0.31902581 0.62094182 -5.8510204e-06 -1 9.2760347e-05 0
-0.40485969 -0.31902581 0.62902337 9.4901185e-07 -1 4.3437482e-05 0
-0.3901473 -0.31902581 0.62570667 7.4944178e-06 -1 6.4486943e-05 0
-0.10864635 -0.3200005 0.62939781 -0.037602816 -0.73008072 0.6823256 0.085433766
-0.49669775 -0.31902581 0.63847423 -0.42014721 -0.86186284 -0.28402272 0.075987339
-0.48376641 -0.31902581 0.63859308 -0.38597527 -0.87486422 -0.29263577 0.078673914
-0.44589469 -0.31902581 0.63267487 1.4593588e-06 -1 6.2873019e-05 0
-0.4348959 -0.31902581 0.63615561 3.8903988e-07 -1 6.9457645e-05 0
-0.11961928 -0.32176977 0.63638115 0.13295099 -0.96871459 0.20956117 0.053065617
-0.50668144 -0.31902581 0.6437642 -0.27151293 -0.94735628 -0.16969623 0.064950898
-0.49508509 -0.31902581 0.6440236 -0.2215433 -0.96529037 -0.13832217 0.058389723
-0.48839441 -0.31902581 0.64903527 -0.1447642 -0.98627716 -0.079376623 0.041072413
-0.46481559 -0.31902581 0.64443648 -0.046697605 -0.99786383 -0.045686014 0.016848501
-0.45024949 -0.31902581 0.64636147 -7.9612393e-05 -1 1.4852914e-05 0
-0.4485231 -0.31902581 0.647129 -6.8126341e-05 -1 3.3383276e-05 0
-0.048287328 -0.31923157 0.64820272 -0.037602816 -0.73008072 0.6823256 0.085433766
-0.38740551 -0.31902581 0.6593048 4.1710227e-06 -1 -1.0594303e-05 0
-0.1917579 -0.31902581 0.6544891 -0.013758332 -0.99970168 0.020180736 0.00014706398
-0.11714326 -0.32092524 0.65823174 0.14760612 -0.9875592 0.054216731 0.03249786
-0.50251198 -0.31902581 0.66164428 -0.4625226 -0.8793543 -0.11317651 0.083738282
-0.47378609 -0.31902581 0.66612762 -0.065858893 -0.99728626 -0.032905459 0.028600557
-0.45247173 -0.31902581 0.6608727 -2.3016448e-05 -1 -1.5614438e-05 1.1109224e-05
-0.10059606 -0.31930912 0.66799146 0.23402087 -0.96540427 0.11501663 0.034069233
-0.073884755 -0.31789526 0.66402662 0.23000209 -0.94873339 0.21680406 0.073732503
-0.063652396 -0.31888667 0.66422653 -0.037685707 -0.7299549 0.68245566 0.08546041
-0.5283671 -0.31902581 0.67974848 -0.6297965 -0.77176648 -0.087936379 0.10266222
-0.51579124 -0.31902581 0.67464834 -0.64049542 -0.75354499 -0.14810647 0.10357592
-0.4808653 -0.31902581 0.67838502 -2.3194811e-05 -1 4.0253517e-06 2.1796019e-05
-0.46895429 -0.31902581 0.67393821 -1.9170888e-05 -1 3.9803153e-06 2.0338086e-05
-0.53714973 -0.31902581 0.68971997 -0.75565559 -0.65488684 -0.010377259 0.11685221
-0.52822191 -0.31902581 0.68309963 -0.66815859 -0.74170339 -0.058652669 0.10674284
-0.50650728 -0.31902581 0.68520439 -0.5380885 -0.84247208 -0.026488019 0.092897639
-0.4843815 -0.31902581 0.68247008 8.0361287e-06 -1 1.7624361e-05 2.1848628e-05
-0.4785814 -0.31902581 0.68696898 5.5488905e-05 -1 8.0359068e-06 2.1871108e-05
-0.51677048 -0.31902581 0.69353217 -0.64415783 -0.76466066 0.018838525 0.11012464
-0.50908649 -0.31902581 0.69645089 -0.58098227 -0.8138513 -0.010281345 0.10684088
-0.4990727 -0.31902581 0.69180131 -0.48206446 -0.87607712 -0.010140881 0.089618243
-0.47302881 -0.31902581 0.6902746 2.1584301e-06 -1 8.6797772e-06 2.171212e-05
-0.46667179 -0.31902581 0.69590729 1.8419447e-05 -1 -9.3247954e-06 1.9976984e-05
-0.51368892 -0.31902581 0.70549762 -0.65593272 -0.75159436 0.069700174 0.11422808
-0.50573409 -0.31902581 0.70712698 -0.6339224 -0.76725543 0.097269878 0.10627466
-0.4851892 -0.31902581 0.70387173 -0.1464099 -0.98488152 0.092587553 0.053684149
-0.47538286 -0.31902581 0.70252407 -0.041512724 -0.99882156 0.02514413 0.014246861
-0.1571753 -0.31902581 0.70779479 -0.003348704 -0.99998236 0.0049077561 3.9630431e-05
-0.13884901 -0.31902581 0.70634449 0.0033580884 -0.99987543 0.015423846 0.00020264016
-0.51345545 -0.31902581 0.71561891 -0.6317687 -0.75704086 0.16660567 0.10389327
-0.50670695 -0.31902581 0.71113002 -0.47373018 -0.87487161 0.10089215 0.097841375
-0.49542424 -0.31902581 0.71764612 -0.20280041 -0.9723947 0.11541442 0.055648822
-0.47346649 -0.31902581 0.71907723 -0.075892247 -0.99461454 0.07058531 0.027460873
-0.46194357 -0.31902581 0.71404213 -0.029114658 -0.99895233 0.035305679 0.01239552
-0.1841055 -0.31902581 0.71868849 -1.3313971e-06 -1 3.0906147e-05 0
-0.1399636 -0.31902581 0.71997237 -0.00094056001 -0.99996644 0.008145866 4.2112533e-05
-0.51613247 -0.31902581 0.7227391 -0.55469847 -0.81289899 0.17749569 0.11200748
-0.50800318 -0.31902581 0.72530532 -0.37977916 -0.88735515 0.26147401 0.11378763
-0.4806723 -0.31902581 0.7284438 -0.28113532 -0.90040201 0.33202267 0.092142716
-0.47733501 -0.31902581 0.72694081 -0.28380525 -0.89970863 0.33163074 0.088176429
-0.219375 -0.31902581 0.72662938 1.7457718e-05 -1 -1.0508676e-05 1.4827667e-05
-0.16118421 -0.31902581 0.72994667 7.3584742e-06 -1 2.541912e-05 0
-0.52213538 -0.31902581 0.73395908 -0.33332169 -0.90930033 0.24913761 0.084892057
-0.49429989 -0.31902581 0.73196948 -0.33930799 -0.89244592 0.29733866 0.085603267
-0.46454278 -0.31902581 0.73906142 -0.16171551 -0.96042818 0.22677259 0.059606813
-0.41248664 -0.31902581 0.73234552 -9.8783581e-05 -1 0.00018413976 0
-0.4035635 -0.31902581 0.73653507 -9.3172843e-05 -0.99999994 0.00022006947 0
-0.21038871 -0.31902581 0.73966259 -2.0095749e-05 -1 -5.8736332e-06 0
-0.1937713 -0.31902581 0.73451489 -1.0003379e-05 -1 1.2960582e-05 0
-0.1869031 -0.31902581 0.7362631 -1.0003379e-05 -1 1.2960582e-05 0
-0.13937581 -0.31902581 0.73376948 -0.0012104798 -0.99997693 0.0066874409 4.3648259e-05
-0.12970629 -0.31902581 0.73590511 -0.00071047776 -0.99996239 0.0086470041 6.5503496e-05
-0.51847053 -0.31902581 0.7441144 -0.45886093 -0.80582976 0.37427923 0.1187038
-0.4922069 -0.31902581 0.74501753 -0.43798715 -0.7587803 0.48209935 0.09803801
-0.48447639 -0.31902581 0.74561405 -0.39197931 -0.79307812 0.4662396 0.084358245
-0.4765023 -0.31902581 0.74675131 -0.36097133 -0.81607038 0.45136333 0.092074156
-0.46158791 -0.31902581 0.74817377 -0.22387859 -0.90746868 0.35549825 0.066067562
-0.45880526 -0.31902581 0.74280751 -0.2075005 -0.92372662 0.32198241 0.065843478
-0.3898119 -0.31902581 0.74115902 -0.0001015868 -0.99999988 0.00046540049 0
-0.46630949 -0.31902581 0.75920606 -0.25853711 -0.87013024 0.41956159 0.067915708
-0.42080003 -0.31902581 0.75346071 -0.39441329 -0.53244293 0.74896103 0.088535942
-0.33244619 -0.31902581 0.75879192 -4.3984786e-05 -1 0.00013194773 0
-0.31871289 -0.31902581 0.75737679 -3.8897553e-05 -1 6.7455076e-05 0
-0.17939889 -0.31902581 0.75091678 3.8050637e-06 -1 1.0851292e-05 0
-0.49522799 -0.31902581 0.76764452 -0.50598109 -0.56122226 0.65499055 0.0958324
-0.4559063 -0.31902581 0.76850599 -0.31089976 -0.72931159 0.60946357 0.074319921
-0.4339928 -0.31902581 0.76590937 -0.41215259 -0.49048638 0.76782382 0.085168816
-0.42451546 -0.31902581 0.7672956 -0.3745192 -0.41912869 0.82708311 0.078749694
-0.41519269 -0.31902581 0.76679069 -0.3875919 -0.4857792 0.78344816 0.085275449
-0.4013097 -0.31902581 0.76872969 -0.26182625 -0.5898084 0.76391959 0.10677489
-0.39400491 -0.31902581 0.76198691 -0.23735008 -0.66722882 0.70602453 0.1121083
-0.34196693 -0.31902581 0.76822591 -0.02339609 -0.99501443 0.096947923 0.036797557
-0.3392134 -0.31902581 0.7623437 -0.02339609 -0.99501443 0.096947923 0.036797557
-0.20712569 -0.31902581 0.76262748 2.1541038e-05 -1 4.7123598e-05 0
-0.18326171 -0.31902581 0.76429433 5.0260874e-06 -1 8.9465657e-06 0
-0.4608669 -0.31902581 0.77022243 -0.31089976 -0.72931159 0.60946357 0.074319921
-0.43710691 -0.31902581 0.77169549 -0.40175068 -0.45183644 0.79651755 0.079850338
-0.42725551 -0.31902581 0.77043408 -0.3745192 -0.41912869 0.82708311 0.078749694
-0.41144559 -0.31902581 0.77180678 -0.3711302 -0.49527767 0.78546947 0.091485143
-0.40323049 -0.31902581 0.77901047 -0.28425467 -0.60065031 0.74727404 0.11066386
-0.3897396 -0.31902581 0.77301699 -0.22956361 -0.60905546 0.75917846 0.11376184
-0.36915401 -0.31902581 0.77364337 -0.16632389 -0.77652353 0.60773981 0.092782088
-0.34942999 -0.31902581 0.77452171 -0.099669598 -0.92662752 0.36252934 0.070874311
-0.3292667 -0.31902581 0.77562273 -0.031843212 -0.99410969 0.10359494 0.045423087
-0.30647251 -0.31902581 0.77970117 -4.3155807e-05 -1 6.143839e-05 0
-0.1945927 -0.31902581 0.77314222 7.4690479e-07 -1 4.1798281e-05 0
-0.42480707 -0.31902581 0.78464246 -0.40655273 -0.39597878 0.82335639 0.082071409
-0.41519389 -0.31902581 0.78197283 -0.35509738 -0.42138946 0.83446795 0.091749839
-0.40120399 -0.31902581 0.7868579 -0.28465772 -0.52857906 0.79973382 0.096612841
-0.3882952 -0.31902581 0.78938973 -0.24261321 -0.56745595 0.7868498 0.11539696
-0.29678619 -0.31902581 0.78709978 -3.1120038e-05 -1 5.2691474e-05 0
-0.2174935 -0.31902581 0.78996998 9.9002918e-06 -1 3.3416152e-05 0
-0.1564589 -0.31902581 0.78262973 0 -1 0 0
-0.4014748 -0.31902581 0.79530519 -0.27645645 -0.52512133 0.80487233 0.10152242
-0.3856383 -0.31902581 0.7950229 -0.27016696 -0.56753957 0.77775872 0.11130191
-0.37507644 -0.31902581 0.79462349 -0.26083386 -0.65794927 0.70644772 0.10032462
-0.2997171 -0.31902581 0.791026 -5.9796323e-05 -1 7.0737493e-05 0
-0.184242 -0.31902581 0.79953963 -2.90964e-06 -1 -1.0530365e-05 0
0.1636086 -0.31902581 0.79257232 0 -1 0 0
-0.39891121 -0.31902581 0.80140358 -0.26467291 -0.52029186 0.81193882 0.11225825
-0.37036631 -0.31902581 0.80624843 -0.23840332 -0.68526399 0.68816942 0.094634227
-0.36086029 -0.31902581 0.80201268 -0.20965716 -0.76928157 0.603531 0.095206156
-0.3432174 -0.31902581 0.80858898 -0.1272238 -0.87961167 0.45836377 0.091530606
-0.3061358 -0.31902581 0.80545431 -0.11949763 -0.98642212 0.11265737 0.053641554
-0.35704824 -0.31902581 0.81717443 -0.17690206 -0.79537034 0.57973415 0.09540724
-0.33721304 -0.31902581 0.81690246 -0.16581635 -0.90745628 0.38604149 0.09905041
-0.31210551 -0.31902581 0.81116903 -0.29389572 -0.87904459 0.37537453 0.095335923
-0.18093599 -0.31902581 0.81287789 9.0589219e-06 -1 8.4692266e-07 0
-0.36390591 -0.31902581 0.82105339 -0.22400844 -0.70340914 0.67456341 0.10227842
-0.31265149 -0.31902581 0.82373857 -0.33030704 -0.89399141 0.30278167 0.07787542
-0.29428086 -0.31902581 0.82659262 0.01866997 -0.99846143 0.05221314 0.040859628
-0.2180123 -0.31902581 0.82737952 -4.7881472e-06 -1 1.4889739e-05 0
-0.18213455 -0.31902581 0.82550716 -1.0200654e-05 -1 2.4418299e-05 0
-0.17419919 -0.31902581 0.82366198 -1.6320868e-05 -1 -1.8541674e-06 0
-0.1626073 -0.31902581 0.82121933 -1.211358e-05 -1 1.3070409e-06 0
0.1381786 -0.31902581 0.82306468 0 -1 0 0
0.14093959 -0.31902581 0.82428771 0 -1 0 0
-0.30594623 -0.31902581 0.83479488 -0.025517082 -0.99872243 0.043616571 0.071566418
-0.28760979 -0.31902581 0.83502322 -0.12898163 -0.94934815 0.28653416 0.11865991
-0.20596971 -0.31902581 0.83765233 2.0590142e-06 -1 3.0662162e-05 0
-0.173704 -0.31902581 0.83661437 -9.5287323e-06 -1 2.8787952e-05 0
-0.26175225 -0.31902581 0.84862578 -0.12657538 -0.98849696 0.082778797 0.11882944
-0.25554225 -0.31902581 0.85090947 -0.10623846 -0.99192005 0.069339506 0.11101595
-0.27516764 -0.31902581 0.86155808 0.06083867 -0.99664873 -0.054679655 0.11028417
-0.23398124 -0.31902581 0.86393446 -0.086003974 -0.99601299 -0.023695316 0.06644804
-0.25392559 -0.31902581 0.87559628 -0.014387117 -0.98599225 -0.16616957 0.11895851
-0.22525704 -0.31902581 0.87629902 -0.04625063 -0.9986822 -0.022240458 0.037648492
-0.22520059 -0.31902581 0.88568759 -0.051208347 -0.99849749 -0.019504981 0.040076688
-0.2143057 -0.31902581 0.88453013 -0.056770191 -0.99826759 -0.015459203 0.035074111
-0.2095563 -0.31902581 0.8887248 -0.045647621 -0.99829376 0.036412276 0.048401743
-0.1747631 -0.31902581 0.88400167 -9.8802984e-06 -1 7.0639828e-05 0
-0.1035614 -0.31902581 0.88025862 3.3445012e-05 -1 -0.00015930698 2.0332915e-05
-0.2772302 -0.31902581 0.89321208 0.041041955 -0.98692793 -0.15584892 0.11405389
-0.2458334 -0.31902581 0.89341176 -0.056196127 -0.99513745 -0.080891401 0.072070666
-0.21599209 -0.31902581 0.89449853 -0.021961806 -0.99914491 0.035029862 0.049287844
-0.1670197 -0.31902581 0.89405233 -8.4966841e-06 -1 5.3873042e-05 0
-0.29206526 -0.3211349 0.90305704 0.078896031 -0.99567586 -0.049041037 0.051933054
-0.2438097 -0.31902581 0.90074921 0.023277078 -0.99952608 0.020145997 0.044956863
-0.23854101 -0.31902581 0.90341449 -0.0039416952 -0.99982435 0.018323097 0.050283894
-0.20264199 -0.31902581 0.90121329 0.0049943929 -0.99777746 0.066447139 0.013532508
-0.1939944 -0.31902581 0.90371841 0.00059285213 -0.99713683 0.075615726 0.015086756
-0.1172723 -0.31902581 0.90774149 1.5497184e-05 -1 -9.1660972e-05 2.2096729e-05
-0.31988665 -0.32829028 0.91073918 0.15239026 -0.98829871 0.0065426212 0.0092302551
-0.2836048 -0.31902581 0.91591477 0.072856531 -0.99653524 -0.040117666 0.052266531
-0.2804704 -0.31902581 0.92037338 0.072856531 -0.99653524 -0.040117666 0.052266531
-0.2194189 -0.31902581 0.92914063 0.052217357 -0.99432856 0.092649527 0.016021861
-0.1364551 -0.31902581 0.92664492 2.4807337e-05 -1 -0.0002064462 1.9256069e-05
-0.29173881 -0.31902581 0.93080157 0.099783547 -0.99487394 0.016406365 0.0063081179
-0.27689379 -0.31902581 0.93436718 0.13559575 -0.98832601 0.069465742 0.019274043
-0.2206113 -0.31902581 0.93015969 0.052217357 -0.99432856 0.092649527 0.016021861
-0.1187163 -0.31902581 0.93297261 3.3445012e-05 -1 -0.00015930698 2.0332915e-05
-0.28527889 -0.31902581 0.95268291 0.15127721 -0.98553956 0.076334715 0.025424827
-0.2357479 -0.31902581 0.95810318 0.076629162 -0.99201781 0.10014212 0.019899806
-0.22813363 -0.3167215 0.95518398 0.082625136 -0.99153328 0.10017435 0.020023024
-0.22346655 -0.31542078 0.95799547 0.094592266 -0.98876184 0.11576881 0.021774266
-0.22966723 -0.31368539 0.96159256 0.094592266 -0.98876184 0.11576881 0.021774266
-0.29088649 -0.31902581 0.97117001 0.13715391 -0.99054646 0.0025577035 0.0086087435
-0.25343671 -0.31902581 0.97362638 0.12326057 -0.98749936 0.098243311 0.03933746
-0.21408172 -0.28404897 0.95958322 0.15729901 -0.97349912 0.16600171 0.035630424
-0.23852016 -0.55147761 0.86622059 -0.59868222 0.15106134 0.78661299 0.033979602
-0.24283895 -0.56500381 0.87442893 -0.59868222 0.15106134 0.78661299 0.033979602
-0.2523039 -0.58268076 0.8747713 -0.59868222 0.15106134 0.78661299 0.033979602
-0.2836048 -0.50441402 0.91591477 0.4048906 0.37623283 0.83337414 2.6526199e-05
-0.21599209 -0.52973878 0.89449853 0.021950228 -0.50622231 0.86212361 0.044141181
-0.22390299 -0.55090493 0.88289076 -0.59868222 0.15106134 0.78661299 0.033979602
-0.21132943 -0.55971932 0.890194 -0.59868222 0.15106134 0.78661299 0.033979602
-0.29173881 -0.52864778 0.93080157 nan nan nan nan
-0.22479965 -0.098701909 0.95808917 nan nan nan nan
-0.32288739 -0.33831409 0.9111129 0.2776466 -0.95866567 0.062228475 0.0060146479
-0.1869031 -0.066559963 0.7362631 0.89241743 0.39459208 -0.21883383 0.027726952
-0.16055317 -0.12512332 0.7305752 0.7641477 0.56983513 0.30226848 0.051402889
-0.1937713 -0.088101007 0.73451489 0.8950265 0.44483712 -0.032365106 0.031689879
-0.1415329 -0.13468939 0.73164022 0.69468963 0.70173424 0.15803564 0.043664627
-0.12970629 -0.1461518 0.73590511 0.69726247 0.69835669 0.1616262 0.060440488
-0.1571753 -0.1167341 0.70779479 0.7641477 0.56983513 0.30226848 0.051402889
-0.12087486 -0.32199001 0.63624346 0.13295099 -0.96871459 0.20956117 0.053065617
-0.096753329 -0.2278901 0.41532651 0.63261747 -0.30910721 -0.71010417 1.5441739e-05
-0.063068762 -0.28943461 0.66485906 -0.037685707 -0.7299549 0.68245566 0.08546041
-0.18150333 -0.092141435 0.7638458 0.84122884 0.48197085 -0.24502675 0.032380182
-0.072322622 -0.28582069 0.66874927 -0.037685707 -0.7299549 0.68245566 0.08546041
-0.17939889 -0.1258114 0.75091678 0.7641477 0.56983513 0.30226848 0.051402889
-0.1249113 -0.2418351 0.39631131 0.57023698 -0.01150374 -0.82139969 0.00123816
-0.1182049 -0.2471083 0.40458241 0.61198491 -0.044112165 -0.78963828 0.0078005153
-0.34453127 -0.094729446 0.36664566 -0.83563757 0.2897824 -0.46662197 0.0031163646
-0.33586884 -0.22210833 0.32170495 -0.80793244 0.22575371 -0.54431647 0.0059285164
-0.3633686 -0.12543948 0.39040983 -0.87692422 0.22564125 -0.42437005 0.0051610591
-0.33906418 -0.18769005 0.33239007 -0.82188588 0.1572089 -0.54752988 0.0029830793
-0.34594324 -0.20115764 0.33693421 -0.83605117 0.17036995 -0.52152908 0.0037316636
-0.34545824 -0.26127547 0.30984256 -0.8389855 -0.082892738 -0.53780299 0.043603007
-0.31669146 -0.075968228 0.33789539 -0.79803443 0.24871959 -0.54888952 0.0024548364
-0.31723791 -0.075133204 0.33910304 -0.81371874 0.25399104 -0.52282912 0.0029619588
-0.37602377 -0.24402006 0.37130925 -0.88329667 -0.012162094 -0.46865666 0.011204835
-0.35066515 -0.23654695 0.32966772 -0.83469743 0.19631974 -0.5145278 0.0046423422
-0.32900053 -0.061036129 0.3658253 -0.8019802 0.4458811 -0.39751461 0.025277436
-0.34819934 -0.22597142 0.3341313 -0.83388108 0.18855096 -0.5187397 0.0040826215
-0.35160625 -0.23166686 0.33945647 -0.84430063 0.18155293 -0.50417763 0.0044255336
-0.32457241 -0.23291273 0.30625513 -0.68567294 0.2881766 -0.66843617 0.0068295845
-0.31576511 -0.071735241 0.33944678 -0.79803443 0.24871959 -0.54888952 0.0024548364
-0.064048648 -0.079512037 0.47816211 nan nan nan nan
-0.33926186 -0.073747732 0.46503296 -0.68485129 0.71475834 0.14177229 0.030838031
-0.36960009 -0.12165643 0.40665466 -0.8812502 0.2254485 -0.41541657 0.0048394566
-0.38630429 -0.2288785 0.40665829 -0.8911916 0.13384321 -0.43343216 0.00070781272
-0.35972995 -0.075067438 0.40820658 -0.77276367 0.53964335 -0.33409786 0.024845093
-0.32155359 -0.22199093 0.31001294 -0.68567294 0.2881766 -0.66843617 0.0068295845
-0.35125649 -0.11538665 0.36763391 -0.85163492 0.22883487 -0.47154275 0.002359774
-0.38663208 -0.18021534 0.41556937 -0.8948667 0.14986612 -0.420421 0.00033216403
-0.34501114 -0.14206313 0.35326922 -0.83546174 0.19659352 -0.51318103 0.002098632
-0.36290744 -0.1263786 0.38899443 -0.87442273 0.20551847 -0.43948501 0.0011074345
-0.34619209 -0.12846483 0.35614187 -0.83806622 0.20542973 -0.50541449 0.001807228
-0.35391814 -0.11479696 0.37115651 -0.85267651 0.22683978 -0.47062358 0.0022687847
-0.36285526 -0.078684144 0.41263387 -0.75400162 0.58575535 -0.29727447 0.03833843
-0.38779539 -0.17215081 0.4212473 -0.89602 0.15469316 -0.41619492 0.00048040209
-0.39431545 -0.18608989 0.42955416 -0.89776099 0.15131272 -0.41367835 0.00040045846
-0.3915278 -0.13162895 0.44633937 -0.88129544 0.21224289 -0.42222187 0.0048432527
-0.34543568 -0.11816394 0.35736477 -0.83576393 0.21645971 -0.50462252 0.0023962262
-0.32902879 -0.092675179 0.34453315 -0.8255527 0.27496129 -0.49280727 0.0024247163
-0.35444143 -0.075680025 0.40077046 -0.77621037 0.54898906 -0.31001353 0.019818999
-0.33531195 0.060243312 0.41233376 0.79751927 0.47393739 0.37329113 0.0043268204
-0.32215309 0.019400064 0.43557659 0.85859728 0.46046996 0.22533992 0.013765827
-0.31423539 -0.0027735231 0.36354771 0.95487207 0.19723333 -0.22207762 0.010408775
-0.32930911 0.046389323 0.41349161 0.85635221 0.46759742 0.21911991 0.014219476
-0.39348924 -0.12861381 0.45187771 -0.87035149 0.25037554 -0.42402875 0.015799878
-0.35960996 -0.088194676 0.40540522 -0.8478862 0.35999537 -0.3892203 0.019446442
-0.3500056 -0.070827767 0.5056144 -0.37033314 0.91812539 -0.14106454 0.031983905
-0.30068061 -0.06213275 0.58530331 -0.40989143 0.91120851 0.041084781 0.037311621
-0.049173359 -0.077078797 0.48084399 nan nan nan nan
-0.38101622 -0.14634223 0.41766629 -0.88492221 0.19704595 -0.42200187 0.00060151063
-0.31056523 -0.088056363 0.32963544 -0.7691198 0.24054827 -0.59210753 0.0020460689
-0.31705227 -0.090686642 0.33310449 -0.79619908 0.27669027 -0.53806102 0.0030338732
-0.2944527 -0.045410797 0.51405114 -0.68372488 0.70801306 0.17674243 0.039926197
-0.33538792 -0.24137528 0.31227455 -0.80797052 0.066200174 -0.58549213 0.017011127
-0.35360476 0.065880284 0.4457933 0.79938388 0.50951481 0.31840247 0.0099658454
-0.33150965 -0.068861581 0.51428241 -0.27377376 0.961326 -0.030005295 0.017147355
-0.36370212 0.057288308 0.47137606 0.81596446 0.46641257 0.3415572 0.010143927
-0.34897915 0.068054408 0.43211949 0.79611826 0.52552438 0.30003315 0.0050099851
-0.29292914 -0.045123026 0.51744825 -0.64314556 0.75310957 0.13852729 0.049178451
-0.36397576 0.064977802 0.47242031 0.85804319 0.34662816 0.37896022 0.0094833951
-0.35097837 0.067414455 0.43839613 0.79611826 0.52552438 0.30003315 0.0050099851
-0.40651342 -0.23849493 0.4407984 -0.89680946 0.1379281 -0.42036718 0.00045453035
-0.38528374 -0.15557729 0.422263 -0.88867617 0.18028054 -0.4216083 0.00099271629
-0.40356824 -0.20071094 0.44373471 -0.89694893 0.15031648 -0.4157975 0.00043892363
-0.38837549 -0.23012358 0.41005868 -0.89193618 0.1335417 -0.43199134 0.00068695517
-0.40971488 -0.23387618 0.44841161 -0.89181924 0.15194513 -0.42611161 0.0010305557
-0.37145546 -0.089310281 0.4323447 -0.69655561 0.67729491 -0.23681623 0.06111186
-0.38554662 -0.16885066 0.41779971 -0.894301 0.15457009 -0.41992122 0.00041889097
-0.38766935 -0.11215319 0.44518065 -0.86784559 0.26271629 -0.4216921 0.018539652
-0.39329162 -0.18945709 0.42645973 -0.89744091 0.15054318 -0.41465238 0.00040398695
-0.38943401 -0.13270105 0.44168389 -0.88193035 0.21157934 -0.42122787 0.0046234666
-0.3750301 -0.23683809 0.37215775 -0.86795592 0.15456286 -0.47197774 0.001882666
-0.34743509 -0.1853763 0.34223539 -0.82777721 0.13618304 -0.54427838 0.0017337895
-0.41436782 -0.26921308 0.44183588 -0.87946016 -0.17206204 -0.44378439 0.050286636
-0.3836953 -0.22593048 0.39797604 -0.882765 0.13568693 -0.44979435 0.0008164114
-0.37554875 -0.19065666 0.38920537 -0.87595034 0.14903483 -0.4588024 0.00068436324
-0.37129712 -0.087238535 0.43883303 -0.68455505 0.68199557 -0.25742283 0.059684068
-0.34638074 -0.27014282 0.30688789 -0.86755514 -0.15966809 -0.47101402 0.063509181
-0.2898891 -0.028571431 0.57987088 -0.73909014 0.67354602 0.0090276049 0.0222608
-0.39044729 -0.11345771 0.4508535 -0.87091339 0.25810355 -0.41820136 0.017124828
-0.33768475 -0.26080453 0.30275476 -0.93721598 -0.078268766 -0.33985323 0.050478339
-0.31933737 -0.064436719 0.5377962 -0.33893931 0.93894756 -0.059141785 0.028216155
-0.38570595 -0.25084269 0.39293683 -0.8920064 -0.07459987 -0.44582447 0.016973212
-0.36918327 -0.086848825 0.42753577 -0.73166054 0.6393593 -0.23641594 0.064456262
-0.39496213 -0.11408716 0.46171814 -0.85126382 0.30260605 -0.4286952 0.031158747
-0.40714979 -0.2097922 0.44622782 -0.89707726 0.1494005 -0.41585088 0.00047974792
-0.35377356 -0.071466647 0.51951152 -0.35679141 0.9223904 -0.14797249 0.035228673
-0.4123171 -0.22565171 0.45671523 -0.88879752 0.16113088 -0.42904046 0.0012280073
-0.29824659 -0.061675381 0.58939344 -0.39381522 0.91696423 0.063922793 0.040008385
-0.39792073 -0.10420735 0.47288552 -0.83454889 0.39184412 -0.38728079 0.047308601
-0.37629715 -0.1868493 0.39098063 -0.87791747 0.14631459 -0.45590889 0.00068861793
-0.41401985 -0.23097686 0.45907196 -0.88296729 0.17196575 -0.43680272 0.0017695642
-0.37037098 -0.18461511 0.38185129 -0.8699953 0.13985673 -0.47280884 0.00085712026
-0.38610879 -0.12474124 0.43805233 -0.87761074 0.25189668 -0.40785712 0.015019548
-0.41387299 -0.22801229 0.45929036 -0.88307565 0.17222899 -0.43647978 0.0018760919
-0.40103629 -0.16079405 0.45457315 -0.89989489 0.15559137 -0.40740702 0.00040088655
-0.34101781 -0.26982141 0.29966193 -0.97447366 -0.12019646 -0.1896148 0.072196186
-0.40236691 -0.16942029 0.45499825 -0.89849311 0.1542327 -0.41100159 0.0004068182
-0.37688261 -0.18573068 0.39259964 -0.87791747 0.14631459 -0.45590889 0.00068861793
-0.40331361 -0.24336775 0.43267956 -0.90029943 -0.029800916 -0.4342497 0.0093627442
-0.35428274 0.071523838 0.44865322 0.79909092 0.50946009 0.31922427 0.0097150691
-0.28716895 -0.044668905 0.53355664 -0.48665309 0.8735801 -0.0051418976 0.032926582
-0.42240804 -0.22762674 0.48029071 -0.87440985 0.17762797 -0.45150381 0.002319562
-0.42850825 -0.24118231 0.48330504 -0.87790221 0.010027951 -0.47873494 0.012347436
-0.36087745 -0.085243925 0.4084135 -0.84906042 0.37320188 -0.37392089 0.022200672
-0.35154676 0.059294678 0.44535008 0.79938388 0.50951481 0.31840247 0.0099658454
-0.39403 -0.10952485 0.4613739 -0.85837489 0.30583236 -0.41189697 0.031833671
-0.40957052 -0.12025574 0.49235821 -0.83315808 0.35876575 -0.42087385 0.048401196
-0.43043637 -0.2270848 0.49609134 -0.87592733 0.18998688 -0.44345954 0.0029018309
-0.40397775 -0.20050533 0.445288 -0.89707911 0.1506092 -0.41541034 0.00046168434
-0.4323552 -0.19503923 0.5089125 -0.88109809 0.17041917 -0.44116148 0.0030688988
-0.43366528 -0.22629097 0.50290519 -0.87463856 0.20489658 -0.43934581 0.0031768284
-0.41749117 -0.17172849 0.49522457 -0.88636512 0.15576313 -0.43599856 0.0014544918
-0.43891817 -0.22119682 0.51106161 -0.87520325 0.20742533 -0.43702856 0.0035373662
-0.40368128 -0.11216038 0.48178151 -0.81186765 0.40917847 -0.41646606 0.050530937
-0.39337444 -0.1715215 0.4336586 -0.9000079 0.15409911 -0.40772447 0.00038320143
-0.38309115 -0.24735463 0.38792881 -0.88781029 -0.049820259 -0.45750493 0.013764716
-0.37971368 -0.26996893 0.37087467 -0.87400484 -0.19572097 -0.44475698 0.038543381
-0.41529083 -0.10117362 0.50271535 -0.79096311 0.52061093 -0.32146803 0.065575339
-0.37843698 -0.23936681 0.37985036 -0.87703025 0.096147671 -0.47071603 0.0028013659
-0.43469259 -0.23436336 0.50181574 -0.871207 0.20511635 -0.4460108 0.0033741931
-0.41511497 -0.14923173 0.49427015 -0.89081675 0.15125425 -0.42844781 0.001213467
-0.37811843 -0.069944337 0.54913515 -0.13115045 0.98819637 -0.079167955 0.016773637
-0.42281479 -0.24581897 0.47114402 -0.87693715 -0.027963286 -0.47979096 0.019573586
-0.41650355 -0.23318638 0.46358892 -0.8820526 0.17436993 -0.43769667 0.0019079145
-0.40371689 -0.16630177 0.45860559 -0.89946473 0.15658221 -0.40797696 0.00036571213
-0.40633583 -0.12046739 0.48571035 -0.82597232 0.37494528 -0.42093435 0.048314337
-0.41336456 -0.1623691 0.4843213 -0.89367652 0.1509359 -0.42256436 0.0009843891
-0.41258466 -0.15639332 0.48506293 -0.89336592 0.15216646 -0.42277977 0.00094064447
-0.39565393 -0.079381116 0.4758887 -0.69290316 0.69635725 -0.18700759 0.06418328
-0.32120684 -0.071670949 0.4789983 -0.64665532 0.7230348 0.24301784 0.039029062
-0.50741941 -0.17005405 0.72506422 -0.81078428 0.098578811 0.57698447 0.030202014
-0.47748682 -0.024164584 0.67908913 -0.9397676 0.040505014 -0.33940569 0.04455198
-0.47375724 0.0010893069 0.70070285 -0.98967862 0.14263278 0.013861466 0.016045513
-0.48030373 -0.03096858 0.702097 -0.99165106 0.12893103 -0.0022414441 0.040892407
-0.47292247 0.035151716 0.70013142 -0.8500126 0.39502224 0.34847674 0.032202955
-0.47369266 -0.0027990912 0.70063013 -0.99050009 0.13104956 0.041660391 0.014885006
-0.47213718 0.040368639 0.70048487 -0.85496676 0.4205232 0.30363145 0.034416616
-0.38107017 0.078455836 0.51626062 -0.81626546 0.38285321 -0.43258998 0.0023078104
-0.4794237 -0.027367841 0.70194811 -0.99662012 0.080401525 -0.016851841 0.038736276
-0.42193112 0.076339476 0.59121162 -0.54247141 0.79432994 -0.27343142 0.001424389
-0.44660965 0.072573736 0.64366549 -0.91337866 0.12320869 -0.38801941 0.0092917029
-0.41461036 0.07678172 0.57462275 -0.74004745 0.56840247 -0.35951146 0.00064487493
-0.44492361 0.069296539 0.6332795 -0.91053903 0.1328714 -0.3914893 0.0102526
-0.44848537 0.07205794 0.64316821 -0.91337866 0.12320869 -0.38801941 0.0092917029
-0.37948897 0.080198213 0.51474315 -0.81626546 0.38285321 -0.43258998 0.0023078104
-0.36716312 -0.095460847 0.41395208 -0.85984993 0.32230085 -0.39595476 0.018558752
-0.28746331 -0.046878643 0.51438928 -0.64314556 0.75310957 0.13852729 0.049178451
-0.30757788 -0.011770565 0.43401459 0.9842276 0.10623394 0.14145821 0.050345886
-0.47948423 -0.028101774 0.68688798 -0.9857654 0.098291151 -0.1364021 0.033265732
-0.30750766 -0.01527159 0.43596375 0.9842276 0.10623394 0.14145821 0.050345886
-0.42806426 0.072833978 0.60132319 -0.77809572 0.49877524 -0.38182482 0.0050485646
-0.30652419 -0.01075762 0.42622387 0.96427512 0.26370916 0.025120031 0.014905903
-0.3621718 0.063474357 0.46785286 0.81596446 0.46641257 0.3415572 0.010143927
-0.30779311 0.01366524 0.42400408 0.89350104 0.44011053 0.089211687 0.013257782
-0.48971337 -0.12099732 0.64691752 -0.87294853 0.33186954 -0.35752404 0.016873894
-0.48420912 -0.044697821 0.70279133 -0.93625546 0.21525331 0.27765378 0.055790652
-0.49641523 -0.22733375 0.61930937 -0.89232844 0.16665283 -0.41949594 0.0030844463
-0.51494616 -0.21631552 0.67931533 -0.98018724 0.17415853 -0.094349176 0.046775267
-0.47394645 -0.11499933 0.62038916 -0.8218779 0.35881013 -0.44246143 0.028164929
-0.43767619 -0.07883966 0.63638747 -0.52509993 0.58627146 -0.61689204 0.094245814
-0.49892145 -0.18940642 0.64067626 -0.93270862 0.16708072 -0.31959128 0.0044171559
-0.47307959 -0.15858851 0.59821993 -0.86616462 0.19963969 -0.45815152 0.00273475
-0.48796093 -0.18624569 0.61578178 -0.88166827 0.16318566 -0.44275436 0.0025517461
-0.49700725 -0.18047892 0.63773197 -0.92585534 0.17736766 -0.33366531 0.0032642595
-0.4706338 -0.15526329 0.59777814 -0.8619107 0.21413527 -0.45962587 0.0030876508
-0.43830237 -0.13753097 0.54461098 -0.88092172 0.14033836 -0.45197585 0.0035194543
-0.48860693 -0.25499314 0.59097695 -0.90474927 -0.073362589 -0.41957906 0.028671689
-0.48408699 -0.11401185 0.63879526 -0.85273939 0.35433263 -0.38377589 0.018448716
-0.45204538 -0.080327258 0.61267513 -0.60601354 0.61262608 -0.50738233 0.070215471
-0.52908933 -0.25131467 0.68240499 -0.9956246 0.021778733 -0.090870515 0.033048451
-0.41616067 -0.087381177 0.51391047 -0.72354758 0.64481366 -0.24636237 0.069790415
-0.4567109 -0.1996278 0.54981935 -0.87103432 0.18144388 -0.45648372 0.0031289347
-0.43165776 -0.22709592 0.49785152 -0.87592733 0.18998688 -0.44345954 0.0029018309
-0.45038083 -0.26059851 0.50981486 -0.89084685 -0.052453466 -0.45126545 0.018490067
-0.49226987 -0.1933098 0.62101251 -0.88138556 0.18078354 -0.4364363 0.0034002946
-0.51460952 -0.19380456 0.71133405 -0.98344064 0.073522858 0.16564719 0.072374843
-0.4502075 -0.18450537 0.56345546 -0.87684739 0.14949164 -0.45693648 0.0034089794
-0.48794517 -0.18386607 0.61703914 -0.87961167 0.15495324 -0.44974744 0.0024759357
-0.49024662 -0.17590316 0.62611836 -0.89357525 0.16880719 -0.41596562 0.003241855
-0.5084464 -0.13856725 0.70953584 -0.9269402 0.28434572 0.24480484 0.078699812
-0.45436111 -0.082194194 0.60739839 -0.61508656 0.58899939 -0.52416438 0.067797393
-0.45542163 -0.21944997 0.56392908 -0.85876626 0.21717697 -0.46406332 0.0025768916
-0.49313593 -0.26228231 0.59276778 -0.9046995 -0.085590899 -0.41736427 0.032954022
-0.53708005 -0.24797669 0.68980384 -0.99665654 0.066623569 0.047296472 0.038751557
-0.40351364 0.074911185 0.7363764 -0.45462966 -0.21006787 0.86555386 0.0028069126
-0.38983393 0.078511134 0.74122912 -0.41953534 0.045009941 0.90662235 0.0023570578
-0.41440251 0.072247691 0.73254478 -0.57047504 0.25879714 0.77947557 0.0043807235
-0.17575732 -0.024445247 0.8283245 0.91936529 -0.042604275 -0.39109114 0.005671104
-0.32767227 0.062294256 0.77321357 -0.44100556 0.15709235 0.88364935 0.0049450141
-0.17793813 -0.026182065 0.82051003 0.91936529 -0.042604275 -0.39109114 0.005671104
-0.29629463 0.0732949 0.78610092 -0.49082997 0.48921716 0.72093868 0.00365943
-0.18119115 -0.052309163 0.81294119 0.9225812 0.22956529 -0.3100704 0.014209637
-0.17328773 -0.022073053 0.83652854 0.94656724 -0.047915652 -0.31892711 0.00077402324
-0.41059861 0.062456746 0.7322349 -0.45365915 -0.092990533 0.8863104 0.003297531
-0.40047288 -0.089156225 0.76701719 -0.28962323 0.22981326 0.92914164 0.018608484
-0.29430506 -0.085049286 0.82394457 -0.77927721 0.025199255 0.62617254 0.036307089
-0.25981963 -0.15121818 0.85236365 -0.51296908 0.069246471 0.85560948 0.00091640913
-0.45533362 -0.222461 0.76272565 -0.45923418 0.18121867 0.86963433 0.0032645259
-0.40801853 -0.25069338 0.7886678 -0.47145969 -0.066669501 0.87936395 0.019799158
-0.48692414 -0.21715677 0.74341965 -0.66653049 0.21115057 0.71494937 0.037967753
-0.38905445 -0.087340362 0.77161491 -0.16301014 0.20132123 0.96586621 0.024872838
-0.47490799 -0.058547787 0.72087514 -0.70082611 0.21438275 0.68035489 0.056728046
-0.47706208 -0.20197606 0.74741697 -0.57669687 0.19698605 0.79285383 0.019111104
-0.23699115 -0.1784839 0.86435813 -0.47680369 0.16032007 0.86426598 0.0033169563
-0.3064974 -0.238342 0.83542031 -0.46007594 0.20934048 0.86284798 0.0024768191
-0.36032292 -0.25803038 0.81823426 -0.38299501 -0.040435899 0.92286497 0.024197675
-0.37019071 -0.22781479 0.80585468 -0.42364529 0.14462186 0.89420867 0.0015733395
-0.46108425 -0.25624025 0.7707718 -0.42137739 -0.074267887 0.90383923 0.027565034
-0.22557488 -0.19527259 0.87300766 -0.46483144 0.18070175 0.86676329 0.0033269399
-0.3324703 -0.077044681 0.75875038 -0.10763433 0.97462082 0.19628833 0.0052249697
-0.37251878 -0.16679235 0.79532218 -0.4191511 0.12085498 0.89983684 0.00042000171
-0.38842452 -0.16848221 0.78973812 -0.42562991 0.11561406 0.89748126 0.00039132693
-0.2724869 -0.25451109 0.86248851 -0.56608582 0.044160467 0.82316267 0.044173066
-0.46304664 -0.22693515 0.7593931 -0.4540478 0.22163382 0.86297107 0.004576555
-0.42729393 -0.25760189 0.78253639 -0.42232636 -0.076198481 0.9032355 0.021354875
-0.43701011 -0.22148368 0.77146447 -0.42777798 0.16270588 0.88911909 0.0018687497
-0.36011147 -0.16907425 0.80003917 -0.41856161 0.14218372 0.89698941 0.00038870893
-0.31217313 -0.17210062 0.82277888 -0.43820277 0.10096995 0.89318717 0.00092621578
-0.39386913 -0.075743228 0.76171064 -0.23098408 0.80250341 0.55012244 0.018402547
-0.34165487 -0.076796018 0.76881468 -0.18855734 0.94434917 0.26953787 0.012070122
-0.39695328 -0.25635952 0.79819614 -0.45337087 -0.049805596 0.88992935 0.021746183
-0.3687273 -0.081038117 0.77245152 -0.22160885 0.89631748 0.38406301 0.019614635
-0.45914787 -0.12105548 0.7428211 -0.56673574 0.17683828 0.80469793 0.0094309552
-0.42091417 -0.081975721 0.75243372 -0.40891817 0.22133398 0.88532323 0.0046574348
-0.33601469 -0.21660246 0.81836808 -0.42794544 0.16658439 0.88831997 0.0018495559
-0.22488859 -0.22592489 0.87952727 -0.45851034 0.18933064 0.86828691 0.0034794027
-0.40169898 -0.21168499 0.78667784 -0.43095514 0.15265858 0.88936663 0.0012253904
-0.38326395 -0.22490746 0.79940403 -0.43464977 0.14794734 0.88836432 0.0017755916
-0.42115673 -0.25546333 0.78410363 -0.40838841 -0.059025474 0.91089785 0.021556545
-0.3061358 -0.082021877 0.80545431 -0.036820602 0.98897493 0.14343269 0.001416099
-0.29831511 -0.1595033 0.82792282 -0.46714196 0.10052592 0.87844914 0.00098653696
-0.34948367 -0.076739684 0.77442914 -0.2224104 0.90558618 0.36117494 0.015483839
-0.47796831 -0.080154508 0.72504061 -0.68072772 0.25166568 0.68794924 0.050062999
-0.46960193 0.015991451 0.67377782 -0.97533286 0.17445049 -0.13525112 0.012163914
-0.3901473 -0.067248233 0.62570667 -0.18354563 0.98187816 -0.047182739 0.0064098062
-0.52889121 -0.25143495 0.6821956 -0.9956246 0.021778733 -0.090870515 0.033048451
-0.49139383 -0.25119334 0.59706831 -0.90378708 -0.047270432 -0.42536381 0.023475565
-0.45164007 -0.080635741 0.61183029 -0.60601354 0.61262608 -0.50738233 0.070215471
-0.51440173 -0.19371554 0.71880871 -0.90940177 0.06306877 0.41110897 0.063655987
-0.50718498 -0.13859645 0.71304101 -0.8664394 0.22818179 0.44408986 0.064319439
-0.47248906 -0.14073026 0.60852051 -0.86199832 0.30596855 -0.40415606 0.01780859
-0.50802171 -0.25071812 0.64300406 -0.92746651 -0.040377382 -0.3717199 0.021094613
-0.50301266 -0.21978715 0.64201474 -0.91491514 0.17507811 -0.36370027 0.0032675515
-0.51151496 -0.17105944 0.67329466 -0.96383238 0.1357861 -0.22932377 0.0084746564
-0.45328704 -0.090146475 0.66124886 -0.84387136 0.36608425 -0.39225435 0.083735988
-0.46776533 -0.012773989 0.71705973 -0.98694509 0.11276793 0.11499032 0.013278173
-0.18397595 -0.022130504 0.79945052 0.90500361 0.25947452 -0.33710739 0.012606686
-0.35455889 -0.26119503 0.815238 -0.35463274 -0.12539399 0.92655921 0.053586699
-0.27791479 -0.24711338 0.86069232 -0.50940889 0.085247844 0.85629171 0.025859669
-0.45455581 -0.25708896 0.77105892 -0.41629091 -0.078073896 0.9058733 0.027183298
-0.4933922 -0.27156222 0.76491153 -0.53912961 -0.12730704 0.83254564 0.058057182
-0.43595615 -0.20545657 0.77054757 -0.44028005 0.14647077 0.88583285 0.00064750283
-0.47006315 -0.13089244 0.73997921 -0.59054285 0.16052485 0.79087991 0.011218541
-0.42640242 -0.15172945 0.76519954 -0.4521907 0.14982945 0.87924665 0.00081904157
-0.33910337 0.060668804 0.76230985 -0.43354037 0.12677053 0.89217252 0.0023252578
-0.50383562 -0.2168829 0.64501119 -0.92786038 0.18380198 -0.3244873 0.0062591271
-0.30641577 -0.027085386 0.42308679 0.90434712 -0.34987304 -0.24442823 0.06820184
-0.45494336 -0.19583 0.55262637 -0.87250531 0.17132202 -0.45758414 0.0029659225
-0.2143057 -0.2081829 0.88453013 -0.44189885 0.17256722 0.88031018 0.0033722918
-0.31012398 0.0059237806 0.43742245 0.89350104 0.44011053 0.089211687 0.013257782
-0.30589443 -0.021236766 0.42116696 0.94567347 -0.19926417 -0.25689581 0.069800757
-0.41030738 -0.10331345 0.76981777 -0.37091208 0.22717033 0.90045422 0.0066202162
-0.40591043 0.067723483 0.54825032 -0.73825508 0.56883049 -0.36250699 0.001228155
-0.43733376 -0.075366721 0.62741739 -0.58017302 0.7397815 -0.34076771 0.087838441
-0.25976399 -0.25943819 0.87431502 -0.39385504 0.20797838 0.89533406 0.11702233
-0.31183347 0.017477309 0.43271899 0.86163443 0.45946968 0.21557766 0.014471178
-0.41569352 -0.23581252 0.78294444 -0.44133663 0.15011512 0.88469625 0.001396505
-0.34220251 0.057856262 0.76776898 -0.43354037 0.12677053 0.89217252 0.0023252578
-0.52271491 -0.25728491 0.73519093 -0.82626873 -0.0030515634 0.56326777 0.047866151
-0.41628188 -0.10929358 0.76856273 -0.40089139 0.20817953 0.89215881 0.0038790824
-0.40105009 -0.25413311 0.79456455 -0.46320188 -0.067901775 0.88364774 0.02338396
-0.45868963 -0.12593482 0.74350131 -0.56716418 0.18044592 0.80359447 0.0084597366
-0.42318973 -0.2034848 0.4951627 -0.88356519 0.17604373 -0.43395987 0.0026337935
-0.31210551 -0.081341997 0.81116903 -0.036820602 0.98897493 0.14343269 0.001416099
-0.3965337 0.069916964 0.53947508 -0.79730809 0.43502647 -0.41839176 0.0015673462
-0.46006271 -0.21292238 0.54774946 -0.86092091 0.20745645 -0.46451795 0.0026182542
-0.46985412 0.038937349 0.69169414 -0.85835338 0.41317239 0.3041676 0.03245689
-0.5195415 -0.27017894 0.74533272 -0.76122147 -0.11929952 0.63742411 0.067882791
-0.42451251 -0.074733354 0.62092447 -0.40929979 0.84393132 -0.34677592 0.064127341
-0.29986423 0.060523875 0.79132491 -0.49082997 0.48921716 0.72093868 0.00365943
-0.31741658 -0.07055147 0.56187844 -0.34582397 0.93710607 0.047306973 0.031721272
-0.31108835 -0.010975899 0.45471746 0.96572566 -0.063964508 -0.25155991 0.045845628
-0.50397742 -0.21822394 0.64493418 -0.92968667 0.17918678 -0.32183045 0.0065757199
-0.49460557 -0.24487068 0.74787283 -0.69767642 0.064008847 0.71354789 0.040439084
-0.31496644 -0.069155753 0.56433398 -0.34582397 0.93710607 0.047306973 0.031721272
-0.52706975 -0.24728498 0.68109804 -0.99263042 0.038711369 -0.11483195 0.031288307
-0.46291012 -0.093223982 0.73788691 -0.56886107 0.23205772 0.78901601 0.037545647
-0.42289338 -0.23124744 0.4771671 -0.87522489 0.17507002 -0.45092338 0.0024113576
-0.38870886 -0.19414863 0.79158711 -0.43492877 0.14692013 0.88839829 0.0013212136
-0.20708352 -0.027486827 0.76260608 0.89245623 0.27255052 -0.35949716 0.010339013
-0.47660309 -0.078677893 0.72572881 -0.68135959 0.24431342 0.68997109 0.047665887
-0.46133059 -0.0031943079 0.71385843 -0.99063349 0.12518257 0.054540846 0.013479409
-0.35518122 -0.078302376 0.45377228 -0.6801874 0.72832948 -0.082953043 0.041867323
-0.2321234 -0.1553342 0.86923218 -0.52807844 0.062943496 0.84685969 0.0013292041
-0.46124789 -0.21186598 0.5439437 -0.86189115 0.20844954 -0.46226874 0.0025876428
-0.49830389 -0.26642463 0.59738678 -0.90983194 -0.12783609 -0.39479578 0.045997679
-0.47200596 -0.008122989 0.7072618 -0.99063349 0.12518257 0.054540846 0.013479409
-0.43309039 -0.13331734 0.52625823 -0.88267195 0.10901656 -0.45717123 0.0032494366
-0.47720301 -0.14943689 0.61262554 -0.863442 0.21157616 -0.45793372 0.0026674923
-0.50102276 -0.10463219 0.70649654 -0.9481042 0.2531985 0.19232517 0.077000432
-0.36213866 0.068440937 0.46794257 0.81596446 0.46641257 0.3415572 0.010143927
-0.19450924 -0.02321054 0.77311927 0.8935616 0.27273569 -0.35659915 0.009111302
-0.48481423 -0.23706487 0.75183481 -0.44463825 0.27248603 0.85325736 0.0050671333
