# .PCD v0.7 - Point Cloud Data file format
VERSION 0.7
FIELDS x y z
SIZE 4 4 4
TYPE F F F
COUNT 1 1 1
WIDTH 557
HEIGHT 1
VIEWPOINT 0 0 0 1 0 0 0
POINTS 557
DATA ascii
-0.36667159 -0.075768873 1.223397
-0.4390159 -0.3775363 1.260798
0.078768753 -0.1493157 1.194823
-0.25343671 -0.087873623 0.97362638
-0.44153541 -0.58536959 1.207546
-0.44531101 -0.60112667 1.21095
-0.2140802 -0.2840485 0.95960659
-0.56655532 -0.58144969 1.447971
-0.51341373 -0.31145561 1.443168
-0.47685501 -0.39652291 1.315025
-0.43682179 -0.41694269 1.239035
-0.51615119 -0.28817609 1.447786
-0.2438097 -0.42166251 0.90074921
-0.24318279 -0.47557789 0.89180863
-0.234501 -0.55586642 0.86073261
-0.25057539 -0.55822217 0.87668419
-0.2925722 -0.49899349 0.90304792
-0.2514374 -0.58278233 0.8757897
-0.23854101 -0.41403589 0.90341449
-0.248484 -0.4869647 0.89501482
-0.2836048 -0.50441402 0.91591477
-0.28527889 -0.43063679 0.95268291
-0.4815079 -0.61535567 1.232483
-0.21599209 -0.52973878 0.89449853
-0.22520059 -0.55253738 0.88568759
-0.27689379 -0.42016351 0.93436718
-0.2095563 -0.55911708 0.8887248
-0.42241439 -0.55880642 1.177945
-0.29173881 -0.52864778 0.93080157
-0.32875791 -0.58841348 0.98332888
-0.2772302 -0.59894979 0.89321208
-0.26017529 -0.64807701 0.84956229
-0.2804704 -0.55857599 0.92037338
-0.29088649 -0.37577879 0.97117001
-0.32537809 -0.094758607 1.139968
-0.48652279 -0.20104501 1.45285
-0.02800772 -0.249229 1.198681
0.1699823 -0.2933678 1.100419
-0.01129395 -0.57331592 0.94572687
0.2417787 -0.04528201 1.081386
0.3027131 -0.1936013 1.082305
0.25466791 -0.1655699 1.0635231
0.27253219 -0.4962998 0.99875188
0.31871921 -0.45014611 1.030385
0.30882701 -0.46803531 1.023204
0.33506039 -0.53716582 1.004886
0.32626361 -0.40910009 1.032492
0.31758639 -0.52187037 1.009714
-0.2232136 -0.061108399 0.96566701
-0.2194189 -0.2350098 0.92914063
-0.2206113 -0.2290135 0.93015969
-0.22534899 -0.098473594 0.95694202
-0.2357479 -0.12965541 0.95810318
-0.1747631 -0.49029481 0.88400167
-0.1035614 -0.58655047 0.88025862
0.35105541 -0.51915431 1.04102
0.3088004 -0.50803429 1.010625
-0.46599391 -0.46006951 1.1720361
-0.4709976 -0.4720009 1.189586
-0.40927371 -0.1564099 1.200546
-0.43625799 -0.2550244 1.211557
-0.43288359 -0.48155969 1.10054
-0.39257661 -0.1689433 1.168102
-0.37657899 -0.30928531 1.04571
-0.32288739 -0.33831409 0.9111129
-0.1841055 -0.1694078 0.71868849
-0.1869031 -0.066559963 0.7362631
-0.16118421 -0.1264475 0.72994667
-0.1937713 -0.088101007 0.73451489
-0.13937581 -0.130182 0.73376948
-0.03048194 -0.04462466 0.7722016
-0.01944395 -0.0422845 0.70298183
-0.0074720308 -0.049767219 0.71430808
-0.2016058 -0.082857624 0.62151498
-0.073368236 -0.16645411 0.88455892
-0.1399636 -0.20101941 0.71997237
-0.221119 -0.1354709 0.445187
0.04020194 -0.20477951 0.90735
-0.1023982 -0.2005071 0.7817058
0.0044157361 -0.1910641 0.88063508
-0.12970629 -0.1461518 0.73590511
-0.1571753 -0.1167341 0.70779479
-0.13884901 -0.1846676 0.70634449
0.088464029 -0.035453942 0.75618958
0.1381786 -0.120955 0.82306468
0.1636086 -0.04451422 0.79257232
0.1887846 -0.03578933 0.81046081
0.14093959 -0.079813987 0.82428771
-0.1884426 -0.22512551 0.36821821
-0.1200949 -0.32648969 0.636329
-0.049188569 -0.372825 0.64734149
-0.1088153 -0.382936 0.62937927
-0.1015075 -0.1528971 0.51844537
-0.1234525 -0.13382 0.50574642
-0.096753329 -0.2278901 0.41532651
-0.1917579 -0.044782039 0.6544891
-0.16550259 -0.128934 0.3884595
-0.051308651 -0.067851469 0.82817602
-0.01241718 -0.19988281 0.70862669
-0.098093383 -0.15621939 0.77104348
-0.1573295 -0.085624367 0.6194129
-0.173807 -0.1663608 0.67016798
-0.29896501 -0.25312561 0.61481529
-0.1174725 -0.2252599 0.65819561
-0.058416098 -0.16857129 0.4809134
-0.06042318 -0.28954861 0.6677261
-0.1564589 -0.15027 0.78262973
-0.2090068 -0.0112357 0.55876237
-0.18326171 -0.092300087 0.76429433
-0.072322622 -0.28582069 0.66874927
-0.1006058 -0.16781101 0.6679799
-0.002143458 -0.1420131 0.76597732
-0.17939889 -0.1258114 0.75091678
-0.1680028 0.031822499 0.46267429
-0.1085262 -0.15582021 0.4167566
-0.1121873 -0.16694111 0.41927361
-0.1249113 -0.2418351 0.39631131
-0.1182049 -0.2471083 0.40458241
-0.35258451 -0.092144087 0.3621693
-0.1569448 -0.076488636 0.40894309
-0.1800914 -0.13874251 0.3877548
-0.2264431 -0.25743979 0.33734
-0.33762631 -0.22180291 0.32005599
-0.36373881 -0.1253546 0.39023289
-0.34027961 -0.1874315 0.33119449
-0.3469846 -0.2010178 0.33632031
-0.34743169 -0.26002309 0.3077614
-0.3206723 -0.073917083 0.33467579
-0.1613232 -0.076548919 0.4187474
-0.019078551 -0.029034359 0.50400859
-0.02691835 -0.07386823 0.5036757
-0.31738931 -0.075055197 0.33898059
-0.3771939 -0.24380539 0.37086251
0.052378181 -0.2488192 0.48270959
-0.35068831 -0.2365339 0.32964551
-0.32840461 -0.061496329 0.36627319
-0.34643179 -0.2262786 0.33578971
-0.34982499 -0.2318746 0.34061471
0.60905433 -0.1597935 0.69369477
0.69624299 -0.2052014 0.74233931
0.57902342 -0.26455581 0.63559288
0.5729928 -0.1742723 0.62783092
0.54405773 -0.2636106 0.68599719
-0.32375541 -0.2335273 0.30708411
0.56749761 -0.2817834 0.6194247
-0.092717469 -0.075350583 0.45165721
0.57040799 -0.2671735 0.61386442
0.4718878 -0.27502701 0.54681349
0.49534741 -0.18176331 0.56786728
-0.31673411 -0.07123597 0.3386631
-0.064048648 -0.079512037 0.47816211
-0.3128399 0.03260285 0.3646096
-0.33954129 -0.077986062 0.46689779
0.60572642 -0.1713277 0.64282018
0.61040539 -0.2787278 0.65426129
0.65785348 -0.156845 0.61747402
0.66291457 -0.1471677 0.58020788
0.52181709 -0.24896429 0.58117801
0.7414819 -0.2491872 0.78492773
-0.3048833 -0.02904439 0.3486726
-0.3697713 -0.1216148 0.40658149
-0.3867805 -0.228772 0.40648371
-0.35322851 -0.075149067 0.41272941
-0.32069209 -0.22243211 0.3109093
-0.34982541 -0.1154618 0.36846539
-0.38786149 -0.1799731 0.41500071
-0.34520391 -0.14207719 0.35322869
-0.36360881 -0.1262178 0.38865921
-0.34615681 -0.1284636 0.35615921
-0.3513045 -0.1147027 0.37239411
-0.36394641 -0.078670442 0.4118748
-0.387831 -0.1721444 0.42123139
-0.398148 -0.18537229 0.42793649
-0.3948364 -0.13101549 0.4447706
-0.31483021 -0.1770741 0.31218171
-0.34765309 -0.1180475 0.35607639
-0.33126321 -0.091844417 0.34273091
-0.35402921 -0.075660743 0.4010798
0.56396711 -0.14894819 0.65076089
-0.3384988 0.058920961 0.41058549
0.67867482 -0.1989616 0.64506161
-0.31927639 0.02154265 0.43808669
-0.31423539 -0.0027735231 0.36354771
-0.3283346 0.047032502 0.41373241
-0.39263919 -0.1287787 0.45224261
-0.36467829 -0.086914748 0.40201429
-0.3500087 -0.070738941 0.50562358
-0.29979429 -0.062496599 0.58481658
-0.049173359 -0.077078797 0.48084399
-0.3811377 -0.1463187 0.4176071
-0.30982769 -0.088313758 0.33081949
-0.31800401 -0.090354502 0.33157659
-0.29793659 -0.039808031 0.51513898
-0.33460781 -0.24182411 0.31295499
-0.35589099 0.06595052 0.44488171
-0.33116689 -0.071036398 0.51428717
-0.36548361 0.057309691 0.47075179
-0.34678051 0.069140851 0.4330194
-0.29091391 -0.04836392 0.516819
-0.36554989 0.064996697 0.47186869
-0.35100019 0.067405552 0.4383862
-0.40560639 -0.23863091 0.44130069
-0.38400221 -0.15584029 0.42287779
-0.40067151 -0.2012756 0.4450939
-0.38903689 -0.22996721 0.40977871
-0.40800479 -0.23413339 0.44918019
-0.37847289 -0.083977148 0.43108851
-0.38609701 -0.1687167 0.41753131
-0.3866505 -0.112347 0.44552511
-0.39306319 -0.1895 0.42656049
-0.38969019 -0.1326521 0.44155711
-0.375525 -0.23674729 0.37196881
-0.34743509 -0.1853763 0.34223539
-0.41519651 -0.2689344 0.44144991
-0.38192001 -0.22617359 0.39861831
-0.37660989 -0.1905769 0.3887251
-0.37892881 -0.081385151 0.43746209
-0.3441563 -0.2712003 0.3084918
-0.2898891 -0.028571431 0.57987088
-0.39044851 -0.1134575 0.45085299
-0.33993649 -0.25937551 0.30038011
-0.3185814 -0.065802768 0.53739679
-0.3874805 -0.25051489 0.39223859
-0.37425959 -0.082575187 0.4265708
-0.39562389 -0.1139333 0.4614158
-0.4051626 -0.2098399 0.44763589
-0.35368079 -0.072492197 0.51957119
-0.41379741 -0.2255213 0.4559404
-0.29911891 -0.06131728 0.58987248
-0.39897189 -0.1039571 0.47241229
-0.37689659 -0.1867463 0.39069271
-0.42543101 -0.2299715 0.45309901
-0.37044251 -0.1845876 0.38180989
-0.3852464 -0.1249351 0.43848929
-0.41460729 -0.22794759 0.45890599
-0.40171009 -0.1606625 0.4542748
-0.33985519 -0.27037409 0.30050021
-0.40231651 -0.1694307 0.45502111
-0.37642971 -0.18580849 0.3928172
-0.39932439 -0.2441062 0.43504789
-0.35599551 0.071751021 0.44804469
-0.2880331 -0.043279171 0.53382647
-0.42213649 -0.2277689 0.48041329
-0.43092859 -0.2406712 0.4822695
-0.36375189 -0.08451803 0.40649039
-0.35491189 0.058335789 0.4438597
-0.39383331 -0.1095651 0.46146059
-0.4111909 -0.1200743 0.49159989
-0.43161649 -0.2265375 0.49527591
-0.4054001 -0.2002379 0.44464859
-0.4318867 -0.1951399 0.50936168
-0.43418449 -0.2261055 0.50257301
-0.41930851 -0.171583 0.49447849
-0.43792671 -0.22171859 0.51181579
-0.40572691 -0.111748 0.4808268
-0.39161429 -0.1718695 0.43441749
-0.38235721 -0.2474902 0.3882176
-0.37935549 -0.27002251 0.37102669
-0.41243991 -0.1013888 0.50458819
-0.377572 -0.2395266 0.3801907
-0.43424761 -0.2345473 0.50206661
-0.41295791 -0.14970849 0.49529651
-0.37810069 -0.06983532 0.54913992
-0.41953999 -0.2463304 0.4725765
-0.41533819 -0.2332412 0.46416619
-0.4025501 -0.16649459 0.45908591
-0.40923831 -0.1201112 0.48443481
-0.41587991 -0.1617347 0.48326999
-0.41174629 -0.15649229 0.48537979
-0.39419851 -0.079567522 0.47651029
-0.32182691 -0.067064807 0.47843689
-0.50800318 -0.1699629 0.72530532
-0.4808653 -0.02368583 0.67838502
-0.47788379 0.001693323 0.70181447
-0.48364431 -0.03008662 0.70368141
-0.47231901 0.035056248 0.70027649
-0.47956631 -0.001491636 0.70218039
-0.47291911 0.040486649 0.70030308
-0.38291499 0.079828881 0.51591492
-0.48336431 -0.026327459 0.70381713
-0.42013231 0.076552123 0.59198672
-0.4485231 0.076193169 0.647129
-0.41640741 0.076758184 0.57386202
-0.44589469 0.068976127 0.63267487
-0.45024949 0.075394921 0.64636147
-0.38076091 0.081144862 0.51450479
-0.3591654 -0.09748055 0.41930291
-0.2861774 -0.044757981 0.51407582
-0.3009291 -0.01102547 0.4351134
-0.4785814 -0.028280361 0.68696898
-0.30355299 -0.01482841 0.43661731
-0.4279483 0.071055099 0.60112047
-0.29727721 -0.01056819 0.42718989
-0.35875359 0.063020952 0.46906731
-0.30043191 0.01492898 0.4261651
-0.49001959 -0.1209534 0.64674318
-0.48491591 -0.044449139 0.70309538
-0.49692959 -0.22725169 0.61914521
-0.51559472 -0.2160365 0.67907321
-0.47232881 -0.1152077 0.62130809
-0.4385609 -0.075159729 0.6369673
-0.4999885 -0.1893287 0.64022732
-0.47137269 -0.1593491 0.5988251
-0.4935264 -0.1850525 0.6133014
-0.4968355 -0.1805066 0.63780862
-0.47226709 -0.15469439 0.59717607
-0.43993071 -0.1393261 0.5437392
-0.4864763 -0.2559399 0.59251177
-0.48550051 -0.1138091 0.63799047
-0.4520416 -0.080020063 0.6125648
-0.5286721 -0.25138301 0.68283898
-0.4166846 -0.087675624 0.51421368
-0.45290911 -0.20036989 0.54842943
-0.43178371 -0.2270375 0.4977645
-0.44706541 -0.26205531 0.51112741
-0.4914611 -0.1934029 0.62127638
-0.51440859 -0.1938083 0.71131313
-0.45280889 -0.1844492 0.5647282
-0.48643601 -0.1841933 0.61771852
-0.49104571 -0.1757195 0.62577862
-0.50711632 -0.1388302 0.70900321
-0.45435661 -0.081829377 0.60726732
-0.4513025 -0.220254 0.56242311
-0.49223149 -0.2626842 0.59341931
-0.53714973 -0.2479589 0.68971997
-0.4035635 0.074886791 0.73653507
-0.3898119 0.078521907 0.74115902
-0.41437519 0.072261058 0.73245782
-0.18011381 -0.023015929 0.82922262
-0.3292667 0.063872427 0.77562273
-0.20596971 0.067522228 0.83765233
-0.1841553 -0.02414228 0.82179171
-0.29678619 0.073840879 0.78709978
-0.17419919 0.028542619 0.82366198
-0.18093599 -0.052296281 0.81287789
-0.173704 -0.02193648 0.83661437
-0.29430929 -0.072509661 0.7382471
-0.4105981 0.062456999 0.73223323
-0.25571671 -0.071048237 0.76148552
-0.4013097 -0.088230059 0.76872969
-0.29419729 -0.085048243 0.82384282
-0.25909671 -0.1510683 0.85107481
-0.4581793 -0.2211885 0.76801491
-0.40323049 -0.25588259 0.77901047
-0.486505 -0.2172558 0.74283862
-0.3897396 -0.08658208 0.77301699
-0.47346649 -0.05931659 0.71907723
-0.4765023 -0.20207851 0.74675131
-0.2353193 -0.1783898 0.86183858
-0.3064974 -0.238342 0.83542031
-0.3590391 -0.25704879 0.81966728
-0.37036631 -0.2277157 0.80624843
-0.4608669 -0.25641131 0.77022243
-0.2256255 -0.1952603 0.87307072
-0.33244619 -0.07783632 0.75879192
-0.3717106 -0.1670503 0.79304647
-0.3882952 -0.16851731 0.78938973
-0.1939944 -0.25885311 0.90371841
-0.2724869 -0.25451109 0.86248851
-0.46305099 -0.2269334 0.75940078
-0.42807019 -0.25718719 0.78435677
-0.43710691 -0.22143731 0.77169549
-0.36086029 -0.1688417 0.80201268
-0.31265149 -0.17201421 0.82373857
-0.39400491 -0.075536847 0.76198691
-0.34173131 -0.074285582 0.7686829
-0.39891121 -0.25530201 0.80140358
-0.1364551 -0.2586256 0.92664492
-0.36915401 -0.077229932 0.77364337
-0.45927969 -0.1210106 0.74323189
-0.4206129 -0.082254872 0.75190723
0.19728389 -0.27730209 1.047527
-0.33640319 -0.2163721 0.81927979
-0.22488859 -0.22592489 0.87952727
-0.4012439 -0.21172281 0.78578359
-0.38199839 -0.22537901 0.79700083
-0.42154399 -0.25530431 0.78492808
-0.3061358 -0.082021877 0.80545431
-0.29831511 -0.1595033 0.82792282
-0.34942999 -0.078502521 0.77452171
-0.1670197 -0.1498436 0.89405233
-0.4806723 -0.079006821 0.7284438
-0.46895429 0.015915509 0.67393821
-0.3901473 -0.067248233 0.62570667
-0.52777171 -0.2516183 0.68336022
-0.49292961 -0.25052059 0.5959565
-0.45165741 -0.082041249 0.61233521
-0.51208287 -0.19395851 0.71787977
-0.50523782 -0.1389484 0.71216172
-0.4661139 -0.1422337 0.61183149
-0.50822222 -0.25068191 0.64294058
-0.49524719 -0.220817 0.64510018
-0.51457721 -0.1700301 0.67172408
-0.4532727 -0.090176091 0.66124117
-0.46248811 -0.01428975 0.71411657
-0.184242 -0.02205178 0.79953963
-0.2174935 -0.064684287 0.78996998
-0.35505739 -0.26157621 0.81468159
-0.27784839 -0.24708471 0.86062771
-0.45363331 -0.2574127 0.76899707
-0.49522799 -0.2693519 0.76764452
-0.4339928 -0.20597699 0.76590937
-0.4691985 -0.1311218 0.73757172
-0.42640471 -0.15172809 0.76520377
-0.3392134 0.060911689 0.7623437
-0.50627428 -0.2165693 0.6440419
-0.31042859 -0.027971881 0.42358091
-0.45369339 -0.19607399 0.55216938
-0.2143057 -0.2081829 0.88453013
-0.31694251 0.0051596612 0.4362956
-0.31351301 -0.02119215 0.4203552
-0.41144559 -0.1022588 0.77180678
-0.40407649 0.064497128 0.54963148
-0.4375281 -0.072981149 0.62695348
-0.25976399 -0.25943819 0.87431502
-0.30948201 0.018400559 0.43454421
-0.41519389 -0.2359789 0.78197283
-0.34220251 0.057856262 0.76776898
-0.52213538 -0.25776851 0.73395908
-0.41519269 -0.1101153 0.76679069
-0.4014748 -0.25388739 0.79530519
-0.45833081 -0.126057 0.74238318
-0.41459981 -0.2056201 0.50054443
-0.31210551 -0.081341997 0.81116903
-0.39304289 0.067513943 0.54078788
-0.45803899 -0.21331739 0.54700959
-0.47302881 0.039938319 0.6902746
-0.1187163 -0.26261011 0.93297261
-0.51847053 -0.2713668 0.7441144
-0.42449439 -0.074842967 0.62094182
-0.2997171 0.060360469 0.791026
-0.31808561 -0.069709383 0.56206739
-0.30716521 -0.01053625 0.45536581
-0.50554782 -0.218022 0.64431
-0.4922069 -0.24668179 0.74501753
-0.31412771 -0.070211411 0.56409711
-0.5283671 -0.2470725 0.67974848
-0.46387881 -0.092994019 0.73969728
-0.31504911 0.088323563 0.55497283
-0.41817909 -0.2337151 0.47929499
-0.3892782 -0.1940379 0.79304498
-0.20712569 -0.02740423 0.76262748
-0.47733501 -0.078224972 0.72694081
-0.46139899 -0.003177583 0.71396768
-0.35519901 -0.075101301 0.45322111
-0.2321234 -0.1553342 0.86923218
-0.46477139 -0.2111782 0.54523188
-0.1172723 -0.1351939 0.90774149
-0.2996496 0.026375709 0.4757387
-0.49839959 -0.2663821 0.59731787
-0.474226 -0.007418185 0.70804572
-0.43252811 -0.13269509 0.52657819
-0.47939461 -0.1487948 0.61123902
-0.50050879 -0.1048017 0.70629847
-0.36099291 0.06836886 0.4683744
-0.1945927 -0.023019001 0.77314222
-0.4824478 -0.2384682 0.74838948
-0.33802289 -0.2057223 0.81452513
-0.36167079 0.05824751 0.4681465
-0.4820323 -0.098497413 0.63919562
-0.2903302 -0.1143992 0.82801229
-0.21038871 -0.02624735 0.73966259
-0.36256161 -0.073414177 0.57542032
-0.51619041 -0.220511 0.72448373
-0.46667179 0.053819999 0.69590729
-0.42725551 -0.16950171 0.77043408
-0.4007839 -0.17842171 0.78780383
-0.51607448 -0.1948974 0.72099447
-0.49456009 -0.093742117 0.71763468
-0.36556441 0.088205613 0.67751342
-0.219375 -0.022345049 0.72662938
-0.50908649 -0.1142854 0.69645089
-0.3011508 -0.030121909 0.43602049
-0.40485969 -0.072034717 0.62902337
-0.47378609 -0.05601288 0.66612762
-0.50769627 -0.1272949 0.70741469
-0.4226262 -0.1583854 0.76938742
-0.4389624 -0.12852781 0.52543849
-0.50251198 -0.16685741 0.66164428
-0.1626073 -0.006821156 0.82121933
-0.40566659 0.071642756 0.5564689
-0.4263179 0.071174324 0.60600668
-0.25198779 -0.1071597 0.85074413
-0.4516708 0.050346579 0.66050422
-0.49584389 -0.17287929 0.63901281
0.2603794 -0.27242941 1.065676
-0.30647251 0.072772019 0.77970117
-0.38740551 0.091199793 0.6593048
-0.2180123 0.063002467 0.82737952
-0.30660921 -0.072067156 0.47295079
-0.38540521 0.070884883 0.52204698
-0.37512401 0.079124287 0.50286162
-0.3316915 0.048809111 0.41572541
-0.46481559 0.064871527 0.64443648
-0.31071639 -0.024341751 0.43843359
-0.3946588 0.06048727 0.51134551
-0.3639386 -0.072853044 0.55263293
-0.48333451 -0.038735259 0.70217693
-0.4965488 -0.1848834 0.6392765
-0.4843815 -0.02072257 0.68247008
-0.4312309 -0.074105009 0.63534391
-0.3961114 -0.1166344 0.48367801
-0.26332921 -0.1754567 0.84768921
-0.28760979 -0.1739853 0.83502322
-0.36390591 -0.2600483 0.82105339
-0.20264199 -0.2610718 0.90121329
-0.40158421 -0.19916619 0.78698641
-0.3053951 -0.2290637 0.83416951
-0.31871289 -0.076803677 0.75737679
-0.4259443 -0.06969972 0.51398188
-0.4990727 -0.094621077 0.69180131
-0.42098719 -0.083421253 0.75501418
-0.49330789 -0.1946979 0.62881881
-0.46055099 -0.1015501 0.73991531
-0.3432174 -0.19088881 0.80858898
-0.51720178 -0.2146 0.6731478
-0.4918327 -0.1131862 0.73221338
-0.48949051 -0.2616224 0.58605552
-0.37844229 -0.201822 0.79620051
0.4887791 -0.224084 1.022061
-0.45334911 -0.25976941 0.51324427
-0.31153971 -0.01448251 0.4418689
-0.48827571 -0.042588562 0.70413518
-0.51541013 -0.1504298 0.69513279
-0.5113306 -0.1663295 0.71881932
-0.46956801 -0.22249369 0.75901133
-0.46396649 -0.2293015 0.55806297
-0.51794147 -0.1623686 0.69156629
-0.51751888 -0.1724562 0.7143234
-0.51695979 -0.160577 0.69389743
-0.51193619 -0.1373671 0.7157588
-0.50621247 -0.1034411 0.70802039
-0.49628839 -0.094086193 0.71765763
-0.49906641 -0.19376761 0.63891608
-0.4643186 -0.079280138 0.61336619
-0.45434019 -0.092341773 0.58470112
-0.426375 -0.13579869 0.52238941
-0.46158791 -0.1585775 0.74817377
-0.49519411 -0.1754851 0.63735712
-0.42116439 -0.1393095 0.51583159
-0.4660387 -0.079026178 0.61030477
-0.42417449 -0.23553561 0.47870749
-0.48839441 -0.1156269 0.64903527
-0.4876003 -0.04561336 0.70632422
-0.4967671 -0.1544567 0.73172551
-0.50713682 -0.1071049 0.704898
-0.45669541 -0.2671614 0.51118457
-0.48666251 -0.2658563 0.58041197
-0.50817609 -0.1226582 0.71009839
-0.50650728 -0.1074324 0.68520439
-0.44610161 -0.1365535 0.55896372
-0.456462 -0.1363516 0.57787532
-0.45316181 -0.25794509 0.52176648
-0.51368892 -0.1384685 0.70549762
-0.31123051 0.0039549838 0.43467411
-0.30970651 -0.008193925 0.43867791
-0.4760375 -0.1138888 0.62207937
